ply
format ascii 1.0
comment VTK generated PLY File
obj_info vtkPolyData points and polygons: vtk4.0
element vertex 1177
property float x
property float y
property float z
property uchar red
property uchar green
property uchar blue
property uchar alpha
element face 0
property list uchar int vertex_indices
end_header
-28.9198 -13.681 -0.307116 72 27 109 255 
-28.8898 -13.6363 -0.602245 72 24 106 255 
-28.8996 -13.6034 -0.903358 71 17 100 255 
-28.826 -13.6556 -1.15846 70 52 128 255 
-28.8697 -13.6449 -1.4556 72 31 112 255 
-28.9141 -13.6416 -1.75945 72 22 104 255 
-28.0093 -13.1784 -1.99633 70 8 92 255 
-24.1303 -11.426 -1.93721 70 8 92 255 
-20.1895 -9.53374 -1.82779 71 14 97 255 
-17.2724 -8.13798 -1.74436 71 14 97 255 
-15.1328 -7.12 -1.68698 72 35 116 255 
-13.4967 -6.38221 -1.62715 72 38 119 255 
-12.1316 -5.72611 -1.59015 70 50 126 255 
-10.955 -5.15918 -1.5512 71 47 125 255 
-10.0107 -4.7058 -1.52312 70 51 127 255 
-9.23562 -4.36136 -1.49183 71 47 125 255 
-8.5834 -4.04769 -1.4759 69 55 129 255 
-7.9709 -3.75214 -1.45372 70 50 126 255 
-7.45534 -3.50457 -1.44072 71 46 124 255 
-7.02582 -3.31184 -1.42556 67 61 132 255 
-6.62151 -3.11829 -1.41207 67 61 132 255 
-6.26542 -2.94932 -1.40511 70 51 127 255 
-5.92364 -2.78581 -1.39498 63 72 137 255 
-5.66274 -2.66569 -1.38869 55 90 140 255 
-5.39398 -2.5379 -1.38064 48 106 142 255 
-5.13324 -2.41418 -1.3713 64 69 136 255 
-4.86542 -2.29022 -1.35672 65 66 135 255 
-4.69555 -2.2054 -1.35612 67 62 133 255 
-4.50409 -2.11536 -1.35011 69 55 129 255 
-4.36661 -2.0527 -1.35989 70 51 127 255 
-4.13318 -1.9473 -1.33865 71 46 124 255 
-38.3764 -17.925 12.7236 71 16 99 255 
-38.4297 -17.9901 12.2715 72 20 103 255 
-38.3765 -17.9819 11.8089 72 22 104 255 
-38.3981 -17.9911 11.3859 72 22 104 255 
-38.3471 -17.9357 10.9878 71 19 101 255 
-38.4053 -17.9705 10.5562 71 19 101 255 
-38.5098 -18.0116 10.1517 70 10 93 255 
-0 -0 0 68 2 86 255 
-0 -0 0 68 2 86 255 
-17.9489 -8.39477 4.16485 71 45 123 255 
-17.9525 -8.38517 3.97005 63 71 136 255 
-17.9738 -8.38712 3.7836 58 84 140 255 
-17.965 -8.40643 3.61886 55 91 141 255 
-17.9701 -8.40088 3.42286 69 56 130 255 
-18.0093 -8.40409 3.23308 58 84 140 255 
-17.9943 -8.37759 3.0444 71 47 125 255 
-17.9831 -8.41106 2.88207 68 59 132 255 
-18.0032 -8.4125 2.69029 64 69 136 255 
-17.9765 -8.37732 2.4949 66 64 134 255 
-17.9888 -8.36741 2.31307 66 65 134 255 
-18.0026 -8.42019 2.15555 62 76 138 255 
-17.9799 -8.39015 1.96292 69 53 129 255 
-20.2417 -9.42861 1.99682 72 41 121 255 
-23.2301 -10.7906 2.05185 72 28 110 255 
-23.1884 -10.8408 1.84831 72 29 111 255 
-26.1587 -12.2011 1.81093 72 28 110 255 
-27.1762 -12.6414 1.59702 70 8 92 255 
-29.0412 -13.4776 1.40346 70 8 92 255 
-29.6925 -13.8689 1.17878 70 7 90 255 
-29.7353 -13.8568 0.8705 70 7 90 255 
-28.9537 -13.4621 0.546197 72 24 106 255 
-0 -0 0 68 1 84 255 
-45.5802 -21.2801 -0.00877953 70 7 90 255 
-45.6632 -21.2598 -0.483529 70 7 90 255 
-45.5821 -21.1742 -0.947492 69 5 89 255 
-0 -0 -0 68 1 84 255 
-28.9392 -13.4924 -1.15966 71 13 96 255 
-0 -0 -0 68 1 84 255 
-0 -0 -0 68 2 86 255 
-27.4648 -12.717 -1.95192 70 7 90 255 
-24.1909 -11.2735 -1.93649 70 7 90 255 
-20.1735 -9.37523 -1.8211 71 14 97 255 
-17.3138 -8.02808 -1.74354 72 20 103 255 
-15.1798 -7.02868 -1.68738 72 32 113 255 
-13.5392 -6.30095 -1.62758 71 42 122 255 
-12.1449 -5.64152 -1.58733 70 50 126 255 
-10.954 -5.07685 -1.54663 69 55 129 255 
-10.043 -4.64595 -1.52367 70 52 128 255 
-9.25951 -4.30336 -1.49139 69 56 130 255 
-8.61435 -3.99786 -1.47698 71 44 122 255 
-7.95975 -3.6874 -1.44754 71 45 123 255 
-7.44541 -3.44428 -1.43469 70 51 127 255 
-7.04779 -3.26949 -1.42592 67 62 133 255 
-6.63874 -3.07677 -1.41169 66 64 134 255 
-6.28162 -2.91 -1.40471 60 80 139 255 
-5.94417 -2.75106 -1.39581 63 72 137 255 
-5.66127 -2.62268 -1.38435 56 89 140 255 
-5.39973 -2.50025 -1.37816 52 96 141 255 
-5.15149 -2.38427 -1.37224 59 81 139 255 
-4.88906 -2.2648 -1.35941 65 68 135 255 
-4.71251 -2.17817 -1.35714 69 55 129 255 
-4.52924 -2.09335 -1.35378 70 51 127 255 
-4.36777 -2.02062 -1.35636 70 52 128 255 
-4.14853 -1.92352 -1.33977 69 55 129 255 
-38.3203 -17.6132 12.6689 71 17 100 255 
-38.3597 -17.6711 12.2143 72 20 103 255 
-38.3313 -17.6747 11.7614 72 22 104 255 
-38.3263 -17.6715 11.3322 71 16 99 255 
-38.3298 -17.6418 10.9516 72 22 104 255 
-38.3289 -17.6489 10.5052 72 23 105 255 
-38.6178 -17.7741 10.1513 71 13 96 255 
-43.1805 -19.864 10.8859 69 4 87 255 
-44.7288 -20.5965 10.8628 69 4 87 255 
-17.9876 -8.27875 4.16197 72 36 117 255 
-17.9964 -8.27159 3.96848 64 69 136 255 
-17.9946 -8.26274 3.77723 61 78 138 255 
-18.0127 -8.29439 3.61814 55 91 141 255 
-18.0205 -8.29005 3.42269 71 45 123 255 
-18.0319 -8.28025 3.22794 70 50 126 255 
-18.0265 -8.25838 3.04121 70 48 126 255 
-18.0398 -8.30304 2.88293 69 56 130 255 
-18.0392 -8.29484 2.68801 64 70 136 255 
-18.0339 -8.26976 2.49578 64 70 136 255 
-18.0398 -8.25688 2.31307 66 65 134 255 
-18.0395 -8.30292 2.15382 64 69 136 255 
-18.0193 -8.27427 1.96164 70 50 126 255 
-20.32 -9.31378 1.99887 72 38 119 255 
-23.2931 -10.6466 2.05161 72 27 109 255 
-23.2472 -10.6949 1.84774 72 28 110 255 
-26.0779 -11.9692 1.80022 71 14 97 255 
-27.2342 -12.4657 1.5959 70 8 92 255 
-28.898 -13.1963 1.3926 69 5 89 255 
-30.2737 -13.9147 1.19844 69 5 89 255 
-30.3086 -13.8982 0.884771 70 7 90 255 
-28.9112 -13.2272 0.543854 72 29 111 255 
-0 -0 0 68 1 84 255 
-45.38 -20.8484 -0.00871617 69 5 89 255 
-45.6709 -20.9234 -0.482243 69 5 89 255 
-0 -0 -0 68 2 86 255 
-0 -0 -0 68 2 86 255 
-0 -0 -0 68 2 86 255 
-0 -0 -0 68 1 84 255 
-0 -0 -0 68 1 84 255 
-26.8939 -12.2528 -1.90597 71 13 96 255 
-24.3095 -11.1477 -1.94047 69 5 89 255 
-20.3666 -9.31345 -1.83334 71 14 97 255 
-17.2867 -7.88697 -1.7359 71 19 101 255 
-15.2516 -6.94861 -1.69059 72 27 109 255 
-13.5532 -6.20658 -1.62465 72 37 118 255 
-12.1865 -5.5702 -1.58827 70 51 127 255 
-11.0021 -5.01736 -1.54904 70 50 126 255 
-10.0605 -4.57931 -1.52203 70 48 126 255 
-9.26415 -4.23659 -1.48793 70 51 127 255 
-8.62883 -3.94041 -1.47529 69 55 129 255 
-8.00646 -3.64954 -1.45193 70 52 128 255 
-7.4691 -3.39976 -1.43521 69 53 129 255 
-7.07756 -3.23068 -1.42791 68 57 131 255 
-6.64231 -3.02905 -1.40847 66 63 133 255 
-6.29758 -2.87059 -1.40431 59 82 139 255 
-5.94314 -2.70643 -1.39165 62 73 137 255 
-5.67814 -2.5883 -1.38457 60 80 139 255 
-5.40256 -2.46142 -1.375 54 93 141 255 
-5.16071 -2.3502 -1.37083 59 81 139 255 
-4.90286 -2.23476 -1.35941 64 69 136 255 
-4.7205 -2.14681 -1.35562 68 59 132 255 
-4.55079 -2.06952 -1.3564 69 53 129 255 
-4.35643 -1.98301 -1.34904 71 46 124 255 
-4.16549 -1.90042 -1.34146 71 42 122 255 
-38.2941 -17.3173 12.6249 72 20 103 255 
-38.344 -17.3795 12.1751 72 27 109 255 
-38.2899 -17.3715 11.7158 72 23 105 255 
-38.2774 -17.3649 11.2861 71 19 101 255 
-38.328 -17.3568 10.9205 71 19 101 255 
-38.3816 -17.3885 10.4903 72 20 103 255 
-38.7164 -17.5324 10.1487 72 22 104 255 
-18.8672 -8.53949 4.74317 71 19 101 255 
-18.8714 -8.54987 4.57029 72 29 111 255 
-18.047 -8.17227 4.16402 71 46 124 255 
-18.0344 -8.15535 3.96573 61 77 138 255 
-18.0521 -8.15541 3.77873 56 89 140 255 
-18.0337 -8.17031 3.61222 59 82 139 255 
-18.0898 -8.18786 3.42626 70 51 127 255 
-18.0859 -8.17108 3.22859 69 53 129 255 
-18.0741 -8.1464 3.04076 71 42 122 255 
-18.0768 -8.18607 2.88078 68 57 131 255 
-18.0699 -8.17501 2.68506 63 72 137 255 
-18.0825 -8.15813 2.49553 63 72 137 255 
-18.0829 -8.14277 2.31214 66 64 134 255 
-18.0656 -8.181 2.15091 63 71 136 255 
-18.047 -8.15331 1.95918 70 50 126 255 
-20.3913 -9.19547 2.00029 72 38 119 255 
-23.3689 -10.5084 2.05257 72 28 110 255 
-23.3133 -10.5525 1.84781 72 31 112 255 
-25.4396 -11.4878 1.75125 71 16 99 255 
-28.8762 -13.0036 1.68742 72 33 115 255 
-28.9976 -13.0273 1.39352 70 8 92 255 
-29.1739 -13.193 1.15168 70 7 90 255 
-29.2179 -13.1817 0.850553 69 4 87 255 
-28.8824 -13.0003 0.541801 72 41 121 255 
-0 -0 0 68 2 86 255 
-45.4497 -20.5437 -0.00870518 70 7 90 255 
-45.8395 -20.6613 -0.482675 69 5 89 255 
-0 -0 -0 68 2 86 255 
-28.0643 -12.5845 -0.869857 72 23 105 255 
-27.8055 -12.5508 -1.10797 72 23 105 255 
-27.8034 -12.5202 -1.38998 72 29 111 255 
-27.8006 -12.4959 -1.67741 72 24 106 255 
-26.3239 -11.7986 -1.8604 70 8 92 255 
-24.1838 -10.911 -1.92506 70 10 93 255 
-20.4416 -9.19648 -1.83497 71 14 97 255 
-17.3057 -7.7677 -1.73299 71 13 96 255 
-15.3049 -6.85978 -1.6918 72 29 111 255 
-13.5783 -6.11759 -1.62314 72 35 116 255 
-12.206 -5.4888 -1.58639 71 44 122 255 
-11.0029 -4.93636 -1.54485 70 48 126 255 
-10.0848 -4.51588 -1.52149 71 46 124 255 
-9.29087 -4.18007 -1.48807 70 48 126 255 
-8.64653 -3.88456 -1.47421 70 50 126 255 
-8.02601 -3.59913 -1.45145 70 52 128 255 
-7.5069 -3.36151 -1.43848 71 46 124 255 
-7.06854 -3.1743 -1.42213 65 66 135 255 
-6.66525 -2.99025 -1.40942 67 61 132 255 
-6.31418 -2.83149 -1.40411 60 79 138 255 
-5.96856 -2.67391 -1.39373 63 71 136 255 
-5.69748 -2.55501 -1.38544 55 90 140 255 
-5.40689 -2.42344 -1.37229 51 98 141 255 
-5.1706 -2.3165 -1.36965 58 83 139 255 
-4.94303 -2.21654 -1.36675 66 64 134 255 
-4.73712 -2.11938 -1.35663 66 64 134 255 
-4.5634 -2.04156 -1.3564 69 53 129 255 
-4.34743 -1.9468 -1.34253 69 53 129 255 
-4.20334 -1.88661 -1.34989 71 42 122 255 
-38.2868 -17.0318 12.5878 72 20 103 255 
-38.3315 -17.0911 12.1376 72 22 104 255 
-38.2665 -17.0785 11.6763 72 22 104 255 
-38.2465 -17.0687 11.2459 71 19 101 255 
-38.2623 -17.0449 10.8718 72 23 105 255 
-38.2421 -17.0433 10.4233 72 23 105 255 
-18.8643 -8.40346 4.93129 72 20 103 255 
-18.9184 -8.42317 4.74295 71 46 124 255 
-19.0109 -8.47287 4.5914 71 46 124 255 
-18.1388 -8.08009 4.17369 68 59 132 255 
-18.0796 -8.04255 3.96475 58 84 140 255 
-18.0767 -8.03332 3.77348 58 83 139 255 
-18.0718 -8.0543 3.60988 58 83 139 255 
-18.1487 -8.08071 3.42796 70 48 126 255 
-18.1511 -8.06676 3.23132 68 58 131 255 
-18.1337 -8.03975 3.04243 71 47 125 255 
-18.1086 -8.06695 2.8779 70 51 127 255 
-18.107 -8.05834 2.68318 65 68 135 255 
-18.1195 -8.04139 2.49378 68 59 132 255 
-18.1316 -8.03126 2.31203 66 63 133 255 
-18.1028 -8.06434 2.1494 64 69 136 255 
-18.0849 -8.03716 1.9579 71 46 124 255 
-20.4719 -9.08109 2.0027 72 38 119 255 
-23.4776 -10.3846 2.05648 72 26 108 255 
-23.4761 -10.4531 1.85559 72 32 113 255 
-24.9341 -11.0758 1.71174 71 19 101 255 
-28.9135 -12.8076 1.68497 71 47 125 255 
-28.9262 -12.7825 1.38629 70 8 92 255 
-29.8971 -13.2997 1.17698 69 5 89 255 
-29.893 -13.2661 0.867821 69 4 87 255 
-28.9022 -12.7965 0.54069 72 40 120 255 
-45.2828 -19.9916 0.388776 69 4 87 255 
-45.3693 -20.173 -0.00866591 70 8 92 255 
-46.1802 -20.4749 -0.484931 70 7 90 255 
-0 -0 -0 68 2 86 255 
-28.1044 -12.3959 -0.868726 72 27 109 255 
-27.7834 -12.3362 -1.10405 72 26 108 255 
-27.8587 -12.34 -1.38893 68 58 131 255 
-27.8293 -12.3041 -1.67455 72 24 106 255 
-26.0506 -11.4847 -1.83607 69 5 89 255 
-24.1655 -10.7248 -1.91833 70 8 92 255 
-20.5022 -9.0729 -1.83538 71 17 100 255 
-17.3448 -7.65775 -1.73217 71 16 99 255 
-15.3075 -6.74848 -1.68748 72 27 109 255 
-13.6102 -6.03174 -1.62249 71 45 123 255 
-12.2076 -5.39975 -1.58227 71 42 122 255 
-11.0438 -4.87356 -1.54638 70 51 127 255 
-10.1232 -4.45871 -1.52312 70 50 126 255 
-9.31001 -4.12018 -1.48706 69 55 129 255 
-8.66569 -3.82943 -1.47344 71 45 123 255 
-8.0362 -3.54464 -1.44933 71 47 125 255 
-7.54 -3.32094 -1.44089 68 58 131 255 
-7.08249 -3.12848 -1.42105 67 61 132 255 
-6.68976 -2.95207 -1.41075 66 64 134 255 
-6.34309 -2.79784 -1.4067 61 77 138 255 
-5.98217 -2.63605 -1.3931 63 72 137 255 
-5.71573 -2.52119 -1.38609 55 91 141 255 
-5.42968 -2.39376 -1.37432 53 95 141 255 
-5.19005 -2.28709 -1.37106 58 84 140 255 
-4.94323 -2.1803 -1.36308 67 62 133 255 
-4.76951 -2.09885 -1.36219 67 62 133 255 
-4.58556 -2.01779 -1.35928 70 52 128 255 
-4.37339 -1.9263 -1.34687 69 53 129 255 
-4.21659 -1.86156 -1.35046 70 50 126 255 
-24.3036 -10.6333 7.96886 71 16 99 255 
-38.2078 -16.7557 12.0656 72 24 106 255 
-38.2665 -16.7977 11.6447 72 23 105 255 
-38.2692 -16.798 11.222 71 19 101 255 
-38.1534 -16.7166 10.8115 72 22 104 255 
-38.2446 -16.7639 10.3958 71 16 99 255 
-18.879 -8.27155 4.92176 70 50 126 255 
-18.9492 -8.29794 4.73781 72 37 118 255 
-19.1279 -8.38468 4.60713 70 48 126 255 
-18.1791 -7.96472 4.17164 67 61 132 255 
-18.1286 -7.93146 3.96475 57 86 140 255 
-18.1121 -7.91635 3.77067 59 81 139 255 
-18.1236 -7.94445 3.61042 60 80 139 255 
-18.1935 -7.96723 3.42711 69 55 129 255 
-18.1722 -7.94298 3.22634 71 47 125 255 
-18.1772 -7.92596 3.04152 71 44 122 255 
-18.1533 -7.9537 2.87719 67 61 132 255 
-18.1579 -7.94788 2.68345 64 70 136 255 
-18.1794 -7.93482 2.49528 66 64 134 255 
-18.1559 -7.90914 2.3089 70 51 127 255 
-18.1456 -7.95031 2.14865 67 62 133 255 
-18.1357 -7.92684 1.9581 71 47 125 255 
-20.5793 -8.978 2.00777 72 36 117 255 
-23.5967 -10.2646 2.06135 72 29 111 255 
-23.5635 -10.3192 1.85746 72 24 106 255 
-24.9256 -10.8895 1.70655 71 13 96 255 
-28.8991 -12.5896 1.6796 70 48 126 255 
-28.9454 -12.5793 1.38349 70 8 92 255 
-30.5632 -13.372 1.19995 69 5 89 255 
-33.1384 -14.4636 0.959442 69 4 87 255 
-28.817 -12.5479 0.537645 71 47 125 255 
-45.3661 -19.6967 0.388446 70 7 90 255 
-45.4766 -19.8874 -0.00866294 70 7 90 255 
-46.5351 -20.2914 -0.48734 70 7 90 255 
-0 -0 -0 68 2 86 255 
-28.1698 -12.2189 -0.868415 71 13 96 255 
-27.9309 -12.1971 -1.10692 72 27 109 255 
-27.9696 -12.1844 -1.39071 72 31 112 255 
-27.9015 -12.1319 -1.67439 72 26 108 255 
-26.1151 -11.3222 -1.83569 70 7 90 255 
-23.9923 -10.4722 -1.89944 70 8 92 255 
-20.5456 -8.94176 -1.83432 71 16 99 255 
-17.3741 -7.54364 -1.73044 71 13 96 255 
-15.3843 -6.66986 -1.6914 72 33 115 255 
-13.6469 -5.94811 -1.62249 71 46 124 255 
-12.2597 -5.33306 -1.58474 70 51 127 255 
-11.0753 -4.80649 -1.54663 69 55 129 255 
-10.1313 -4.38824 -1.52026 71 46 124 255 
-9.34056 -4.06535 -1.48793 69 55 129 255 
-8.68358 -3.77383 -1.47252 70 50 126 255 
-8.06233 -3.49723 -1.45014 70 50 126 255 
-7.56114 -3.27501 -1.44106 69 53 129 255 
-7.11237 -3.08967 -1.42321 68 58 131 255 
-6.68433 -2.90081 -1.40582 67 62 133 255 
-6.34575 -2.75262 -1.40352 62 73 137 255 
-6.00721 -2.60319 -1.39519 61 78 138 255 
-5.72572 -2.48374 -1.38479 55 90 140 255 
-5.45231 -2.36389 -1.37635 53 94 141 255 
-5.19329 -2.25056 -1.36824 57 86 140 255 
-4.9743 -2.15764 -1.36797 63 72 137 255 
-4.77964 -2.06839 -1.36143 66 63 133 255 
-4.59608 -1.98885 -1.35875 70 51 127 255 
-4.39219 -1.90249 -1.34904 70 48 126 255 
-4.20945 -1.82763 -1.34455 70 51 127 255 
-24.3446 -10.4737 7.96109 72 28 110 255 
-38.1996 -16.4734 12.0309 72 23 105 255 
-38.2653 -16.518 11.6133 71 19 101 255 
-38.1437 -16.4645 11.1554 71 19 101 255 
-38.2063 -16.4611 10.7976 72 22 104 255 
-18.71 -8.06471 5.07228 72 27 109 255 
-19.1384 -8.24561 4.97611 72 32 113 255 
-18.8717 -8.12638 4.70589 72 37 118 255 
-18.8983 -8.14616 4.5397 72 31 112 255 
-18.2204 -7.84992 4.16999 63 71 136 255 
-18.1778 -7.82046 3.96495 56 89 140 255 
-18.1685 -7.80856 3.77236 59 82 139 255 
-18.1738 -7.83387 3.61078 61 77 138 255 
-18.2402 -7.85466 3.42677 70 51 127 255 
-18.1843 -7.81574 3.21992 71 42 122 255 
-18.1883 -7.79831 3.0353 70 51 127 255 
-18.1863 -7.8355 2.87474 68 59 132 255 
-18.1881 -7.82848 2.68077 64 70 136 255 
-18.1977 -7.81021 2.49116 67 61 132 255 
-18.2096 -7.79994 2.30959 69 55 129 255 
-18.1986 -7.84079 2.14918 68 57 131 255 
-18.1959 -7.82052 1.95938 70 50 126 255 
-20.6523 -8.85942 2.00956 72 32 113 255 
-23.6812 -10.129 2.06327 72 26 108 255 
-23.6539 -10.1863 1.85962 72 28 110 255 
-25.0012 -10.7402 1.70717 70 10 93 255 
-28.872 -12.3676 1.67359 70 52 128 255 
-28.7713 -12.2943 1.37153 70 7 90 255 
-29.2383 -12.5791 1.14488 69 5 89 255 
-32.9307 -14.1331 0.9509 69 4 87 255 
-28.7859 -12.3248 0.535644 72 38 119 255 
-45.4318 -19.3948 0.387983 69 4 87 255 
-45.1872 -19.4314 -0.00858493 70 7 90 255 
-47.0015 -20.1525 -0.49092 69 4 87 255 
-0 -0 -0 68 2 86 255 
-17.9913 -7.67304 -0.55317 71 16 99 255 
-28.1999 -12.1091 -1.11462 70 7 90 255 
-28.03 -12.0067 -1.39003 70 7 90 255 
-27.9002 -11.9283 -1.66988 70 7 90 255 
-26.1795 -11.1598 -1.83537 70 7 90 255 
-24.024 -10.311 -1.89691 70 8 92 255 
-20.5606 -8.79867 -1.83081 71 14 97 255 
-17.4063 -7.43103 -1.72908 71 14 97 255 
-15.4057 -6.56715 -1.68929 72 33 115 255 
-13.6969 -5.87014 -1.62411 72 38 119 255 
-12.2721 -5.24914 -1.58215 71 45 123 255 
-11.0937 -4.73377 -1.54511 70 48 126 255 
-10.138 -4.31745 -1.51726 70 51 127 255 
-9.37442 -4.01185 -1.48937 69 53 129 255 
-8.66114 -3.70106 -1.46484 71 42 122 255 
-8.09543 -3.45273 -1.45226 70 52 128 255 
-7.56388 -3.22122 -1.43779 70 50 126 255 
-7.14658 -3.05254 -1.42628 66 64 134 255 
-6.72006 -2.86744 -1.40961 60 79 138 255 
-6.35531 -2.71056 -1.40193 62 73 137 255 
-6.03116 -2.56973 -1.39706 59 82 139 255 
-5.75432 -2.4543 -1.38804 55 91 141 255 
-5.47388 -2.33344 -1.37816 53 94 141 255 
-5.22399 -2.22589 -1.37271 57 86 140 255 
-4.97764 -2.1229 -1.36528 61 77 138 255 
-4.79135 -2.03865 -1.36118 62 73 137 255 
-4.60998 -1.96137 -1.35928 69 55 129 255 
-4.4454 -1.89323 -1.36179 69 56 130 255 
-4.22323 -1.80289 -1.34539 70 51 127 255 
-24.3379 -10.2943 7.93808 72 27 109 255 
-24.8213 -10.5239 7.79695 70 11 94 255 
-38.1673 -16.1985 11.5531 72 26 108 255 
-38.1924 -16.2083 11.1403 72 20 103 255 
-38.2041 -16.1829 10.7688 72 22 104 255 
-18.7833 -7.95998 5.0788 72 40 120 255 
-18.7426 -7.9391 4.86045 71 45 123 255 
-18.8988 -8.00093 4.70031 71 42 122 255 
-18.9398 -8.02662 4.53776 72 37 118 255 
-18.2259 -7.72004 4.16032 61 77 138 255 
-18.2264 -7.70916 3.96514 56 89 140 255 
-18.216 -7.69693 3.77236 58 83 139 255 
-18.2215 -7.72221 3.61078 61 77 138 255 
-18.2817 -7.73991 3.42558 70 51 127 255 
-18.2719 -7.72092 3.22698 69 53 129 255 
-18.2467 -7.69117 3.03712 72 41 121 255 
-18.2468 -7.72917 2.87675 67 61 132 255 
-18.2267 -7.71287 2.67943 66 65 134 255 
-18.2334 -7.69339 2.48954 67 61 132 255 
-18.2617 -7.68999 2.31017 70 51 127 255 
-18.2299 -7.722 2.14724 66 63 133 255 
-18.2215 -7.69943 1.95702 71 46 124 255 
-20.7668 -8.75807 2.01543 72 33 115 255 
-23.3359 -9.81235 2.0279 71 16 99 255 
-23.4578 -9.9317 1.83938 71 16 99 255 
-28.7985 -12.1628 1.96133 71 17 100 255 
-28.825 -12.1387 1.66651 70 52 128 255 
-28.8176 -12.1055 1.37018 70 8 92 255 
-29.9693 -12.6763 1.17044 69 5 89 255 
-32.7359 -13.8122 0.94281 68 2 86 255 
-28.7983 -12.1216 0.534481 72 33 115 255 
-45.2623 -18.9949 0.385532 69 4 87 255 
-45.2494 -19.13 -0.00857428 69 5 89 255 
-47.1878 -19.8905 -0.491583 69 5 89 255 
-17.9667 -7.55503 -0.367431 70 51 127 255 
-18.0435 -7.56482 -0.55334 71 42 122 255 
-18.0312 -7.61194 -0.710835 72 24 106 255 
-27.723 -11.6743 -1.37122 72 36 117 255 
-27.7142 -11.6482 -1.65444 72 29 111 255 
-26.242 -10.9967 -1.83498 70 7 90 255 
-24.006 -10.1293 -1.89054 70 10 93 255 
-20.5481 -8.64451 -1.82494 70 11 94 255 
-17.4424 -7.32023 -1.72817 70 11 94 255 
-15.4576 -6.4775 -1.69059 72 32 113 255 
-13.7244 -5.78251 -1.62314 72 38 119 255 
-12.294 -5.16951 -1.58086 71 42 122 255 
-11.106 -4.65871 -1.54282 70 51 127 255 
-10.1561 -4.25172 -1.51603 71 45 123 255 
-9.40343 -3.95618 -1.49009 69 56 130 255 
-8.70647 -3.65742 -1.46868 69 56 130 255 
-8.12738 -3.40757 -1.45421 70 51 127 255 
-7.60621 -3.18426 -1.4421 69 56 130 255 
-7.14794 -3.00139 -1.42285 69 56 130 255 
-6.74025 -2.8273 -1.41018 60 79 138 255 
-6.36369 -2.6681 -1.40014 61 77 138 255 
-6.05674 -2.53683 -1.39936 59 82 139 255 
-5.76657 -2.41782 -1.38739 58 84 140 255 
-5.48001 -2.29642 -1.37612 54 93 141 255 
-5.22051 -2.18666 -1.36824 56 88 140 255 
-4.98073 -2.08819 -1.36259 65 66 135 255 
-4.83411 -2.0219 -1.36978 60 79 138 255 
-4.61213 -1.92895 -1.3564 69 55 129 255 
-4.47469 -1.87335 -1.36721 70 52 128 255 
-4.2413 -1.77992 -1.34764 70 52 128 255 
-24.329 -10.115 7.91477 72 26 108 255 
-24.92 -10.3858 7.80779 71 16 99 255 
-38.0971 -15.8936 11.5021 72 24 106 255 
-38.1788 -15.9268 11.1077 72 23 105 255 
-38.074 -15.853 10.7044 71 16 99 255 
-18.9437 -7.89122 5.109 72 32 113 255 
-18.9957 -7.90919 4.9134 70 48 126 255 
-18.9574 -7.88894 4.70276 72 37 118 255 
-19.1483 -7.97673 4.57589 72 38 119 255 
-18.2648 -7.60467 4.15847 61 77 138 255 
-18.2525 -7.58852 3.96062 54 92 141 255 
-18.2502 -7.57974 3.76974 57 86 140 255 
-18.2704 -7.61102 3.61114 64 70 136 255 
-18.3025 -7.61661 3.42064 70 48 126 255 
-18.3044 -7.6026 3.22441 70 52 128 255 
-18.2927 -7.57868 3.03697 71 45 123 255 
-18.2929 -7.61668 2.87661 71 46 124 255 
-18.2764 -7.60203 2.67983 67 61 132 255 
-18.2784 -7.58061 2.48929 68 59 132 255 
-18.2792 -7.56563 2.30647 70 51 127 255 
-18.2815 -7.61191 2.14778 69 56 130 255 
-18.2601 -7.58405 1.95613 70 48 126 255 
-20.8422 -8.63964 2.01757 72 28 110 255 
-22.8641 -9.4493 1.98182 70 11 94 255 
-23.0643 -9.59865 1.80388 71 16 99 255 
-28.808 -11.959 1.95695 69 55 129 255 
-28.7799 -11.9123 1.65965 70 51 127 255 
-28.7612 -11.8747 1.364 72 22 104 255 
-28.8082 -11.9773 1.1222 70 7 90 255 
-28.7137 -11.9081 0.824849 70 11 94 255 
-28.7299 -11.8858 0.531847 72 31 112 255 
-28.7181 -11.8452 0.243989 71 19 101 255 
-45.3308 -18.8374 -0.00856765 70 7 90 255 
-47.7552 -19.7855 -0.496219 70 7 90 255 
-17.9684 -7.42631 -0.366527 71 47 125 255 
-18.073 -7.44711 -0.552831 72 40 120 255 
-18.0951 -7.50843 -0.711525 71 42 122 255 
-27.7479 -11.4849 -1.36894 72 40 120 255 
-27.7833 -11.4771 -1.65433 72 28 110 255 
-26.3449 -10.8503 -1.83749 70 7 90 255 
-23.7793 -9.86218 -1.86789 70 11 94 255 
-20.5059 -8.47904 -1.81653 70 11 94 255 
-17.4465 -7.19636 -1.72417 71 13 96 255 
-15.4667 -6.37002 -1.68728 72 26 108 255 
-13.7495 -5.69401 -1.62195 72 41 121 255 
-12.3172 -5.09056 -1.5798 70 50 126 255 
-11.1418 -4.5935 -1.54384 70 48 126 255 
-10.1911 -4.1931 -1.51739 71 46 124 255 
-9.41106 -3.8916 -1.48749 69 55 129 255 
-8.74792 -3.61184 -1.47191 70 51 127 255 
-8.13719 -3.35312 -1.45226 70 52 128 255 
-7.63563 -3.14165 -1.44399 69 56 130 255 
-7.14804 -2.94997 -1.41924 67 62 133 255 
-6.7493 -2.78252 -1.40847 57 86 140 255 
-6.37722 -2.62788 -1.39954 59 81 139 255 
-6.06767 -2.49776 -1.39832 62 74 137 255 
-5.77498 -2.37978 -1.38587 57 85 140 255 
-5.51111 -2.2698 -1.38041 56 89 140 255 
-5.21765 -2.14793 -1.36402 58 83 139 255 
-4.99614 -2.0587 -1.36333 61 78 138 255 
-4.82048 -1.98154 -1.36245 62 76 138 255 
-4.61049 -1.89511 -1.35247 68 59 132 255 
-4.47542 -1.84146 -1.36396 68 57 131 255 
-4.25391 -1.75459 -1.34821 69 56 130 255 
-24.2585 -9.91155 7.87191 72 26 108 255 
-25.2046 -10.3234 7.87696 71 16 99 255 
-38.0656 -15.6069 11.4635 72 23 105 255 
-38.1043 -15.6219 11.0579 71 19 101 255 
-38.0164 -15.556 10.6612 72 20 103 255 
-18.9244 -7.74727 5.09088 71 47 125 255 
-18.9746 -7.76412 4.89552 70 48 126 255 
-19.01 -7.77432 4.70388 71 44 122 255 
-19.1724 -7.8491 4.57007 72 35 116 255 
-18.2966 -7.48653 4.15518 57 86 140 255 
-18.2914 -7.47342 3.95905 52 97 141 255 
-18.2955 -7.46724 3.76955 59 81 139 255 
-18.3313 -7.50473 3.61401 64 69 136 255 
-18.347 -7.50342 3.4203 69 55 129 255 
-18.3589 -7.49351 3.22586 70 50 126 255 
-18.3196 -7.45847 3.03378 72 38 119 255 
-18.3192 -7.49605 2.87345 71 46 124 255 
-18.3163 -7.48712 2.67889 68 58 131 255 
-18.3246 -7.46831 2.48929 70 52 128 255 
-18.328 -7.45446 2.30682 69 56 130 255 
-18.3186 -7.49583 2.1467 68 58 131 255 
-18.2999 -7.46923 1.95544 70 48 126 255 
-20.9271 -8.52474 2.02069 72 32 113 255 
-22.385 -9.09091 1.93543 71 14 97 255 
-22.904 -9.36747 1.78681 71 16 99 255 
-28.8042 -11.7508 1.95175 67 61 132 255 
-28.7895 -11.7099 1.65603 70 51 127 255 
-28.8122 -11.6894 1.36299 69 5 89 255 
-28.8802 -11.7999 1.12216 70 11 94 255 
-28.8094 -11.7412 0.825512 69 4 87 255 
-28.7208 -11.6761 0.530342 71 17 100 255 
-45.0648 -18.2649 0.381912 70 8 92 255 
-28.7991 -11.7609 -0.00542937 70 8 92 255 
-18.0624 -7.35393 -0.187212 70 50 126 255 
-18.0043 -7.31216 -0.366338 72 38 119 255 
-18.1749 -7.35896 -0.554555 72 29 111 255 
-17.8873 -7.29387 -0.70158 70 48 126 255 
-18.3053 -7.44535 -0.90082 72 33 115 255 
-27.8902 -11.3215 -1.65653 72 20 103 255 
-18.0958 -7.32327 -1.25897 70 10 93 255 
-23.4154 -9.54331 -1.83467 71 13 96 255 
-20.5566 -8.35269 -1.81645 71 13 96 255 
-17.4543 -7.07459 -1.72062 71 14 97 255 
-15.4465 -6.25111 -1.68086 72 22 104 255 
-13.7593 -5.59942 -1.61902 71 44 122 255 
-12.3565 -5.01825 -1.58086 70 50 126 255 
-11.1615 -4.5217 -1.54269 70 52 128 255 
-10.2304 -4.13605 -1.51944 70 48 126 255 
-9.4146 -3.82558 -1.48431 69 53 129 255 
-8.76992 -3.5581 -1.47191 69 56 130 255 
-8.15213 -3.30091 -1.45128 69 53 129 255 
-7.6438 -3.09031 -1.44192 67 61 132 255 
-7.16692 -2.90643 -1.41942 66 64 134 255 
-6.77353 -2.744 -1.40999 58 84 140 255 
-6.40958 -2.59533 -1.40312 58 84 140 255 
-6.07109 -2.45571 -1.39561 63 72 137 255 
-5.78766 -2.34357 -1.38544 61 78 138 255 
-5.515 -2.23193 -1.37793 55 91 141 255 
-5.23163 -2.11624 -1.36425 60 80 139 255 
-5.02126 -2.0331 -1.36675 60 79 138 255 
-4.81461 -1.94468 -1.35739 66 63 133 255 
-4.62293 -1.86715 -1.35273 69 55 129 255 
-4.47504 -1.80928 -1.36043 69 56 130 255 
-4.26371 -1.7281 -1.34793 69 53 129 255 
-24.2913 -9.75146 7.86299 71 17 100 255 
-25.2818 -10.1743 7.88141 72 20 103 255 
-25.9015 -10.4344 7.78083 71 17 100 255 
-37.9844 -15.3012 10.9956 71 16 99 255 
-38.0636 -15.3033 10.6479 72 23 105 255 
-19.0409 -7.65889 5.10948 70 52 128 255 
-19.2475 -7.73826 4.95358 70 51 127 255 
-19.0926 -7.6717 4.71259 72 35 116 255 
-18.9729 -7.63182 4.51127 72 26 108 255 
-18.3431 -7.37449 4.15539 55 90 140 255 
-18.3442 -7.36397 3.96062 53 94 141 255 
-18.3619 -7.36325 3.77386 58 83 139 255 
-18.3706 -7.38954 3.61276 65 66 135 255 
-18.3918 -7.39033 3.42013 71 46 124 255 
-18.3899 -7.37484 3.22329 71 46 124 255 
-18.388 -7.3551 3.03758 71 45 123 255 
-18.3529 -7.37871 2.87158 70 50 126 255 
-18.3279 -7.36093 2.67393 70 51 127 255 
-18.3535 -7.3491 2.48704 69 56 130 255 
-18.354 -7.33412 2.30438 68 57 131 255 
-18.356 -7.37995 2.14573 67 61 132 255 
-18.3426 -7.35569 1.95515 70 51 127 255 
-21.0336 -8.41801 2.02594 72 37 118 255 
-21.896 -8.73619 1.88848 71 16 99 255 
-22.9555 -9.22452 1.78638 71 13 96 255 
-28.7636 -11.5289 1.94417 68 58 131 255 
-28.7264 -11.4793 1.64831 70 51 127 255 
-0 -0 0 68 2 86 255 
-0 -0 0 68 2 86 255 
-33.2982 -13.3329 0.951776 69 4 87 255 
-28.7649 -11.4889 0.529846 70 11 94 255 
-45.0413 -17.9344 0.380773 69 4 87 255 
-45.1103 -18.0999 -0.00848335 70 7 90 255 
-18.0627 -7.22514 -0.186752 69 56 130 255 
-17.9374 -7.15708 -0.364076 71 44 122 255 
-17.9977 -7.159 -0.547799 72 35 116 255 
-17.9577 -7.19439 -0.702596 71 45 123 255 
-18.3144 -7.31844 -0.899044 72 28 110 255 
-0 -0 -0 68 1 84 255 
-18.0235 -7.16564 -1.25086 72 35 116 255 
-18.0107 -7.21198 -1.4077 72 41 121 255 
-18.0111 -7.18992 -1.58759 72 28 110 255 
-17.5279 -6.97952 -1.72362 72 20 103 255 
-15.4753 -6.15254 -1.67985 72 23 105 255 
-13.7906 -5.51378 -1.61869 71 44 122 255 
-12.3686 -4.93498 -1.5785 70 52 128 255 
-11.1954 -4.45569 -1.54358 69 55 129 255 
-10.228 -4.06223 -1.51535 70 51 127 255 
-9.43606 -3.76701 -1.48402 69 53 129 255 
-8.78149 -3.5002 -1.47022 68 59 132 255 
-8.18231 -3.25484 -1.45307 70 51 127 255 
-7.62966 -3.03026 -1.43572 68 58 131 255 
-7.19832 -2.86786 -1.42213 67 61 132 255 
-6.79115 -2.70275 -1.41018 58 84 140 255 
-6.42629 -2.55631 -1.40332 60 80 139 255 
-6.0706 -2.41227 -1.39206 62 74 137 255 
-5.79196 -2.30405 -1.38305 61 78 138 255 
-5.5123 -2.19157 -1.37387 59 81 139 255 
-5.24904 -2.08589 -1.36542 57 86 140 255 
-5.03274 -2.00189 -1.36651 62 76 138 255 
-4.82914 -1.91617 -1.35815 70 52 128 255 
-4.6325 -1.83803 -1.35221 69 55 129 255 
-4.47711 -1.77823 -1.35772 69 55 129 255 
-4.27245 -1.70119 -1.34736 69 53 129 255 
-24.4148 -9.62752 7.8837 71 13 96 255 
-25.3473 -10.0204 7.88252 71 14 97 255 
-26.0895 -10.3246 7.81814 71 13 96 255 
-38.0632 -15.0621 10.9915 71 17 100 255 
-37.9326 -14.9809 10.5854 71 19 101 255 
-19.2518 -7.60681 5.15345 72 40 120 255 
-18.9906 -7.49996 4.87554 71 46 124 255 
-19.123 -7.54797 4.70857 72 32 113 255 
-19.2864 -7.62077 4.5746 72 35 116 255 
-18.3726 -7.25569 4.15189 54 93 141 255 
-18.3781 -7.24695 3.95827 53 94 141 255 
-18.3665 -7.23461 3.76561 59 81 139 255 
-18.3671 -7.25753 3.60324 66 64 134 255 
-18.424 -7.27228 3.41775 69 53 129 255 
-18.4274 -7.25897 3.222 71 46 124 255 
-18.4281 -7.24033 3.03682 71 42 122 255 
-18.3932 -7.26414 2.87086 69 55 129 255 
-18.4059 -7.26143 2.67876 66 64 134 255 
-18.3872 -7.23199 2.48554 67 61 132 255 
-18.4015 -7.22245 2.30473 69 53 129 255 
-18.3981 -7.26608 2.14541 69 55 129 255 
-18.3911 -7.24446 1.95554 71 44 122 255 
-21.0997 -8.29462 2.02737 72 33 115 255 
-21.5891 -8.46055 1.85749 72 22 104 255 
-23.0098 -9.08276 1.78623 70 11 94 255 
-28.7196 -11.3072 1.93647 68 58 131 255 
-28.6978 -11.2642 1.64267 70 52 128 255 
-28.8623 -11.2992 1.3587 69 4 87 255 
-0 -0 0 68 2 86 255 
-0 -0 0 68 2 86 255 
-28.5464 -11.199 0.524544 69 5 89 255 
-37.6611 -14.7287 0.317612 69 5 89 255 
-37.6475 -14.838 -0.00706265 70 7 90 255 
-18.1355 -7.12551 -0.187049 70 48 126 255 
-17.9326 -7.02792 -0.363096 70 51 127 255 
-18.0338 -7.04553 -0.547573 72 40 120 255 
-17.9745 -7.07345 -0.701544 72 37 118 255 
-18.1777 -7.13475 -0.890164 72 29 111 255 
-0 -0 -0 68 1 84 255 
-17.9667 -7.01571 -1.24391 72 40 120 255 
-17.9043 -7.04219 -1.39598 70 51 127 255 
-17.9852 -7.05199 -1.58147 71 47 125 255 
-17.5537 -6.86531 -1.72198 71 19 101 255 
-15.4534 -6.03431 -1.67343 72 20 103 255 
-13.7955 -5.4178 -1.61534 71 45 123 255 
-12.3968 -4.85827 -1.57827 69 56 130 255 
-11.193 -4.37536 -1.53951 69 56 130 255 
-10.2333 -3.99184 -1.51248 71 47 125 255 
-9.4378 -3.70073 -1.4807 71 45 123 255 
-8.79636 -3.44373 -1.46914 70 51 127 255 
-8.20213 -3.20457 -1.45307 68 58 131 255 
-7.65913 -2.98768 -1.43779 69 55 129 255 
-7.20113 -2.8179 -1.41924 65 68 135 255 
-6.81126 -2.66246 -1.41094 57 85 140 255 
-6.42634 -2.51077 -1.39994 61 78 138 255 
-6.08346 -2.37427 -1.39165 62 76 138 255 
-5.82417 -2.27557 -1.38739 56 89 140 255 
-5.52564 -2.1577 -1.37387 57 86 140 255 
-5.26808 -2.05612 -1.36707 58 83 139 255 
-5.05216 -1.9738 -1.36846 59 82 139 255 
-4.81647 -1.87701 -1.35132 66 65 134 255 
-4.64369 -1.80957 -1.35221 68 57 131 255 
-4.46283 -1.74093 -1.35012 69 55 129 255 
-4.29979 -1.68159 -1.35271 70 48 126 255 
-24.6386 -9.54152 7.93693 72 20 103 255 
-25.4137 -9.86674 7.88419 71 17 100 255 
-26.2278 -10.1936 7.84068 71 17 100 255 
-37.9416 -14.7454 10.93 71 17 100 255 
-37.9751 -14.729 10.5718 72 23 105 255 
-19.205 -7.45238 5.12857 70 10 93 255 
-19.4607 -7.5479 4.98424 72 32 113 255 
-19.3334 -7.49426 4.74898 72 41 121 255 
-19.31 -7.49345 4.56921 72 26 108 255 
-18.4167 -7.14282 4.15189 54 92 141 255 
-18.4195 -7.13299 3.95768 51 98 141 255 
-18.395 -7.11575 3.76243 61 77 138 255 
-18.3874 -7.13544 3.59858 68 58 131 255 
-18.4637 -7.15731 3.4169 69 53 129 255 
-18.4615 -7.14184 3.22024 71 44 122 255 
-18.4529 -7.11965 3.03363 72 41 121 255 
-18.4439 -7.15365 2.87187 70 51 127 255 
-18.4455 -7.14656 2.67808 66 63 133 255 
-18.4367 -7.12117 2.48629 67 61 132 255 
-18.4593 -7.11476 2.30647 68 57 131 255 
-18.4229 -7.14551 2.14315 67 61 132 255 
-18.4473 -7.13615 1.95682 71 42 122 255 
-21.1697 -8.17253 2.02924 72 29 111 255 
-21.395 -8.23341 1.83641 71 14 97 255 
-28.7286 -11.1369 2.22483 70 51 127 255 
-28.7065 -11.0991 1.93096 68 59 132 255 
-28.7067 -11.0649 1.63927 70 51 127 255 
-28.7129 -11.038 1.34845 69 5 89 255 
-28.6927 -11.1115 1.10674 70 7 90 255 
-0 -0 0 68 2 86 255 
-0 -0 0 68 2 86 255 
-36.7174 -14.1005 0.308917 69 4 87 255 
-37.6464 -14.5713 -0.00704555 70 7 90 255 
-18.0977 -6.98278 -0.186214 69 56 130 255 
-18.064 -6.95187 -0.364887 71 42 122 255 
-18.4379 -7.0733 -0.558513 72 26 108 255 
-18.1276 -7.00554 -0.705826 72 32 113 255 
-18.4476 -7.11038 -0.90123 72 33 115 255 
-18.4419 -7.09359 -1.08741 72 36 117 255 
-18.0039 -6.9032 -1.24353 72 41 121 255 
-17.9332 -6.92681 -1.39489 70 50 126 255 
-18.0124 -6.93541 -1.58008 70 51 127 255 
-17.5407 -6.7364 -1.71661 72 22 104 255 
-15.5097 -5.94686 -1.67554 72 27 109 255 
-13.8007 -5.32231 -1.61209 72 37 118 255 
-12.4023 -4.77284 -1.5752 71 46 124 255 
-11.1937 -4.29665 -1.53596 70 52 128 255 
-10.2817 -3.93819 -1.51603 69 55 129 255 
-9.45941 -3.6424 -1.48055 70 50 126 255 
-8.79427 -3.38082 -1.4653 68 57 131 255 
-8.20321 -3.14712 -1.44982 68 59 132 255 
-7.67823 -2.94098 -1.43796 70 51 127 255 
-7.21094 -2.77084 -1.4178 60 80 139 255 
-6.80914 -2.61358 -1.40715 59 81 139 255 
-6.44071 -2.47094 -1.39974 62 73 137 255 
-6.10431 -2.33935 -1.3931 61 77 138 255 
-5.83529 -2.23874 -1.38674 56 89 140 255 
-5.55151 -2.12864 -1.37703 59 82 139 255 
-5.27878 -2.02306 -1.3666 56 88 140 255 
-5.0687 -1.9445 -1.36969 57 86 140 255 
-4.83151 -1.84881 -1.35233 62 74 137 255 
-4.64209 -1.77622 -1.34854 69 53 129 255 
-4.48511 -1.71799 -1.35365 70 50 126 255 
-4.33511 -1.6648 -1.36058 71 44 122 255 
-24.7084 -9.39458 7.94067 72 20 103 255 
-25.4944 -9.71849 7.89058 71 16 99 255 
-26.3123 -10.0411 7.84739 71 17 100 255 
-26.9706 -10.2917 7.75122 71 13 96 255 
-37.8856 -14.4275 10.522 72 22 104 255 
-19.1642 -7.30158 5.10562 72 22 104 255 
-19.5012 -7.42628 4.98285 72 33 115 255 
-19.1759 -7.29817 4.69919 72 32 113 255 
-19.237 -7.32963 4.54121 72 35 116 255 
-18.4758 -7.0356 4.15539 51 98 141 255 
-18.4684 -7.02193 3.95886 52 97 141 255 
-18.4383 -7.00275 3.76243 62 73 137 255 
-18.4171 -7.01723 3.59588 69 53 129 255 
-18.5081 -7.04424 3.41707 71 47 125 255 
-18.4967 -7.02528 3.21879 71 45 123 255 
-18.498 -7.00699 3.03394 71 42 122 255 
-18.5087 -7.04845 2.87517 70 50 126 255 
-18.5038 -7.03889 2.68023 67 61 132 255 
-18.4903 -7.01178 2.48766 68 59 132 255 
-18.4971 -6.99925 2.30577 68 57 131 255 
-18.4664 -7.03233 2.14315 67 61 132 255 
-18.5019 -7.02706 1.958 72 41 121 255 
-21.0192 -7.96659 2.01009 72 22 104 255 
-21.3621 -8.07062 1.82931 71 13 96 255 
-28.7358 -10.9374 2.22015 69 56 130 255 
-28.7368 -10.9086 1.92846 67 61 132 255 
-28.7049 -10.8624 1.63533 70 48 126 255 
-28.8109 -10.8733 1.3499 69 4 87 255 
-0 -0 0 68 1 84 255 
-0 -0 0 68 2 86 255 
-0 -0 0 68 2 86 255 
-37.6902 -14.2094 0.316363 70 7 90 255 
-37.6239 -14.2978 -0.00702478 70 8 92 255 
-18.4049 -6.97185 -0.188931 69 56 130 255 
-18.4384 -6.96634 -0.371578 72 35 116 255 
-18.1133 -6.82158 -0.547403 72 28 110 255 
-18.4954 -7.01755 -0.718457 72 24 106 255 
-18.9534 -7.17206 -0.92377 71 44 122 255 
-18.9549 -7.15772 -1.11505 71 46 124 255 
-18.0487 -6.79365 -1.24372 72 41 121 255 
-17.9698 -6.81452 -1.39446 70 50 126 255 
-18.0331 -6.81665 -1.57821 71 45 123 255 
-17.604 -6.63708 -1.7188 72 22 104 255 
-15.4928 -5.8316 -1.66982 72 20 103 255 
-13.7987 -5.22451 -1.60808 72 38 119 255 
-12.4211 -4.69279 -1.57391 70 50 126 255 
-11.2672 -4.24572 -1.54244 70 50 126 255 
-10.3122 -3.87747 -1.51698 70 52 128 255 
-9.47603 -3.58219 -1.47969 68 57 131 255 
-8.81392 -3.32645 -1.46514 70 51 127 255 
-8.20575 -3.09046 -1.44689 69 55 129 255 
-7.68599 -2.89 -1.43607 70 52 128 255 
-7.2232 -2.72481 -1.41689 60 80 139 255 
-6.83423 -2.57521 -1.40904 60 80 139 255 
-6.43924 -2.42516 -1.39616 63 71 136 255 
-6.12221 -2.30322 -1.39394 62 73 137 255 
-5.8544 -2.20496 -1.38804 55 90 140 255 
-5.56629 -2.09522 -1.37748 58 83 139 255 
-5.28381 -1.98789 -1.36472 58 83 139 255 
-5.06874 -1.90892 -1.36651 60 79 138 255 
-4.85092 -1.82219 -1.35461 63 71 136 255 
-4.67278 -1.75517 -1.3543 68 58 131 255 
-4.49467 -1.6901 -1.35338 70 48 126 255 
-4.34255 -1.63716 -1.35973 71 47 125 255 
-24.814 -9.26088 7.9562 71 17 100 255 
-25.5553 -9.56255 7.89113 71 19 101 255 
-26.3725 -9.8791 7.84713 71 19 101 255 
-27.0956 -10.1494 7.76911 71 14 97 255 
-37.8927 -14.1646 10.4997 72 22 104 255 
-37.8883 -14.1699 10.0706 72 20 103 255 
-19.4935 -7.28673 4.96938 72 31 112 255 
-19.3271 -7.22028 4.72531 71 19 101 255 
-19.2697 -7.20701 4.53841 72 35 116 255 
-18.5149 -6.92073 4.15456 50 100 142 255 
-18.5332 -6.9167 3.96357 50 101 142 255 
-18.492 -6.8936 3.76468 62 76 138 255 
-18.4405 -6.89685 3.59211 70 51 127 255 
-18.539 -6.92606 3.41486 70 50 126 255 
-18.5644 -6.92096 3.22313 71 42 122 255 
-18.5592 -6.90025 3.03697 71 45 123 255 
-18.5544 -6.93578 2.87561 71 47 125 255 
-18.5643 -6.9318 2.68278 66 65 134 255 
-18.5432 -6.902 2.48904 67 62 133 255 
-18.5397 -6.88563 2.30577 70 52 128 255 
-18.5232 -6.92411 2.14476 68 59 132 255 
-18.5558 -6.91758 1.95918 72 41 121 255 
-20.5599 -7.64855 1.96164 72 20 103 255 
-21.3795 -7.92761 1.82659 70 10 93 255 
-28.6604 -10.7078 2.2092 68 57 131 255 
-28.6544 -10.6766 1.9185 69 55 129 255 
-28.6288 -10.6332 1.62724 69 53 129 255 
-0 -0 0 68 2 86 255 
-0 -0 0 68 2 86 255 
-0 -0 0 68 1 84 255 
-0 -0 0 68 2 86 255 
-37.7073 -13.9522 0.315782 69 5 89 255 
-37.6931 -14.06 -0.00702146 70 8 92 255 
-18.4295 -6.85217 -0.188748 70 52 128 255 
-18.1274 -6.72202 -0.364472 71 47 125 255 
-18.1961 -6.72556 -0.548647 72 36 117 255 
-18.1804 -6.7707 -0.704592 71 45 123 255 
-19.1291 -7.10467 -0.930191 71 45 123 255 
-19.3337 -7.16551 -1.13472 65 68 135 255 
-18.1265 -6.69626 -1.24623 71 42 122 255 
-18.0701 -6.72605 -1.39902 70 52 128 255 
-18.1139 -6.72044 -1.58163 70 50 126 255 
-17.6472 -6.52998 -1.71907 71 19 101 255 
-15.519 -5.73298 -1.66881 72 22 104 255 
-13.8202 -5.13594 -1.60689 71 42 122 255 
-12.4404 -4.61304 -1.57273 70 51 127 255 
-11.227 -4.15208 -1.53342 70 48 126 255 
-10.319 -3.80794 -1.51453 68 57 131 255 
-9.47556 -3.51572 -1.47622 68 58 131 255 
-8.84065 -3.27471 -1.46622 69 55 129 255 
-8.24677 -3.04826 -1.45079 68 57 131 255 
-7.70451 -2.84313 -1.43624 68 59 132 255 
-7.24624 -2.68283 -1.41816 58 83 139 255 
-6.85727 -2.53595 -1.41056 59 82 139 255 
-6.46779 -2.3907 -1.39914 63 71 136 255 
-6.14081 -2.26731 -1.39498 59 81 139 255 
-5.85591 -2.1646 -1.38522 55 90 140 255 
-5.56442 -2.05563 -1.37387 58 84 140 255 
-5.30959 -1.96048 -1.36824 60 80 139 255 
-5.0749 -1.87576 -1.36504 61 78 138 255 
-4.83024 -1.78068 -1.34575 62 73 137 255 
-4.67712 -1.72413 -1.35247 68 59 132 255 
-4.50495 -1.66249 -1.35338 70 50 126 255 
-4.30481 -1.59283 -1.34483 71 42 122 255 
-24.8056 -9.08474 7.93549 71 14 97 255 
-25.6054 -9.40259 7.88863 71 16 99 255 
-26.4182 -9.71178 7.84283 71 17 100 255 
-27.2916 -10.0322 7.80749 70 11 94 255 
-37.9608 -13.9252 10.4947 71 19 101 255 
-37.8816 -13.903 10.046 72 27 109 255 
-19.3991 -7.11606 4.93407 71 19 101 255 
-37.7538 -13.8408 9.20951 71 13 96 255 
-19.4823 -7.15054 4.57804 72 23 105 255 
-18.5589 -6.80767 4.15497 53 94 141 255 
-18.556 -6.79577 3.95945 52 97 141 255 
-18.5303 -6.77865 3.76393 66 65 134 255 
-18.4935 -6.78764 3.59427 71 46 124 255 
-18.5969 -6.81794 3.41775 70 50 126 255 
-18.5935 -6.80218 3.22088 72 40 120 255 
-18.5622 -6.77201 3.0306 72 40 120 255 
-18.5799 -6.81567 2.87302 70 48 126 255 
-18.5907 -6.81197 2.6805 68 57 131 255 
-18.575 -6.78435 2.48766 67 62 133 255 
-18.5834 -6.77242 2.306 68 57 131 255 
-18.5663 -6.81067 2.14487 67 62 133 255 
-18.6035 -6.80564 1.95977 72 36 117 255 
-20.2237 -7.38256 1.92521 72 23 105 255 
-21.4249 -7.79526 1.82635 70 11 94 255 
-28.6497 -10.5039 2.20337 69 53 129 255 
-28.6369 -10.4704 1.91299 66 63 133 255 
-28.6503 -10.4416 1.62479 70 50 126 255 
-28.7422 -10.4462 1.34057 70 7 90 255 
-0 -0 0 68 1 84 255 
-37.4832 -13.69 1.05889 70 8 92 255 
-37.5158 -13.6653 0.68299 70 8 92 255 
-0 -0 0 68 2 86 255 
-37.496 -13.725 -0.00696893 70 7 90 255 
-18.551 -6.76809 -0.189564 72 41 121 255 
-19.1473 -6.96689 -0.384112 71 46 124 255 
-18.1534 -6.58345 -0.546131 71 42 122 255 
-18.1943 -6.64907 -0.70354 72 41 121 255 
-19.375 -7.06105 -0.940027 62 74 137 255 
-19.3763 -7.0464 -1.13467 65 68 135 255 
-18.232 -6.60838 -1.25067 72 38 119 255 
-18.1495 -6.62908 -1.40198 71 47 125 255 
-18.2203 -6.63303 -1.58735 71 46 124 255 
-17.7562 -6.44672 -1.7258 71 17 100 255 
-15.5417 -5.63324 -1.66751 72 24 106 255 
-13.8431 -5.04797 -1.60591 71 45 123 255 
-12.4526 -4.53084 -1.57073 69 53 129 255 
-11.2457 -4.08074 -1.53253 71 47 125 255 
-10.3338 -3.74152 -1.5133 67 62 133 255 
-9.50905 -3.46191 -1.4781 68 57 131 255 
-8.8773 -3.22648 -1.46899 67 62 133 255 
-8.24584 -2.99054 -1.44738 68 58 131 255 
-7.71717 -2.79412 -1.43538 67 61 132 255 
-7.27181 -2.64167 -1.41996 60 80 139 255 
-6.83948 -2.48177 -1.40374 63 72 137 255 
-6.46944 -2.34629 -1.39636 63 72 137 255 
-6.15001 -2.22792 -1.39394 58 84 140 255 
-5.85532 -2.12363 -1.38197 55 91 141 255 
-5.54488 -2.00983 -1.36597 59 81 139 255 
-5.31604 -1.92588 -1.36683 59 81 139 255 
-5.08175 -1.84294 -1.36382 61 78 138 255 
-4.85017 -1.7543 -1.34828 60 79 138 255 
-4.68761 -1.6954 -1.35247 70 52 128 255 
-4.5205 -1.63679 -1.35501 70 52 128 255 
-4.34517 -1.57752 -1.35439 71 45 123 255 
-24.8627 -8.93301 7.93606 71 14 97 255 
-25.6292 -9.23325 7.87835 71 16 99 255 
-26.3676 -9.50995 7.81035 71 13 96 255 
-27.3217 -9.85344 7.79867 70 11 94 255 
-25.9262 -9.33043 7.15162 71 14 97 255 
-37.8612 -13.6325 10.0182 72 20 103 255 
-37.8405 -13.618 9.60314 72 23 105 255 
-37.8371 -13.6085 9.20929 72 24 106 255 
-37.7956 -13.6095 8.86161 72 26 108 255 
-18.6012 -6.694 4.15518 52 97 141 255 
-18.5659 -6.67052 3.95277 53 94 141 255 
-18.5632 -6.66184 3.76224 63 72 137 255 
-18.5524 -6.68037 3.59768 71 44 122 255 
-18.6458 -6.70637 3.41911 70 50 126 255 
-18.6498 -6.69329 3.22345 62 76 138 255 
-18.622 -6.66465 3.03363 70 48 126 255 
-18.6065 -6.69618 2.87072 72 41 121 255 
-18.6265 -6.69576 2.67969 68 59 132 255 
-18.6256 -6.6736 2.48891 68 57 131 255 
-18.6144 -6.65459 2.30473 70 52 128 255 
-18.6208 -6.70133 2.14638 66 63 133 255 
-18.6356 -6.688 1.95879 72 40 120 255 
-19.9845 -7.15658 1.89822 72 22 104 255 
-28.6148 -10.2128 2.43386 69 53 129 255 
-28.6094 -10.2905 2.19538 70 48 126 255 
-28.555 -10.2423 1.90329 67 61 132 255 
-28.5954 -10.2233 1.61809 70 50 126 255 
-0 -0 0 68 2 86 255 
-28.6191 -10.2827 1.09384 69 4 87 255 
-37.5486 -13.4534 1.05838 71 13 96 255 
-37.6018 -13.4358 0.683041 70 7 90 255 
-0 -0 0 68 1 84 255 
-19.4735 -6.99288 -0.00361126 66 65 134 255 
-19.4555 -6.96312 -0.198367 62 76 138 255 
-19.4364 -6.93733 -0.389051 63 71 136 255 
-18.944 -6.73895 -0.568662 72 35 116 255 
-19.4107 -6.95887 -0.748908 65 68 135 255 
-19.4481 -6.9528 -0.941485 61 78 138 255 
-19.4211 -6.92805 -1.13478 65 68 135 255 
-19.2934 -6.85943 -1.32056 71 45 123 255 
-18.2696 -6.54619 -1.40813 71 42 122 255 
-18.852 -6.73228 -1.63875 72 28 110 255 
-17.8011 -6.33965 -1.72635 72 20 103 255 
-15.5272 -5.52044 -1.66229 72 24 106 255 
-13.8588 -4.95758 -1.60418 72 40 120 255 
-12.4568 -4.44601 -1.56779 69 53 129 255 
-11.2612 -4.00834 -1.53126 70 52 128 255 
-10.3482 -3.67506 -1.51207 67 61 132 255 
-9.53104 -3.40383 -1.47824 67 61 132 255 
-8.90996 -3.17659 -1.47114 70 51 127 255 
-8.2566 -2.93724 -1.44607 68 59 132 255 
-7.70261 -2.73551 -1.42952 69 55 129 255 
-7.29159 -2.59832 -1.42069 59 82 139 255 
-6.86845 -2.4447 -1.40658 57 85 140 255 
-6.47632 -2.30392 -1.39477 61 77 138 255 
-6.15527 -2.1872 -1.39206 61 78 138 255 
-5.85812 -2.08406 -1.37959 55 90 140 255 
-5.5773 -1.98294 -1.37094 61 77 138 255 
-5.30485 -1.88509 -1.36096 60 79 138 255 
-5.09571 -1.81269 -1.36455 60 79 138 255 
-4.87361 -1.72903 -1.35182 63 71 136 255 
-4.70793 -1.67015 -1.35535 69 56 130 255 
-4.52683 -1.60773 -1.35392 68 57 131 255 
-4.35025 -1.54922 -1.35299 71 47 125 255 
-24.6198 -8.67557 7.84141 70 10 93 255 
-25.6002 -9.04574 7.85224 71 13 96 255 
-26.421 -9.34638 7.80901 70 7 90 255 
-27.2178 -9.62764 7.752 70 7 90 255 
-25.9556 -9.16151 7.14408 70 11 94 255 
-24.8377 -8.77141 6.55778 69 5 89 255 
-35.5469 -12.5468 9.00136 69 5 89 255 
-26.9771 -9.51609 6.55172 69 4 87 255 
-25.0113 -8.83312 5.85138 69 5 89 255 
-25.6674 -9.0594 5.72111 70 7 90 255 
-26.9415 -9.49352 5.72346 70 11 94 255 
-27.8805 -9.81292 5.6383 70 11 94 255 
-28.0918 -9.92103 5.43565 71 16 99 255 
-18.6894 -6.59282 3.41962 70 52 128 255 
-18.6607 -6.56825 3.21831 64 69 136 255 
-18.6495 -6.54568 3.03151 70 50 126 255 
-18.6425 -6.58024 2.87 71 45 123 255 
-18.6663 -6.58101 2.67956 69 53 129 255 
-18.6577 -6.55623 2.48779 68 59 132 255 
-18.6436 -6.5363 2.30334 68 58 131 255 
-18.6466 -6.58166 2.14466 66 65 134 255 
-18.6716 -6.57188 1.9583 72 36 117 255 
-20.0252 -7.03283 1.89795 70 10 93 255 
-28.5894 -10.0064 2.42643 72 36 117 255 
-28.6053 -10.0912 2.19026 70 52 128 255 
-28.59 -10.0573 1.90147 69 56 130 255 
-28.6114 -10.0314 1.61548 71 46 124 255 
-28.5325 -9.97536 1.32498 72 29 111 255 
-28.5771 -10.07 1.08985 72 26 108 255 
-28.5142 -10.0195 0.801984 72 35 116 255 
-28.4674 -9.97539 0.515992 72 41 121 255 
-28.3491 -9.90017 0.235845 72 35 116 255 
-19.5321 -6.87891 -0.00361423 63 72 137 255 
-19.5083 -6.84725 -0.198472 62 73 137 255 
-19.4965 -6.82422 -0.389409 63 72 137 255 
-19.5126 -6.80663 -0.584466 66 65 134 255 
-19.4634 -6.84329 -0.749308 62 73 137 255 
-19.4904 -6.83333 -0.941485 62 73 137 255 
-19.483 -6.81568 -1.13593 64 69 136 255 
-19.4896 -6.7948 -1.33112 68 58 131 255 
-19.002 -6.67733 -1.4614 72 40 120 255 
-19.0284 -6.66391 -1.6505 71 45 123 255 
-17.7908 -6.21324 -1.72162 72 20 103 255 
-15.5213 -5.41131 -1.65808 72 26 108 255 
-13.8674 -4.86488 -1.60168 72 41 121 255 
-12.4951 -4.37343 -1.5692 71 45 123 255 
-11.2856 -3.93917 -1.53126 70 52 128 255 
-10.3677 -3.61052 -1.51166 68 57 131 255 
-9.53213 -3.33842 -1.47521 67 62 133 255 
-8.91436 -3.11665 -1.46868 70 51 127 255 
-8.27167 -2.88555 -1.44558 68 58 131 255 
-7.71367 -2.68625 -1.42849 65 66 135 255 
-7.30461 -2.55256 -1.42014 57 86 140 255 
-6.87683 -2.40025 -1.40525 56 88 140 255 
-6.48849 -2.26349 -1.39437 61 78 138 255 
-6.14549 -2.14134 -1.38685 64 69 136 255 
-5.88462 -2.0529 -1.38284 54 93 141 255 
-5.58936 -1.94869 -1.37094 57 85 140 255 
-5.35854 -1.86722 -1.37177 59 82 139 255 
-5.10216 -1.7798 -1.36333 62 73 137 255 
-4.89143 -1.70164 -1.35385 66 64 134 255 
-4.71171 -1.63901 -1.35351 67 61 132 255 
-4.53752 -1.58024 -1.35419 69 53 129 255 
-4.37508 -1.52788 -1.35777 70 50 126 255 
-18.8367 -6.50803 5.98664 72 40 120 255 
-18.7867 -6.50881 5.74999 72 38 119 255 
-18.7728 -6.51154 5.53661 72 35 116 255 
-18.93 -6.56564 5.37995 72 28 110 255 
-18.7806 -6.49966 5.15815 72 37 118 255 
-18.817 -6.51565 4.95753 72 35 116 255 
-18.7225 -6.47944 4.73085 72 32 113 255 
-18.7661 -6.4905 4.54783 72 27 109 255 
-18.9951 -6.5776 4.43436 72 28 110 255 
-18.78 -6.49916 4.17698 72 40 120 255 
-18.6974 -6.45979 3.96357 72 41 121 255 
-18.7763 -6.47936 3.78904 72 35 116 255 
-18.7371 -6.48825 3.61778 72 33 115 255 
-18.7053 -6.46964 3.4152 62 73 137 255 
-18.6923 -6.45073 3.21687 60 79 138 255 
-18.6809 -6.42823 3.03015 64 70 136 255 
-18.6741 -6.46281 2.86871 66 65 134 255 
-18.6988 -6.46377 2.67849 66 65 134 255 
-18.6864 -6.43774 2.48629 62 76 138 255 
-18.673 -6.41823 2.30207 63 72 137 255 
-18.6706 -6.4616 2.14282 65 68 135 255 
-18.7031 -6.45427 1.95741 71 45 123 255 
-18.7806 -6.46655 1.7762 72 20 103 255 
-18.6995 -6.4164 1.58368 72 23 105 255 
-23.8188 -8.23864 1.81987 70 7 90 255 
-20.8513 -7.19153 1.38382 70 8 92 255 
-18.8408 -6.47622 1.06154 70 11 94 255 
-18.6689 -6.39865 0.865102 72 29 111 255 
-20.737 -7.1646 0.789159 70 7 90 255 
-25.7842 -8.8828 0.723653 70 8 92 255 
-18.8687 -6.48214 0.341281 71 16 99 255 
-19.3593 -6.62772 0.160714 72 22 104 255 
-19.59 -6.76448 -0.00361719 63 71 136 255 
-19.5632 -6.73198 -0.198607 66 63 133 255 
-19.4699 -6.6811 -0.388052 70 51 127 255 
-19.4954 -6.66672 -0.582713 71 42 122 255 
-19.5239 -6.73025 -0.750034 62 73 137 255 
-19.5395 -6.71621 -0.941849 64 70 136 255 
-19.5065 -6.68985 -1.13489 69 55 129 255 
-19.5092 -6.66766 -1.32964 71 42 122 255 
-19.0784 -6.57296 -1.46415 72 37 118 255 
-19.1349 -6.56969 -1.65621 72 22 104 255 
-17.7824 -6.08815 -1.71716 71 19 101 255 
-15.574 -5.32273 -1.66018 72 26 108 255 
-13.8923 -4.77809 -1.60114 72 41 121 255 
-12.4935 -4.28701 -1.56567 69 56 130 255 
-11.3067 -3.86888 -1.53087 69 56 130 255 
-10.4066 -3.5526 -1.51412 69 53 129 255 
-9.51781 -3.26798 -1.46986 67 61 132 255 
-8.90153 -3.051 -1.46345 69 56 130 255 
-8.28362 -2.83283 -1.44461 68 57 131 255 
-7.75611 -2.64778 -1.43331 64 69 136 255 
-7.29129 -2.49781 -1.41455 62 74 137 255 
-6.88771 -2.35673 -1.40449 57 86 140 255 
-6.51524 -2.22808 -1.39715 61 78 138 255 
-6.16869 -2.10707 -1.38914 62 76 138 255 
-5.89896 -2.01739 -1.38327 60 79 138 255 
-5.58738 -1.90963 -1.36755 60 79 138 255 
