ply
format ascii 1.0
comment VTK generated PLY File
obj_info vtkPolyData points and polygons: vtk4.0
element vertex 1173
property float x
property float y
property float z
property uchar red
property uchar green
property uchar blue
property uchar alpha
element face 0
property list uchar int vertex_indices
end_header
-5.64651 0.393101 -1.31092 65 66 135 255 
-5.45813 0.380895 -1.32266 63 71 136 255 
-5.22528 0.362886 -1.32149 68 58 131 255 
-5.03979 0.354296 -1.32072 65 66 135 255 
-4.85794 0.34161 -1.32131 65 66 135 255 
-4.63179 0.324042 -1.30862 68 57 131 255 
-4.45084 0.307543 -1.30716 69 53 129 255 
-17.8989 1.29657 5.39083 56 89 140 255 
-17.8874 1.28031 5.1863 55 91 141 255 
-17.901 1.27485 5.00058 57 86 140 255 
-17.8817 1.27382 4.81359 57 86 140 255 
-17.8625 1.28455 4.64816 59 82 139 255 
-17.8702 1.28221 4.46035 61 78 138 255 
-17.8828 1.28609 4.2812 58 84 140 255 
-17.8639 1.2882 4.102 62 76 138 255 
-17.8567 1.281 3.94924 59 81 139 255 
-17.8674 1.28515 3.76519 57 85 140 255 
-17.8613 1.29395 3.58814 56 88 140 255 
-17.8735 1.30142 3.41858 53 94 141 255 
-17.8379 1.27965 3.26293 55 91 141 255 
-17.8364 1.28605 3.08567 54 93 141 255 
-17.8465 1.29914 2.91098 55 91 141 255 
-17.8355 1.31427 2.743 54 93 141 255 
-17.871 1.28516 2.60106 54 92 141 255 
-17.8472 1.28995 2.42251 54 93 141 255 
-17.8411 1.30814 2.25039 55 90 140 255 
-17.84 1.32086 2.08563 60 79 138 255 
-17.9263 1.28914 1.94928 63 72 137 255 
-17.9169 1.30442 1.77724 58 83 139 255 
-17.9031 1.31582 1.60528 61 78 138 255 
-17.8342 1.3298 1.43261 63 72 137 255 
-17.9933 1.29711 1.30262 61 77 138 255 
-18.0275 1.31564 1.13404 62 73 137 255 
-18.0669 1.33737 0.965289 59 82 139 255 
-18.0361 1.35118 0.792842 62 76 138 255 
-18.041 1.30687 0.650623 67 61 132 255 
-18.0422 1.32304 0.480039 65 66 135 255 
-18.0517 1.33941 0.30964 62 74 137 255 
-18.0464 1.35828 0.14214 61 78 138 255 
-18.0305 1.30927 -0.00315521 72 41 121 255 
-18.0113 1.3271 -0.17337 69 55 129 255 
-18.0986 1.34924 -0.342137 38 129 142 255 
-18.0582 1.3655 -0.512178 41 123 142 255 
-18.0459 1.31986 -0.657155 70 51 127 255 
-18.0518 1.33641 -0.825137 68 59 132 255 
-18.0294 1.34725 -0.994983 66 63 133 255 
-18.0437 1.36756 -1.16701 64 69 136 255 
-17.9853 1.31859 -1.30848 72 32 113 255 
-17.5506 1.30547 -1.44073 72 41 121 255 
-17.0585 1.28368 -1.56286 71 17 100 255 
-15.082 1.14309 -1.5257 72 27 109 255 
-13.5497 1.00051 -1.48077 72 40 120 255 
-12.245 0.912972 -1.45549 72 41 121 255 
-11.2073 0.845335 -1.43977 71 46 124 255 
-10.2968 0.784018 -1.42191 71 45 123 255 
-9.6112 0.714745 -1.40771 68 58 131 255 
-8.97072 0.671991 -1.39906 65 66 135 255 
-8.35387 0.631574 -1.38241 65 66 135 255 
-7.84095 0.597027 -1.37525 70 52 128 255 
-7.43455 0.558088 -1.36834 63 72 137 255 
-7.01533 0.529207 -1.35732 62 76 138 255 
-6.62667 0.500993 -1.34843 65 66 135 255 
-6.26584 0.475997 -1.33912 70 52 128 255 
-5.97815 0.451903 -1.3302 66 65 134 255 
-5.66633 0.429434 -1.31611 61 78 138 255 
-5.43339 0.412686 -1.31726 65 68 135 255 
-5.22489 0.395087 -1.32198 67 61 132 255 
-5.02305 0.384107 -1.31692 66 65 134 255 
-4.82977 0.369424 -1.31424 66 64 134 255 
-4.63547 0.352894 -1.31025 68 58 131 255 
-4.46705 0.336216 -1.3125 68 59 132 255 
-17.8868 1.40607 5.38968 55 90 140 255 
-17.8696 1.38929 5.18352 56 88 140 255 
-17.8698 1.38288 4.99414 58 84 140 255 
-17.8716 1.38337 4.81307 58 84 140 255 
-17.8687 1.39525 4.65193 57 85 140 255 
-17.8697 1.39244 4.46228 57 86 140 255 
-17.8677 1.39526 4.27957 59 81 139 255 
-17.8654 1.39855 4.10423 62 73 137 255 
-17.8465 1.39039 3.94881 57 85 140 255 
-17.8553 1.39445 3.76437 57 85 140 255 
-17.8491 1.40321 3.58735 54 92 141 255 
-17.8398 1.40905 3.41371 57 86 140 255 
-17.8229 1.38855 3.26168 54 93 141 255 
-17.8518 1.39731 3.08975 53 95 141 255 
-17.8254 1.40761 2.90889 54 93 141 255 
-17.8143 1.42266 2.74103 51 98 141 255 
-17.8411 1.3931 2.5979 51 98 141 255 
-17.8311 1.39882 2.42144 50 101 142 255 
-17.8169 1.41632 2.24839 51 99 141 255 
-17.8127 1.42879 2.08343 60 79 138 255 
-17.8249 1.39183 1.93914 57 86 140 255 
-17.8143 1.40689 1.76789 56 88 140 255 
-17.8093 1.41884 1.59762 56 88 140 255 
-17.8058 1.4376 1.43101 62 74 137 255 
-17.8249 1.39496 1.29103 58 84 140 255 
-17.7863 1.4078 1.11939 63 72 137 255 
-17.7776 1.42569 0.950284 65 68 135 255 
-17.7676 1.44075 0.781412 66 63 133 255 
-17.7906 1.39851 0.641888 67 61 132 255 
-17.8005 1.41518 0.473832 68 59 132 255 
-17.7761 1.42868 0.305056 65 68 135 255 
-17.7467 1.44528 0.139847 68 58 131 255 
-17.7969 1.40212 -0.00311576 68 59 132 255 
-17.7636 1.41848 -0.171067 68 57 131 255 
-17.779 1.43517 -0.336256 69 55 129 255 
-17.7675 1.45321 -0.504177 71 47 125 255 
-17.8312 1.41421 -0.649642 69 55 129 255 
-17.8103 1.42846 -0.814481 69 56 130 255 
-17.762 1.43691 -0.980696 70 51 127 255 
-17.7276 1.45306 -1.14712 71 47 125 255 
-17.8079 1.41548 -1.29618 72 41 121 255 
-17.6556 1.42226 -1.45003 71 46 124 255 
-16.9908 1.38348 -1.5574 72 20 103 255 
-15.039 1.23268 -1.52209 72 29 111 255 
-13.5492 1.08411 -1.48142 72 41 121 255 
-12.2085 0.985612 -1.45184 71 45 123 255 
-11.2029 0.914166 -1.4399 71 44 122 255 
-10.2868 0.846777 -1.42123 70 50 126 255 
-9.59775 0.77299 -1.40641 67 61 132 255 
-8.97037 0.727342 -1.39968 67 61 132 255 
-8.3518 0.682981 -1.38274 66 65 134 255 
-7.84696 0.645935 -1.37698 69 55 129 255 
-7.43099 0.603695 -1.36834 60 79 138 255 
-7.01782 0.572722 -1.35846 64 70 136 255 
-6.61956 0.541324 -1.34764 66 63 133 255 
-6.26086 0.514274 -1.33871 69 56 130 255 
-5.9665 0.48786 -1.32825 70 50 126 255 
-5.6665 0.464432 -1.31678 64 69 136 255 
-5.43754 0.446573 -1.3189 67 61 132 255 
-5.22913 0.427692 -1.3237 66 65 134 255 
-5.01867 0.414761 -1.31642 68 59 132 255 
-4.83799 0.399926 -1.31712 67 61 132 255 
-4.615 0.37983 -1.30509 69 55 129 255 
-4.46777 0.363853 -1.31334 69 53 129 255 
-17.8864 1.51653 5.39226 57 86 140 255 
-17.8665 1.49939 5.18519 57 86 140 255 
-17.8696 1.49322 4.99655 56 88 140 255 
-17.856 1.49244 4.81125 56 88 140 255 
-17.8541 1.50438 4.65042 60 80 139 255 
-17.855 1.50157 4.46083 60 80 139 255 
-17.8685 1.50569 4.28189 61 77 138 255 
-17.8496 1.50757 4.10267 61 78 138 255 
-17.8338 1.49954 3.94795 60 80 139 255 
-17.8503 1.50431 3.76519 56 89 140 255 
-17.8352 1.51229 3.58637 53 95 141 255 
-17.82 1.51757 3.41165 57 86 140 255 
-17.8219 1.49854 3.26311 56 89 140 255 
-17.8311 1.50583 3.08771 53 94 141 255 
-17.8086 1.51629 2.90761 55 91 141 255 
-17.8052 1.53194 2.74103 52 96 141 255 
-17.8105 1.50071 2.59474 50 100 142 255 
-17.8202 1.50803 2.42117 52 96 141 255 
-17.8 1.52494 2.2474 50 100 142 255 
-17.8096 1.53857 2.08412 59 81 139 255 
-17.8031 1.50009 1.93774 58 84 140 255 
-17.7984 1.51558 1.7672 54 92 141 255 
-17.7814 1.52647 1.59592 58 84 140 255 
-17.7838 1.54571 1.42997 61 78 138 255 
-17.8081 1.50363 1.29045 58 83 139 255 
-17.7942 1.51835 1.12046 61 77 138 255 
-17.7636 1.53431 0.950018 66 64 134 255 
-17.7594 1.54982 0.781456 68 58 131 255 
-17.7637 1.50612 0.641241 65 66 135 255 
-17.7716 1.52267 0.473302 66 63 133 255 
-17.769 1.5379 0.30509 66 64 134 255 
-17.7355 1.55397 0.139831 68 58 131 255 
-17.754 1.50842 -0.00310983 66 64 134 255 
-17.7436 1.52651 -0.170961 69 56 130 255 
-17.7609 1.54345 -0.336087 69 56 130 255 
-17.7384 1.56045 -0.503612 69 55 129 255 
-17.7545 1.51781 -0.647174 68 59 132 255 
-17.7275 1.53135 -0.811111 68 59 132 255 
-17.727 1.54362 -0.979267 69 55 129 255 
-17.7154 1.56154 -1.14693 69 53 129 255 
-17.7025 1.51647 -1.28916 70 50 126 255 
-17.6882 1.53418 -1.45346 71 46 124 255 
-16.9611 1.48588 -1.55549 72 22 104 255 
-15.0133 1.32336 -1.52028 72 28 110 255 
-13.5245 1.16569 -1.47947 71 45 123 255 
-12.1884 1.0593 -1.4502 72 35 116 255 
-11.1546 0.979159 -1.43443 72 40 120 255 
-10.2607 0.908045 -1.41836 69 55 129 255 
-9.61057 0.833405 -1.40901 68 59 132 255 
-8.96968 0.782713 -1.40029 68 59 132 255 
-8.36416 0.735683 -1.38551 66 64 134 255 
-7.86051 0.695634 -1.38008 68 58 131 255 
-7.43204 0.649708 -1.36924 62 73 137 255 
-7.01222 0.6156 -1.35808 65 68 135 255 
-6.61904 0.582188 -1.34824 68 59 132 255 
-6.24005 0.551131 -1.33495 71 42 122 255 
-5.95854 0.524033 -1.32717 69 56 130 255 
-5.67422 0.500133 -1.31927 62 73 137 255 
-5.40856 0.47762 -1.31256 68 57 131 255 
-5.22738 0.459854 -1.32394 67 62 133 255 
-5.02759 0.446574 -1.31945 68 59 132 255 
-4.82103 0.428323 -1.31319 67 62 133 255 
-4.61066 0.407971 -1.30455 69 53 129 255 
-4.46928 0.391595 -1.31447 69 56 130 255 
-17.8796 1.62651 5.39313 59 82 139 255 
-17.8512 1.60847 5.18352 57 85 140 255 
-17.8668 1.60344 4.99843 58 84 140 255 
-17.8494 1.60223 4.81203 55 91 141 255 
-17.8474 1.61416 4.65118 61 77 138 255 
-17.8455 1.6111 4.46083 60 79 138 255 
-17.8415 1.61372 4.27771 61 77 138 255 
-17.8303 1.61618 4.10043 63 71 136 255 
-17.8301 1.60947 3.94924 59 81 139 255 
-17.8437 1.61407 3.76581 58 83 139 255 
-17.811 1.62036 3.58342 53 94 141 255 
-17.8094 1.6268 3.41146 58 84 140 255 
-17.8035 1.60707 3.2615 55 90 140 255 
-17.8137 1.6145 3.08635 53 95 141 255 
-17.7901 1.62472 2.90616 53 95 141 255 
-17.7955 1.64116 2.74103 54 93 141 255 
-17.8118 1.61095 2.59632 51 98 141 255 
-17.7977 1.61618 2.41943 52 96 141 255 
-17.7784 1.63304 2.2459 54 93 141 255 
-17.782 1.64617 2.08204 61 78 138 255 
-17.7926 1.60921 1.93763 57 86 140 255 
-17.8006 1.62584 1.76838 55 91 141 255 
-17.7548 1.634 1.59441 59 81 139 255 
-17.767 1.65415 1.42941 61 78 138 255 
-17.7886 1.61197 1.28973 59 81 139 255 
-17.7667 1.62587 1.11933 62 76 138 255 
-17.7409 1.64208 0.949327 67 62 133 255 
-17.7595 1.65969 0.781894 66 64 134 255 
-17.7452 1.61428 0.640918 66 63 133 255 
-17.7609 1.63159 0.473275 68 59 132 255 
-17.7353 1.64469 0.30468 67 62 133 255 
-17.7266 1.66286 0.139839 68 59 132 255 
-17.7305 1.61606 -0.00310738 65 68 135 255 
-17.73 1.63499 -0.170923 68 58 131 255 
-17.7272 1.65017 -0.335634 68 59 132 255 
-17.7235 1.6688 -0.503471 70 50 126 255 
-17.7289 1.62526 -0.646593 68 59 132 255 
-17.7029 1.63872 -0.810428 67 62 133 255 
-17.7092 1.65162 -0.978828 70 52 128 255 
-17.7064 1.6703 -1.14699 70 51 127 255 
-17.7137 1.62697 -1.29068 69 56 130 255 
-17.6943 1.64416 -1.45476 71 44 122 255 
-16.9457 1.58936 -1.55494 72 22 104 255 
-14.9177 1.40724 -1.51145 72 35 116 255 
-13.4874 1.2459 -1.47622 72 35 116 255 
-12.1708 1.13305 -1.4489 72 40 120 255 
-11.1504 1.04777 -1.43469 71 42 122 255 
-10.2332 0.968932 -1.41536 71 47 125 255 
-9.58656 0.89062 -1.40627 69 53 129 255 
-8.93519 0.834977 -1.39568 65 66 135 255 
-8.35262 0.786344 -1.38437 65 68 135 255 
-7.85609 0.743852 -1.38008 66 65 134 255 
-7.43869 0.696306 -1.37122 64 69 136 255 
-6.99853 0.657696 -1.35619 65 66 135 255 
-6.62705 0.623893 -1.35062 67 62 133 255 
-6.23363 0.589133 -1.33433 70 52 128 255 
-5.94549 0.559669 -1.325 67 61 132 255 
-5.68754 0.536496 -1.3231 66 65 134 255 
-5.43262 0.513358 -1.31914 68 57 131 255 
-5.21963 0.491466 -1.32272 68 59 132 255 
-5.03921 0.478787 -1.32324 66 63 133 255 
-4.81831 0.457896 -1.31319 68 59 132 255 
-4.62436 0.437796 -1.30916 70 50 126 255 
-4.4601 0.418383 -1.3125 70 51 127 255 
-17.8569 1.73498 5.38939 57 86 140 255 
-17.8505 1.7189 5.1863 60 79 138 255 
-17.8471 1.71212 4.99575 57 85 140 255 
-17.8479 1.71256 4.81436 56 88 140 255 
-17.841 1.72402 4.65218 58 84 140 255 
-17.8314 1.7202 4.45987 60 80 139 255 
-17.8448 1.72448 4.28096 61 78 138 255 
-17.8317 1.72668 4.10311 63 71 136 255 
-17.8315 1.71997 3.95183 59 82 139 255 
-17.8373 1.72391 3.76663 56 88 140 255 
-17.7948 1.72905 3.58224 54 92 141 255 
-17.8049 1.73661 3.41259 58 84 140 255 
-17.8012 1.71703 3.26293 55 90 140 255 
-17.8005 1.72348 3.08584 54 93 141 255 
-17.7887 1.73471 2.90761 54 92 141 255 
-17.7812 1.74994 2.74043 54 93 141 255 
-17.7898 1.71907 2.5946 52 96 141 255 
-17.7776 1.7244 2.41808 50 100 142 255 
-17.7661 1.74191 2.24565 51 99 141 255 
-17.7587 1.75398 2.08053 59 82 139 255 
-17.7834 1.71845 1.93774 58 83 139 255 
-17.7903 1.73504 1.76838 57 86 140 255 
-17.7613 1.74456 1.59592 60 80 139 255 
-17.7615 1.76363 1.42981 59 81 139 255 
-17.7724 1.72052 1.2893 59 82 139 255 
-17.7435 1.73359 1.11852 62 73 137 255 
-17.7424 1.75209 0.949965 66 63 133 255 
-17.751 1.76883 0.781981 69 53 129 255 
-17.7439 1.724 0.641241 65 66 135 255 
-17.7506 1.74054 0.473275 66 63 133 255 
-17.7378 1.75476 0.304902 66 65 134 255 
-17.727 1.77269 0.139925 68 57 131 255 
-17.7262 1.7254 -0.00310843 68 59 132 255 
-17.7226 1.74404 -0.170952 68 57 131 255 
-17.7098 1.75822 -0.335502 69 55 129 255 
-17.705 1.77671 -0.503244 70 50 126 255 
-17.7097 1.73313 -0.646267 68 58 131 255 
-17.6945 1.74751 -0.810519 68 59 132 255 
-17.7027 1.76065 -0.979047 68 58 131 255 
-17.6988 1.77922 -1.14718 70 51 127 255 
-17.6954 1.73485 -1.2901 70 52 128 255 
-17.674 1.75171 -1.45394 71 42 122 255 
-16.9684 1.69658 -1.55795 72 24 106 255 
-14.9049 1.49834 -1.51105 72 35 116 255 
-13.4607 1.32679 -1.47416 72 41 121 255 
-12.135 1.20487 -1.44549 71 45 123 255 
-11.1556 1.11735 -1.43621 71 44 122 255 
-10.2291 1.0319 -1.41563 70 50 126 255 
-9.55728 0.947083 -1.4028 68 57 131 255 
-8.9299 0.889786 -1.39568 64 69 136 255 
-8.34076 0.83689 -1.38323 66 64 134 255 
-7.8406 0.790955 -1.37818 65 66 135 255 
-7.42351 0.740862 -1.36924 64 70 136 255 
-6.99925 0.701115 -1.35714 60 79 138 255 
-6.62115 0.664349 -1.35022 64 70 136 255 
-6.24352 0.628743 -1.33725 71 46 124 255 
-5.93029 0.59497 -1.3224 68 59 132 255 
-5.657 0.568655 -1.31678 65 68 135 255 
-5.42163 0.545903 -1.31726 68 59 132 255 
-5.2252 0.524355 -1.32492 68 59 132 255 
-5.02751 0.508821 -1.32097 65 66 135 255 
-4.78372 0.484244 -1.30455 69 55 129 255 
-4.63212 0.467224 -1.31214 69 53 129 255 
-4.41544 0.44154 -1.30013 70 50 126 255 
-17.8517 1.8451 5.39111 56 88 140 255 
-17.8406 1.82849 5.18658 57 86 140 255 
-17.8075 1.81866 4.9877 58 83 139 255 
-17.8313 1.82145 4.81281 56 89 140 255 
-17.8339 1.83385 4.65319 59 81 139 255 
-17.8215 1.82967 4.46011 59 82 139 255 
-17.802 1.83065 4.2733 60 80 139 255 
-17.8121 1.83516 4.1011 64 69 136 255 
-17.8265 1.82994 3.95312 58 83 139 255 
-17.8138 1.83202 3.76395 58 83 139 255 
-17.7966 1.83951 3.5848 54 92 141 255 
-17.7949 1.84593 3.41278 59 81 139 255 
-17.7971 1.82693 3.26419 54 93 141 255 
-17.7906 1.83277 3.08601 52 96 141 255 
-17.7836 1.84444 2.90857 54 92 141 255 
-17.7789 1.85993 2.74179 55 91 141 255 
-17.7779 1.82809 2.59445 52 96 141 255 
-17.7657 1.83335 2.41795 50 100 142 255 
-17.7551 1.85088 2.24565 54 93 141 255 
-17.7545 1.86364 2.08135 60 79 138 255 
-17.7666 1.82692 1.93709 58 84 140 255 
-17.7625 1.84242 1.76671 55 90 140 255 
-17.7394 1.85237 1.59494 59 82 139 255 
-17.7543 1.873 1.43013 61 78 138 255 
-17.7675 1.83015 1.28973 58 83 139 255 
-17.7394 1.84315 1.11895 60 79 138 255 
-17.7363 1.86144 0.950231 66 64 134 255 
-17.7318 1.87688 0.781631 68 58 131 255 
-17.7241 1.83192 0.640918 65 66 135 255 
-17.7276 1.84818 0.472957 69 56 130 255 
-17.7078 1.86157 0.304577 69 56 130 255 
-17.7138 1.88122 0.139909 68 57 131 255 
-17.7243 1.83506 -0.00311 67 61 132 255 
-17.7125 1.85285 -0.170961 68 59 132 255 
-17.6817 1.86507 -0.335182 68 59 132 255 
-17.6848 1.88436 -0.50299 69 53 129 255 
-17.6748 1.83928 -0.645395 68 58 131 255 
-17.6953 1.8573 -0.811066 67 62 133 255 
-17.6827 1.86829 -0.978553 70 52 128 255 
-17.6816 1.88715 -1.1468 70 52 128 255 
-17.6944 1.84443 -1.29083 69 55 129 255 
-17.6609 1.85992 -1.45378 70 50 126 255 
-16.8339 1.78752 -1.54657 72 24 106 255 
-14.9162 1.59199 -1.51315 72 36 117 255 
-13.4177 1.40573 -1.47037 72 35 116 255 
-12.1738 1.2842 -1.45102 72 33 115 255 
-11.1426 1.18515 -1.43545 71 44 122 255 
-10.2127 1.09359 -1.41427 69 53 129 255 
-9.55227 1.00581 -1.40294 69 56 130 255 
-8.91248 0.943314 -1.39384 66 64 134 255 
-8.32762 0.887216 -1.38193 67 62 133 255 
-7.82874 0.838315 -1.37698 69 56 130 255 
-7.38362 0.782665 -1.36274 64 69 136 255 
-6.99189 0.743737 -1.35657 62 76 138 255 
-6.61013 0.704236 -1.34883 63 72 137 255 
-6.26969 0.670264 -1.34371 68 57 131 255 
-5.91973 0.630622 -1.32089 66 63 133 255 
-5.6379 0.601701 -1.31317 64 70 136 255 
-5.41045 0.578333 -1.31538 66 64 134 255 
-5.21031 0.555174 -1.32198 68 57 131 255 
-4.9964 0.536664 -1.31363 67 61 132 255 
-4.79793 0.515443 -1.30926 67 61 132 255 
-4.64352 0.497175 -1.31621 69 55 129 255 
-4.43173 0.470651 -1.30575 70 52 128 255 
-17.8143 1.95179 5.38335 57 86 140 255 
-17.8224 1.9372 5.18463 58 83 139 255 
-17.7989 1.9282 4.9885 60 80 139 255 
-17.8256 1.93145 4.81436 58 84 140 255 
-17.8166 1.94261 4.65168 60 79 138 255 
-17.8176 1.93983 4.46204 61 77 138 255 
-17.803 1.94122 4.27632 61 77 138 255 
-17.8121 1.94569 4.10378 63 71 136 255 
-17.7926 1.93686 3.94816 60 80 139 255 
-17.7973 1.94076 3.76293 58 84 140 255 
-17.7957 1.94985 3.58696 51 99 141 255 
-17.7745 1.95412 3.41109 54 92 141 255 
-17.7827 1.93578 3.26365 55 91 141 255 
-17.7711 1.94104 3.08465 53 94 141 255 
-17.7749 1.95385 2.90905 53 95 141 255 
-17.7819 1.97062 2.74407 58 84 140 255 
-17.7575 1.93617 2.59316 52 97 141 255 
-17.7561 1.94254 2.41822 49 103 142 255 
-17.7523 1.96077 2.24677 54 92 141 255 
-17.7457 1.97287 2.08169 62 73 137 255 
-17.7639 1.93687 1.93806 57 85 140 255 
-17.742 1.95039 1.76582 57 85 140 255 
-17.7356 1.96206 1.59566 62 76 138 255 
-17.7335 1.9809 1.42941 62 76 138 255 
-17.7589 1.93946 1.28994 56 89 140 255 
-17.7308 1.95229 1.11914 59 81 139 255 
-17.7216 1.9699 0.950071 64 69 136 255 
-17.7229 1.98597 0.781762 66 63 133 255 
-17.7184 1.94129 0.641133 64 70 136 255 
-17.6991 1.95505 0.472506 66 65 134 255 
-17.6961 1.97019 0.304577 66 64 134 255 
-17.698 1.98942 0.139878 68 57 131 255 
-17.7047 1.94291 -0.00310861 67 61 132 255 
-17.7088 1.96238 -0.171038 67 61 132 255 
-17.666 1.97309 -0.335106 68 58 131 255 
-17.6749 1.99306 -0.503046 70 51 127 255 
-17.6851 1.95011 -0.646194 69 56 130 255 
-17.6776 1.96518 -0.810792 69 53 129 255 
-17.6689 1.97653 -0.978443 69 56 130 255 
-17.6707 1.99571 -1.14686 70 51 127 255 
-17.6946 1.95428 -1.29169 69 55 129 255 
-17.673 1.9709 -1.45574 71 45 123 255 
-16.8691 1.89601 -1.55085 71 14 97 255 
-14.9417 1.6875 -1.51677 72 32 113 255 
-13.3564 1.48222 -1.46463 72 40 120 255 
-12.1587 1.3581 -1.4502 72 41 121 255 
-11.1085 1.2505 -1.43202 72 41 121 255 
-10.2019 1.15579 -1.41372 70 50 126 255 
-9.53216 1.06287 -1.40092 70 50 126 255 
-8.89474 0.996662 -1.39199 66 65 134 255 
-8.3181 0.937855 -1.38127 66 63 133 255 
-7.79311 0.882898 -1.37164 69 56 130 255 
-7.38161 0.828285 -1.36328 67 62 133 255 
-6.99402 0.787393 -1.35789 65 68 135 255 
-6.59107 0.743135 -1.34585 64 70 136 255 
-6.20132 0.701466 -1.32995 68 59 132 255 
-5.91284 0.666605 -1.32024 64 70 136 255 
-5.62636 0.635409 -1.31137 66 65 134 255 
-5.41162 0.612066 -1.31655 68 58 131 255 
-5.19525 0.585829 -1.31905 70 51 127 255 
-5.01031 0.569277 -1.31819 66 64 134 255 
-4.8081 0.546399 -1.31293 69 56 130 255 
-4.5677 0.517424 -1.2956 71 47 125 255 
-4.43448 0.498478 -1.30744 70 48 126 255 
-17.8105 2.06205 5.38594 56 88 140 255 
-17.8082 2.0463 5.18408 54 92 141 255 
-17.7991 2.0388 4.99199 58 84 140 255 
-17.8086 2.04024 4.81307 57 85 140 255 
-17.7986 2.05123 4.65017 60 80 139 255 
-17.7986 2.04834 4.46035 59 82 139 255 
-17.7627 2.04719 4.26958 62 73 137 255 
-17.796 2.0545 4.10289 64 70 136 255 
-17.7726 2.0451 3.94644 60 79 138 255 
-17.7958 2.05116 3.76519 57 85 140 255 
-17.7863 2.05935 3.58755 51 98 141 255 
-17.7534 2.06212 3.4094 58 83 139 255 
-17.7704 2.04485 3.26365 51 99 141 255 
-17.7608 2.05027 3.08499 51 99 141 255 
-17.7508 2.06151 2.90713 55 91 141 255 
-17.7528 2.07774 2.74149 56 89 140 255 
-17.7433 2.04487 2.59287 50 101 142 255 
-17.734 2.05031 2.41688 51 99 141 255 
-17.7399 2.06966 2.24677 53 95 141 255 
-17.7274 2.08102 2.081 62 74 137 255 
-17.7389 2.04435 1.93666 58 84 140 255 
-17.7455 2.06106 1.7674 54 92 141 255 
-17.7618 2.07536 1.59913 58 84 140 255 
-17.7211 2.08968 1.42941 61 77 138 255 
-17.7368 2.04724 1.28922 59 82 139 255 
-17.7284 2.0622 1.11977 61 78 138 255 
-17.6962 2.07709 0.94938 64 69 136 255 
-17.6955 2.09292 0.781105 66 63 133 255 
-17.6973 2.04894 0.64081 67 62 133 255 
-17.6977 2.06489 0.472798 67 62 133 255 
-17.6956 2.08014 0.304782 68 57 131 255 
-17.6805 2.09739 0.139839 68 58 131 255 
-17.6865 2.05081 -0.00310756 67 62 133 255 
-17.6676 2.06763 -0.17076 68 58 131 255 
-17.6565 2.0818 -0.335163 69 55 129 255 
-17.6593 2.10112 -0.502962 70 51 127 255 
-17.6698 2.05824 -0.646085 67 61 132 255 
-17.6593 2.07291 -0.810519 69 56 130 255 
-17.6267 2.0814 -0.976794 71 47 125 255 
-17.6334 2.10115 -1.14525 70 50 126 255 
-17.6615 2.06039 -1.29017 70 52 128 255 
-17.6615 2.07942 -1.45582 69 55 129 255 
-16.8314 1.99643 -1.54848 72 22 104 255 
-14.8105 1.76479 -1.50452 72 31 112 255 
-13.3263 1.56172 -1.46235 72 41 121 255 
-12.0871 1.42524 -1.44266 72 40 120 255 
-11.0435 1.31185 -1.42465 72 38 119 255 
-10.1916 1.21801 -1.41332 70 52 128 255 
-9.52152 1.12087 -1.40034 70 48 126 255 
-8.88355 1.05064 -1.39123 68 59 132 255 
-8.30435 0.987943 -1.37997 67 61 132 255 
-7.77092 0.928712 -1.36871 68 57 131 255 
-7.35099 0.870554 -1.35859 62 73 137 255 
-6.95201 0.825891 -1.35069 66 63 133 255 
-6.57471 0.782174 -1.34346 68 58 131 255 
-6.20467 0.74043 -1.33162 69 55 129 255 
-5.88537 0.700105 -1.31504 64 70 136 255 
-5.62429 0.67015 -1.31182 66 65 134 255 
-5.40777 0.64526 -1.31655 66 64 134 255 
-5.19155 0.617696 -1.31905 70 51 127 255 
-4.98559 0.597476 -1.31262 68 57 131 255 
-4.80274 0.575661 -1.3124 69 56 130 255 
-4.60076 0.549781 -1.30591 70 51 127 255 
-4.45231 0.528165 -1.31362 70 48 126 255 
-17.7938 2.17083 5.38478 56 89 140 255 
-17.7954 2.15553 5.18408 55 90 140 255 
-17.7825 2.14751 4.99092 59 82 139 255 
-17.7861 2.14831 4.81047 57 85 140 255 
-17.7866 2.16052 4.65042 59 82 139 255 
-17.7877 2.15775 4.46083 62 74 137 255 
-17.7556 2.15685 4.27098 62 73 137 255 
-17.7801 2.1633 4.10222 63 71 136 255 
-17.75 2.15294 3.94429 59 81 139 255 
-17.7722 2.15901 3.76293 58 84 140 255 
-17.749 2.16547 3.58264 54 93 141 255 
-17.7579 2.17316 3.41278 55 90 140 255 
-17.7458 2.15243 3.2615 53 95 141 255 
-17.7518 2.15969 3.08567 51 98 141 255 
-17.7378 2.17039 2.90713 54 92 141 255 
-17.7329 2.18578 2.74043 55 90 140 255 
-17.7432 2.15525 2.59474 51 99 141 255 
-17.7231 2.15933 2.41715 51 99 141 255 
-17.7348 2.17944 2.24777 52 96 141 255 
-17.7113 2.18939 2.08065 60 79 138 255 
-17.725 2.15304 1.93655 59 81 139 255 
-17.7305 2.16966 1.7672 56 89 140 255 
-17.7181 2.18053 1.59637 59 82 139 255 
-17.7119 2.19886 1.42973 61 77 138 255 
-17.7159 2.15507 1.28865 58 84 140 255 
-17.7045 2.16961 1.11908 62 74 137 255 
-17.6792 2.18514 0.949167 68 59 132 255 
-17.6834 2.20158 0.781149 68 57 131 255 
-17.6953 2.15882 0.641205 66 65 134 255 
-17.6996 2.17527 0.473195 66 63 133 255 
-17.6983 2.19064 0.305056 69 56 130 255 
-17.6673 2.20584 0.139839 69 55 129 255 
-17.6726 2.15917 -0.00310738 66 63 133 255 
-17.6724 2.1782 -0.170932 66 63 133 255 
-16.7514 2.07937 -0.318218 70 50 126 255 
-17.6431 2.20907 -0.502877 68 59 132 255 
-17.6439 2.16504 -0.645613 68 58 131 255 
-17.6443 2.18098 -0.810428 66 63 133 255 
-17.6156 2.18976 -0.976904 70 50 126 255 
-17.6182 2.20906 -1.14512 70 50 126 255 
-17.6247 2.1658 -1.28844 70 52 128 255 
-17.6455 2.18738 -1.45558 70 51 127 255 
-16.7527 2.0914 -1.54239 72 20 103 255 
-14.7994 1.85563 -1.50452 72 31 112 255 
-13.3155 1.64333 -1.46224 72 36 117 255 
-12.0653 1.49778 -1.44113 72 36 117 255 
-11.0283 1.37873 -1.42376 72 36 117 255 
-10.1771 1.27966 -1.41236 70 48 126 255 
-9.45064 1.17136 -1.39095 71 47 125 255 
-8.86713 1.10391 -1.38969 66 63 133 255 
-8.29128 1.03802 -1.37883 67 62 133 255 
-7.7641 0.976253 -1.36854 67 62 133 255 
-7.33575 0.914426 -1.35678 65 68 135 255 
-6.92343 0.865609 -1.34615 66 64 134 255 
-6.54645 0.819579 -1.33869 69 55 129 255 
-6.19127 0.777391 -1.32974 70 52 128 255 
-5.88968 0.737295 -1.31699 65 66 135 255 
-5.61524 0.704041 -1.31069 69 53 129 255 
-5.39696 0.677582 -1.31491 67 62 133 255 
-5.19151 0.650021 -1.32003 69 53 129 255 
-4.99239 0.629387 -1.3154 68 57 131 255 
-4.78476 0.603308 -1.30848 68 59 132 255 
-4.58679 0.576679 -1.30292 70 51 127 255 
-4.45374 0.556069 -1.31503 70 48 126 255 
-17.7848 2.28058 5.38622 57 86 140 255 
-17.7837 2.26492 5.18463 56 88 140 255 
-17.7632 2.25586 4.98931 59 81 139 255 
-17.7841 2.25887 4.81359 57 85 140 255 
-17.7672 2.26888 4.64891 61 78 138 255 
-17.7731 2.26673 4.46059 59 81 139 255 
-17.7758 2.27007 4.27911 61 78 138 255 
-17.7646 2.27211 4.10177 63 71 136 255 
-17.75 2.26354 3.9473 59 81 139 255 
-17.7693 2.26938 3.76519 59 82 139 255 
-17.7334 2.27409 3.58224 54 93 141 255 
-17.7404 2.28158 3.41203 56 88 140 255 
-17.7206 2.25978 3.25934 54 93 141 255 
-17.748 2.26982 3.08737 52 97 141 255 
-17.7398 2.2812 2.90969 54 93 141 255 
-17.724 2.29518 2.74119 54 93 141 255 
-17.7346 2.26471 2.59546 48 105 142 255 
-17.7213 2.26954 2.41876 50 100 142 255 
-17.7161 2.28758 2.24715 52 96 141 255 
-17.7005 2.29841 2.081 60 79 138 255 
-17.7193 2.26276 1.93741 58 84 140 255 
-17.7031 2.27663 1.76582 57 86 140 255 
-17.6876 2.28703 1.59485 60 80 139 255 
-17.6793 2.30505 1.42821 62 76 138 255 
-17.7063 2.26424 1.28894 59 82 139 255 
-17.6948 2.27871 1.11933 60 79 138 255 
-17.6694 2.29409 0.94938 65 68 135 255 
-17.6725 2.31043 0.781281 68 58 131 255 
-17.6896 2.26837 0.641493 66 65 134 255 
-17.6839 2.28358 0.473142 68 58 131 255 
-17.6905 2.29997 0.305159 68 59 132 255 
-17.6514 2.31394 0.139823 68 59 132 255 
-17.655 2.26706 -0.00310669 69 53 129 255 
-17.6637 2.28724 -0.17098 69 56 130 255 
-16.6789 2.17436 -0.317087 71 46 124 255 
-17.6233 2.3165 -0.502707 71 47 125 255 
-16.6788 2.15057 -0.61077 69 56 130 255 
-16.4883 2.14089 -0.757923 71 47 125 255 
-17.6107 2.29897 -0.977399 68 58 131 255 
-17.6112 2.31803 -1.14557 71 47 125 255 
-17.6131 2.27416 -1.28858 70 52 128 255 
-17.605 2.29214 -1.45337 70 48 126 255 
-16.6704 2.18509 -1.53602 72 22 104 255 
-14.774 1.94459 -1.50312 72 32 113 255 
-13.2934 1.72347 -1.46094 72 36 117 255 
-12.0391 1.5696 -1.43913 72 40 120 255 
-11.056 1.45115 -1.42846 72 35 116 255 
-10.1641 1.34143 -1.41168 71 47 125 255 
-9.41089 1.22512 -1.38618 70 50 126 255 
-8.84647 1.1565 -1.38754 67 62 133 255 
-8.26812 1.08669 -1.37606 69 56 130 255 
-7.77847 1.02658 -1.37215 66 63 133 255 
-7.33878 0.960569 -1.35841 64 69 136 255 
-6.90825 0.906796 -1.34425 66 64 134 255 
-6.55102 0.861009 -1.34068 71 47 125 255 
-6.15633 0.811403 -1.32328 71 46 124 255 
-5.89763 0.775074 -1.3198 64 69 136 255 
-5.60212 0.737338 -1.30866 68 57 131 255 
-5.39462 0.710938 -1.31538 67 61 132 255 
-5.17781 0.680599 -1.31758 70 51 127 255 
-4.99131 0.660389 -1.31616 67 61 132 255 
-4.77236 0.631516 -1.30612 69 53 129 255 
-4.59366 0.606198 -1.30591 69 53 129 255 
-4.44454 0.582637 -1.31334 69 56 130 255 
-17.761 2.38839 5.38335 57 85 140 255 
-17.7752 2.37476 5.1863 55 91 141 255 
-17.7529 2.36531 4.99038 58 83 139 255 
-17.767 2.36756 4.81281 55 91 141 255 
-17.7491 2.37734 4.64791 59 81 139 255 
-17.7493 2.37445 4.45818 60 79 138 255 
-17.7529 2.37793 4.27702 60 80 139 255 
-17.7561 2.38185 4.10311 64 70 136 255 
-17.7581 2.37539 3.95226 57 86 140 255 
-17.7395 2.37629 3.7619 57 85 140 255 
-17.7182 2.38273 3.58205 53 94 141 255 
-17.7289 2.39079 3.41259 56 89 140 255 
-17.7171 2.36991 3.26132 53 94 141 255 
-17.7308 2.37829 3.08686 51 99 141 255 
-17.7313 2.39079 2.91066 53 95 141 255 
-17.7106 2.40402 2.74134 53 94 141 255 
-17.7125 2.37243 2.59431 50 101 142 255 
-17.71 2.37863 2.41916 51 99 141 255 
-17.7067 2.39691 2.24777 52 97 141 255 
-17.688 2.40724 2.08123 58 83 139 255 
-17.7012 2.37092 1.93698 57 85 140 255 
-17.6996 2.38668 1.76691 56 88 140 255 
-17.6821 2.39672 1.59566 57 86 140 255 
-17.6737 2.4147 1.42893 62 76 138 255 
-17.699 2.37377 1.28944 59 82 139 255 
-17.6736 2.3863 1.11889 64 69 136 255 
-17.6669 2.40408 0.950018 65 68 135 255 
-17.658 2.41883 0.781281 66 64 134 255 
-17.6595 2.37474 0.640918 65 66 135 255 
-17.6606 2.39083 0.472904 67 62 133 255 
-17.68 2.40901 0.305227 66 63 133 255 
-17.5408 2.409 0.139061 69 56 130 255 
-17.1938 2.31516 -0.00302797 72 31 112 255 
-17.6454 2.39504 -0.170942 67 61 132 255 
-16.692 2.28032 -0.317596 72 37 118 255 
-17.4305 2.40005 -0.497619 72 31 112 255 
-16.5802 2.24136 -0.607649 71 46 124 255 
-17.5706 2.39114 -0.808333 69 55 129 255 
-17.5874 2.40576 -0.976904 70 51 127 255 
-17.6026 2.42687 -1.14596 71 45 123 255 
-17.6038 2.38286 -1.28894 71 47 125 255 
-17.5571 2.39553 -1.4506 72 36 117 255 
-16.6458 2.28585 -1.53502 72 24 106 255 
-14.7588 2.03479 -1.50282 72 31 112 255 
-13.2441 1.79978 -1.45672 72 29 111 255 
-11.9761 1.63619 -1.43277 72 35 116 255 
-11.0204 1.51531 -1.42503 72 38 119 255 
-10.143 1.40201 -1.4099 70 52 128 255 
-9.41594 1.28458 -1.38806 70 50 126 255 
-8.81767 1.20781 -1.38416 67 62 133 255 
-8.25055 1.13592 -1.37427 68 58 131 255 
-7.76031 1.07267 -1.37009 67 61 132 255 
-7.32982 1.00518 -1.35786 61 77 138 255 
-6.88505 0.946759 -1.34084 67 62 133 255 
-6.53784 0.900119 -1.33909 71 47 125 255 
-6.14348 0.848092 -1.32162 71 42 122 255 
-5.89856 0.812045 -1.3211 64 70 136 255 
-5.58398 0.769836 -1.3055 66 63 133 255 
-5.39594 0.744823 -1.31679 66 65 134 255 
-5.16201 0.71077 -1.31464 70 52 128 255 
-4.95075 0.685957 -1.30655 67 61 132 255 
-4.7531 0.658667 -1.30193 70 52 128 255 
-4.6013 0.635954 -1.30916 71 47 125 255 
-4.41806 0.606764 -1.30659 69 53 129 255 
-17.7413 2.49665 5.38191 58 84 140 255 
-17.7603 2.48378 5.1863 54 93 141 255 
-17.7485 2.47566 4.99333 58 84 140 255 
-17.7637 2.47814 4.81592 55 90 140 255 
-17.7457 2.48782 4.65092 62 74 137 255 
-17.743 2.48453 4.46035 59 82 139 255 
-17.7264 2.4852 4.27423 59 81 139 255 
-17.744 2.49116 4.10378 64 70 136 255 
-17.7441 2.48444 3.95247 58 83 139 255 
-17.7168 2.48401 3.76025 54 92 141 255 
-17.7129 2.49276 3.58401 56 89 140 255 
-17.7169 2.49994 3.41315 55 91 141 255 
-17.7149 2.48035 3.26365 53 94 141 255 
-17.712 2.48649 3.08618 55 91 141 255 
-17.7075 2.49831 2.90921 54 92 141 255 
-17.6974 2.51293 2.74164 53 95 141 255 
-17.7133 2.48327 2.59661 50 101 142 255 
-17.696 2.48739 2.41929 49 103 142 255 
-17.6798 2.50384 2.24627 52 96 141 255 
-17.6651 2.51461 2.0803 62 76 138 255 
-17.6755 2.47797 1.9358 57 85 140 255 
-17.6768 2.49412 1.76612 55 91 141 255 
-17.67 2.50559 1.59592 59 81 139 255 
-17.6723 2.52507 1.43005 59 81 139 255 
-17.6901 2.48316 1.28987 57 86 140 255 
-17.6606 2.49498 1.11902 61 77 138 255 
-17.6597 2.51356 0.950444 67 61 132 255 
-17.6458 2.52755 0.781412 66 64 134 255 
-17.6585 2.485 0.641421 66 65 134 255 
-17.6446 2.49901 0.472877 66 65 134 255 
-17.4422 2.48571 0.301379 72 40 120 255 
-16.9625 2.43571 0.134592 72 36 117 255 
-16.7268 2.35686 -0.00294821 72 41 121 255 
-16.073 2.28215 -0.155842 69 53 129 255 
-16.6163 2.37393 -0.316428 71 45 123 255 
-16.4577 2.36909 -0.470253 72 24 106 255 
-16.3543 2.3131 -0.599882 71 46 124 255 
-17.5566 2.49905 -0.808379 69 56 130 255 
-17.4774 2.50006 -0.971629 71 47 125 255 
-17.5725 2.53269 -1.145 70 51 127 255 
-17.574 2.48873 -1.28786 71 46 124 255 
-17.5558 2.50519 -1.45174 72 37 118 255 
-16.6118 2.38511 -1.5332 72 20 103 255 
-14.6978 2.11836 -1.4979 72 31 112 255 
-13.2043 1.87696 -1.45357 72 35 116 255 
-11.9885 1.71287 -1.43548 72 35 116 255 
-10.9991 1.58121 -1.4235 72 40 120 255 
-10.1126 1.4611 -1.4069 71 44 122 255 
-9.38829 1.33953 -1.38516 71 45 123 255 
-8.79249 1.25937 -1.38139 68 59 132 255 
-8.23756 1.18568 -1.3733 65 66 135 255 
-7.75163 1.11998 -1.36974 68 59 132 255 
-7.31768 1.0493 -1.35678 61 77 138 255 
-6.88397 0.989686 -1.34179 62 74 137 255 
-6.49728 0.935192 -1.33193 71 45 123 255 
-6.12461 0.883816 -1.3187 70 52 128 255 
-5.88381 0.846832 -1.31894 63 71 136 255 
-5.61386 0.809087 -1.31363 68 58 131 255 
-5.35663 0.77292 -1.30833 67 62 133 255 
-5.16427 0.743397 -1.31636 69 55 129 255 
-4.94645 0.716321 -1.30655 68 58 131 255 
-4.74992 0.687957 -1.30219 69 53 129 255 
-4.62398 0.668028 -1.31676 69 53 129 255 
-4.40856 0.633043 -1.30491 69 56 130 255 
-17.7427 2.60797 5.38709 56 88 140 255 
-17.7409 2.59216 5.18519 59 82 139 255 
-17.7702 2.58994 5.0038 56 89 140 255 
-17.7634 2.58931 4.82007 55 90 140 255 
-17.7378 2.59778 4.65293 63 72 137 255 
-17.7274 2.59335 4.46035 58 83 139 255 
-17.7253 2.59603 4.27771 60 79 138 255 
-17.7323 2.60055 4.10468 63 72 137 255 
-17.7112 2.59073 3.9486 59 81 139 255 
-17.707 2.59352 3.76149 60 80 139 255 
-17.7002 2.60183 3.5846 54 92 141 255 
-17.7002 2.60845 3.41296 56 88 140 255 
-17.7091 2.59042 3.26544 55 91 141 255 
-17.6993 2.59555 3.08669 53 95 141 255 
-17.6968 2.60763 2.91002 53 95 141 255 
-17.6856 2.62205 2.74225 56 88 140 255 
-17.6958 2.59162 2.59632 54 92 141 255 
-17.6834 2.59636 2.41969 55 91 141 255 
-17.674 2.61373 2.24752 50 100 142 255 
-17.6611 2.62471 2.08169 60 80 139 255 
-17.6688 2.58767 1.93677 60 79 138 255 
-17.6424 2.59978 1.76425 57 85 140 255 
-17.6543 2.61397 1.59592 59 81 139 255 
-17.6673 2.63508 1.43093 61 78 138 255 
-17.6824 2.59281 1.29045 57 86 140 255 
-17.6568 2.60505 1.11977 63 72 137 255 
-17.6528 2.6232 0.950923 65 66 135 255 
-17.6369 2.63681 0.781718 67 61 132 255 
-17.6488 2.59417 0.641637 64 69 136 255 
-17.6349 2.60811 0.473036 64 69 136 255 
-17.5492 2.61093 0.3035 71 44 122 255 
-16.3707 2.45335 0.130013 66 63 133 255 
-16.4755 2.42465 -0.0029065 71 45 123 255 
-16.1092 2.38821 -0.156332 68 58 131 255 
-16.2682 2.42614 -0.310076 70 52 128 255 
-17.4047 2.61451 -0.49776 72 36 117 255 
-16.8915 2.49488 -0.620134 71 42 122 255 
-17.4985 2.60041 -0.806421 70 51 127 255 
-17.5713 2.62362 -0.977729 70 48 126 255 
-17.5577 2.64062 -1.14506 70 48 126 255 
-17.5673 2.59783 -1.28851 72 38 119 255 
-17.5382 2.61257 -1.45158 72 38 119 255 
-16.5811 2.48463 -1.53174 72 23 105 255 
-14.6609 2.20495 -1.49549 72 32 113 255 
-13.1709 1.95473 -1.45119 72 37 118 255 
-11.9768 1.78625 -1.43536 72 40 120 255 
-10.949 1.64264 -1.4183 72 33 115 255 
-10.1073 1.52372 -1.40745 70 51 127 255 
-9.43177 1.40484 -1.39283 71 47 125 255 
-8.77971 1.31257 -1.38062 68 57 131 255 
-8.21745 1.2343 -1.37118 66 63 133 255 
-7.73195 1.16562 -1.3675 68 57 131 255 
-7.29943 1.09243 -1.35462 62 76 138 255 
-6.87874 1.03205 -1.34198 66 64 134 255 
-6.48366 0.973876 -1.33034 70 48 126 255 
-6.13261 0.923418 -1.32162 70 52 128 255 
-5.88043 0.883208 -1.31937 67 61 132 255 
-5.61265 0.844097 -1.31453 66 65 134 255 
-5.35755 0.806642 -1.30974 65 66 135 255 
-5.15386 0.774206 -1.31489 68 58 131 255 
-4.94674 0.747381 -1.30782 69 56 130 255 
-4.76565 0.720118 -1.30769 68 58 131 255 
-4.5941 0.692514 -1.30943 71 45 123 255 
-4.39984 0.65937 -1.3035 69 55 129 255 
-17.7311 2.71752 5.38852 60 80 139 255 
-17.7266 2.70125 5.18574 59 81 139 255 
-17.7596 2.69979 5.00541 55 90 140 255 
-17.7587 2.7 4.82318 56 89 140 255 
-17.7368 2.7089 4.65695 63 72 137 255 
-17.6968 2.69988 4.45673 61 78 138 255 
-17.7301 2.70797 4.28282 61 77 138 255 
-17.7121 2.70872 4.10378 65 66 135 255 
-17.7007 2.70023 3.94989 60 80 139 255 
-17.7043 2.70419 3.76437 58 84 140 255 
-17.6829 2.71024 3.5844 54 93 141 255 
-17.6732 2.71537 3.4109 59 81 139 255 
-17.6861 2.69799 3.26419 54 93 141 255 
-17.6831 2.7041 3.08669 56 89 140 255 
-17.6873 2.71722 2.91114 54 92 141 255 
-17.6829 2.73263 2.74437 55 90 140 255 
-17.6864 2.7012 2.59733 54 93 141 255 
-17.6749 2.70601 2.42077 51 99 141 255 
-17.6468 2.72046 2.24615 53 95 141 255 
-17.6564 2.73485 2.08308 60 79 138 255 
-17.6624 2.69754 1.93785 57 86 140 255 
-17.6468 2.71116 1.76632 57 86 140 255 
-17.6616 2.72589 1.59806 58 83 139 255 
-17.6499 2.74328 1.43085 61 78 138 255 
-17.6681 2.70156 1.29059 59 82 139 255 
-17.6444 2.71394 1.12002 62 74 137 255 
-17.6275 2.73009 0.950444 66 64 134 255 
-17.6213 2.74514 0.781762 66 63 133 255 
-17.6217 2.70075 0.641241 65 68 135 255 
-17.6235 2.71703 0.473169 66 65 134 255 
-17.603 2.72944 0.304714 68 59 132 255 
-16.7426 2.61422 0.133092 72 33 115 255 
-16.1361 2.47595 -0.00284925 71 45 123 255 
-16.4678 2.54473 -0.15996 70 52 128 255 
-16.2055 2.51854 -0.309171 70 52 128 255 
-16.9953 2.65974 -0.486508 72 26 108 255 
-16.2832 2.50723 -0.598357 72 32 113 255 
-17.415 2.69733 -0.803324 71 47 125 255 
-17.4967 2.72233 -0.974486 72 41 121 255 
-17.5352 2.74737 -1.14467 72 38 119 255 
-17.551 2.70557 -1.28851 71 42 122 255 
-17.5297 2.72135 -1.45223 72 32 113 255 
-16.4848 2.57373 -1.52428 71 19 101 255 
-14.6146 2.28978 -1.49218 72 36 117 255 
-13.1606 2.03581 -1.45141 72 33 115 255 
-11.9675 1.86001 -1.4356 72 33 115 255 
-10.9426 1.7104 -1.4188 72 35 116 255 
-10.1047 1.58678 -1.4084 70 50 126 255 
-9.39853 1.45889 -1.38921 71 46 124 255 
-8.77344 1.36672 -1.38093 66 63 133 255 
-8.18827 1.28134 -1.3676 68 58 131 255 
-7.68962 1.20754 -1.3613 68 59 132 255 
-7.30036 1.13841 -1.35606 63 72 137 255 
-6.87421 1.07454 -1.34236 66 64 134 255 
-6.4979 1.01682 -1.33451 70 52 128 255 
-6.13069 0.961636 -1.32245 68 59 132 255 
-5.8749 0.919273 -1.31937 66 64 134 255 
-5.59485 0.876559 -1.31159 66 64 134 255 
-5.38707 0.844922 -1.3182 65 66 135 255 
-5.16051 0.807614 -1.31782 69 53 129 255 
-4.92869 0.775614 -1.30428 68 59 132 255 
-4.75637 0.748595 -1.30638 68 57 131 255 
-4.5812 0.719346 -1.30699 70 50 126 255 
-4.38908 0.685318 -1.30153 69 53 129 255 
-17.716 2.82656 5.3891 58 83 139 255 
-17.7182 2.81132 5.18825 56 89 140 255 
-17.7399 2.80826 5.00461 54 93 141 255 
-17.7274 2.80665 4.81929 58 83 139 255 
-17.7285 2.81905 4.65921 61 77 138 255 
-17.6885 2.80978 4.4589 60 80 139 255 
-17.7161 2.81717 4.28352 60 79 138 255 
-17.6961 2.8175 4.10401 63 71 136 255 
-17.6954 2.81063 3.95247 59 82 139 255 
-17.6942 2.81385 3.76581 56 88 140 255 
-17.6854 2.82178 3.58833 53 95 141 255 
-17.6475 2.82236 3.40922 57 85 140 255 
-17.6721 2.80693 3.26473 52 96 141 255 
-17.6759 2.8141 3.08839 54 93 141 255 
-17.6693 2.82554 2.91098 54 92 141 255 
-17.6443 2.83763 2.74103 54 92 141 255 
-17.6802 2.81138 2.59891 52 96 141 255 
-17.6639 2.81535 2.42157 52 97 141 255 
-17.6327 2.82916 2.24652 52 97 141 255 
-17.6423 2.84361 2.08343 61 78 138 255 
-17.6475 2.80617 1.93806 59 82 139 255 
-17.6347 2.82017 1.76681 59 81 139 255 
-17.6445 2.83421 1.59806 59 82 139 255 
-17.6406 2.8528 1.43149 61 77 138 255 
-17.6502 2.80976 1.29052 61 78 138 255 
-17.6304 2.82263 1.12021 61 77 138 255 
-17.6272 2.8409 0.951348 66 64 134 255 
-17.6091 2.854 0.781981 69 56 130 255 
-17.6097 2.80961 0.641421 64 69 136 255 
-17.6213 2.82749 0.473567 68 58 131 255 
-17.5968 2.83915 0.304902 68 58 131 255 
-16.3186 2.65069 0.129849 69 55 129 255 
-16.1453 2.57885 -0.00285361 69 56 130 255 
-16.3146 2.62366 -0.158626 71 42 122 255 
-16.2648 2.63006 -0.310603 69 55 129 255 
-14.3118 2.32984 -0.410093 66 65 134 255 
-14.2891 2.29003 -0.525586 50 102 142 255 
-14.2501 2.29675 -0.657969 58 84 140 255 
-14.2792 2.31154 -0.796063 66 64 134 255 
-14.2264 2.31847 -0.929589 70 52 128 255 
-14.2813 2.29133 -1.04948 61 78 138 255 
-14.2923 2.30867 -1.18519 61 78 138 255 
-14.2836 2.31992 -1.32203 61 78 138 255 
-14.2959 2.3298 -1.46107 66 64 134 255 
-13.1302 2.11368 -1.44946 72 36 117 255 
-11.9275 1.92881 -1.43219 72 41 121 255 
-10.9192 1.77544 -1.41715 72 36 117 255 
-10.0644 1.6438 -1.40418 71 44 122 255 
-9.36888 1.51322 -1.38618 70 48 126 255 
-8.76197 1.42005 -1.38047 68 59 132 255 
-8.17344 1.33045 -1.36646 68 59 132 255 
-7.68693 1.25549 -1.36216 68 57 131 255 
-7.30974 1.18586 -1.35913 65 66 135 255 
-6.82291 1.10945 -1.33364 70 52 128 255 
-6.49444 1.05715 -1.33511 68 57 131 255 
-6.13143 1.00034 -1.32391 68 58 131 255 
-5.86241 0.954206 -1.31786 65 66 135 255 
-5.5884 0.910716 -1.31137 68 58 131 255 
-5.38275 0.878117 -1.31843 68 57 131 255 
-5.16024 0.840042 -1.31905 69 55 129 255 
-4.91715 0.804748 -1.30251 68 59 132 255 
-4.7555 0.778389 -1.30743 69 55 129 255 
-4.57196 0.746667 -1.30563 70 50 126 255 
-4.40184 0.715006 -1.30659 68 58 131 255 
-17.7276 2.94007 5.39802 56 89 140 255 
-17.7167 2.92265 5.19297 54 92 141 255 
-17.728 2.918 5.00622 56 88 140 255 
-17.7137 2.916 4.82033 57 85 140 255 
-17.7108 2.92778 4.65921 63 71 136 255 
-17.7169 2.92586 4.4705 59 81 139 255 
-17.6889 2.92423 4.2812 61 78 138 255 
-17.6862 2.9273 4.10579 63 71 136 255 
-17.6807 2.91963 3.95312 60 79 138 255 
-17.7017 2.92651 3.77115 58 84 140 255 
-17.6725 2.93104 3.58932 55 91 141 255 
-17.6463 2.93333 3.4124 54 92 141 255 
-17.6574 2.91579 3.26526 54 93 141 255 
-17.6632 2.92331 3.08924 54 92 141 255 
-17.6594 2.93519 2.91226 55 90 140 255 
-17.6441 2.94877 2.74376 54 92 141 255 
-17.6577 2.919 2.59819 48 105 142 255 
-17.6404 2.92271 2.42077 53 95 141 255 
-17.6229 2.9386 2.24752 52 96 141 255 
-17.6186 2.95082 2.08273 61 77 138 255 
-17.6447 2.91684 1.93968 58 84 140 255 
-17.6191 2.92865 1.76701 57 86 140 255 
-17.6209 2.94144 1.59753 60 80 139 255 
-17.6001 2.95719 1.42965 62 74 137 255 
-17.6228 2.91638 1.2898 57 85 140 255 
-17.6167 2.93141 1.12046 64 70 136 255 
-17.6242 2.95148 0.952147 65 66 135 255 
-17.608 2.96482 0.782726 66 65 134 255 
-17.5932 2.91777 0.641457 67 62 133 255 
-17.6115 2.93687 0.473779 66 64 134 255 
-17.5603 2.94393 0.304577 70 52 128 255 
-17.0169 2.87139 0.135543 72 29 111 255 
-16.1983 2.68934 -0.00286583 72 41 121 255 
-16.2538 2.7163 -0.158194 72 38 119 255 
-16.0088 2.68956 -0.306023 72 33 115 255 
-14.2933 2.41694 -0.40998 58 83 139 255 
-16.4257 2.73593 -0.604782 69 53 129 255 
-16.4851 2.76085 -0.761931 71 47 125 255 
-17.334 2.91531 -0.967343 71 45 123 255 
-16.5064 2.79413 -1.07967 72 24 106 255 
-16.6281 2.77261 -1.22316 72 32 113 255 
-16.7902 2.81798 -1.39373 72 20 103 255 
-16.3891 2.76523 -1.51846 72 24 106 255 
-14.558 2.46431 -1.48937 72 31 112 255 
-13.0768 2.18748 -1.44502 72 36 117 255 
-11.8978 1.999 -1.43007 72 37 118 255 
-10.9081 1.84241 -1.41715 72 36 117 255 
-10.0502 1.70486 -1.40363 72 36 117 255 
-9.35845 1.57051 -1.38603 72 41 121 255 
-8.71509 1.46739 -1.37448 69 56 130 255 
-8.15345 1.3786 -1.36451 68 58 131 255 
-7.6684 1.30082 -1.36027 70 51 127 255 
-7.28002 1.22693 -1.35498 66 64 134 255 
-6.84986 1.15702 -1.34028 66 63 133 255 
-6.42405 1.08619 -1.32199 69 55 129 255 
-6.12132 1.03729 -1.32307 66 63 133 255 
-5.84778 0.988694 -1.31591 68 58 131 255 
-5.57887 0.944338 -1.31047 68 59 132 255 
-5.34851 0.906257 -1.31138 69 55 129 255 
-5.13205 0.867809 -1.31318 68 57 131 255 
-4.91021 0.834579 -1.302 69 56 130 255 
-4.71924 0.802216 -1.29879 70 50 126 255 
-4.57488 0.775994 -1.3078 70 50 126 255 
-4.39453 0.741523 -1.30575 69 56 130 255 
-17.7017 3.04749 5.39572 58 83 139 255 
-17.706 3.0326 5.19519 58 83 139 255 
-17.7155 3.02769 5.00783 55 90 140 255 
-17.705 3.02626 4.82292 56 89 140 255 
-17.6992 3.03754 4.66097 62 73 137 255 
-17.7072 3.03598 4.47267 59 81 139 255 
-17.6735 3.03321 4.28189 62 74 137 255 
-17.6756 3.03709 4.10758 63 71 136 255 
-17.6711 3.02955 3.95506 60 80 139 255 
-17.6901 3.03623 3.77259 59 82 139 255 
-17.6542 3.03942 3.58932 55 91 141 255 
-17.6328 3.04239 3.41334 60 80 139 255 
-17.6402 3.02424 3.26544 55 91 141 255 
-17.6478 3.03214 3.08975 53 94 141 255 
-17.6517 3.04534 2.91403 55 90 140 255 
-17.6276 3.05731 2.74407 54 92 141 255 
-17.6298 3.02562 2.59675 50 100 142 255 
-17.6348 3.03307 2.42251 51 99 141 255 
-17.6094 3.04753 2.24815 53 94 141 255 
-17.6334 3.06465 2.08667 61 78 138 255 
-17.6274 3.02522 1.93979 58 83 139 255 
-17.6272 3.04127 1.76966 55 90 140 255 
-17.6123 3.0512 1.59842 59 82 139 255 
-17.5974 3.06786 1.43093 61 77 138 255 
-17.5967 3.02311 1.28922 59 82 139 255 
-17.5905 3.03809 1.11996 62 76 138 255 
-17.6127 3.06076 0.952519 64 69 136 255 
-17.6013 3.07487 0.783251 66 64 134 255 
-17.6055 3.03092 0.642571 66 64 134 255 
-17.5961 3.04539 0.473859 66 63 133 255 
-17.4651 3.03825 0.303243 71 45 123 255 
-16.2839 2.85057 0.129841 70 51 127 255 
-16.2307 2.79717 -0.00287456 72 40 120 255 
-15.8812 2.75429 -0.154729 70 51 127 255 
-16.0185 2.79237 -0.306532 70 50 126 255 
-16.1902 2.83999 -0.464881 72 37 118 255 
-16.1979 2.80023 -0.597014 68 58 131 255 
-16.3713 2.84519 -0.757468 67 61 132 255 
-16.521 2.88292 -0.922943 71 44 122 255 
-16.2629 2.85566 -1.06487 72 40 120 255 
-16.1391 2.79295 -1.18842 69 53 129 255 
-16.1147 2.80639 -1.33907 71 44 122 255 
-14.7455 2.58105 -1.36761 72 27 109 255 
-14.5318 2.55169 -1.48826 72 27 109 255 
-13.0347 2.26275 -1.44187 72 32 113 255 
-11.8735 2.06992 -1.42866 72 33 115 255 
-10.8937 1.90879 -1.41677 72 36 117 255 
-10.0113 1.76152 -1.39967 72 41 121 255 
-9.35351 1.62875 -1.38675 69 55 129 255 
-8.69521 1.51896 -1.37279 69 55 129 255 
-8.15844 1.43099 -1.36678 68 59 132 255 
-7.66318 1.34836 -1.36078 70 52 128 255 
-7.23651 1.26531 -1.3483 68 59 132 255 
-6.86294 1.20259 -1.34425 68 59 132 255 
-6.4163 1.12542 -1.32179 71 47 125 255 
-6.12159 1.07601 -1.32453 66 65 134 255 
-5.82525 1.02169 -1.31222 68 57 131 255 
-5.59216 0.981921 -1.31498 66 63 133 255 
-5.31796 0.934683 -1.30527 69 55 129 255 
-5.13522 0.90079 -1.31538 70 51 127 255 
-4.91453 0.866372 -1.30453 68 58 131 255 
-4.70662 0.829818 -1.29669 69 53 129 255 
-4.54728 0.800047 -1.30129 70 51 127 255 
-4.35776 0.762847 -1.29619 68 57 131 255 
-17.6845 3.15638 5.39629 57 85 140 255 
-17.7003 3.14353 5.19908 58 83 139 255 
-17.688 3.13482 5.00541 58 84 140 255 
-17.6899 3.13551 4.82396 56 89 140 255 
-17.6879 3.14744 4.66298 62 73 137 255 
-17.6921 3.14526 4.47364 59 81 139 255 
-17.6785 3.14585 4.2877 60 79 138 255 
-17.6518 3.14463 4.10646 64 69 136 255 
-17.6657 3.14031 3.95807 60 79 138 255 
-17.676 3.14558 3.77362 56 88 140 255 
-17.6584 3.15182 3.59403 54 92 141 255 
-17.6206 3.15173 3.41465 56 88 140 255 
-17.6261 3.13329 3.26634 53 94 141 255 
-17.6357 3.14157 3.09094 56 89 140 255 
-17.623 3.15185 2.91242 54 93 141 255 
-17.6202 3.16751 2.74589 55 90 140 255 
-17.6157 3.1346 2.59747 50 100 142 255 
-17.6149 3.14105 2.42238 53 94 141 255 
-17.5962 3.15657 2.24889 55 91 141 255 
-17.6153 3.17297 2.08679 62 74 137 255 
-17.6222 3.13576 1.9413 57 85 140 255 
-17.6014 3.14815 1.76897 57 85 140 255 
-17.6139 3.16291 1.60029 58 83 139 255 
-17.5851 3.17702 1.43149 62 74 137 255 
-17.5935 3.13382 1.29038 58 84 140 255 
-17.5577 3.1435 1.11908 64 69 136 255 
-17.5651 3.16364 0.950976 68 58 131 255 
-17.5555 3.178 0.782069 69 53 129 255 
-17.5885 3.13924 0.642643 64 69 136 255 
-17.5889 3.15542 0.474177 66 63 133 255 
-17.394 3.13596 0.302337 70 52 128 255 
-16.6498 3.02004 0.132904 72 33 115 255 
-16.1827 2.89125 -0.00286915 72 40 120 255 
-16.2892 2.92811 -0.158876 71 47 125 255 
-14.2754 2.57885 -0.273472 60 80 139 255 
-16.3879 2.97843 -0.471072 70 51 127 255 
-16.3348 2.92724 -0.602713 68 57 131 255 
-16.3693 2.94842 -0.758197 69 53 129 255 
-16.3595 2.9583 -0.914921 68 58 131 255 
-16.1842 2.94432 -1.06088 72 37 118 255 
-16.1108 2.88999 -1.18763 70 51 127 255 
-16.055 2.8976 -1.33556 72 36 117 255 
-13.8132 2.50531 -1.28255 72 29 111 255 
-13.166 2.39523 -1.34987 72 28 110 255 
-12.9873 2.3367 -1.43819 72 31 112 255 
-11.846 2.14008 -1.42689 72 41 121 255 
-10.8593 1.97152 -1.41385 72 37 118 255 
-10.012 1.82505 -1.40131 72 37 118 255 
-9.31607 1.68119 -1.38271 70 51 127 255 
-8.67503 1.57035 -1.37109 69 56 130 255 
-8.1233 1.47626 -1.36239 68 59 132 255 
-7.64508 1.39359 -1.35906 70 51 127 255 
-7.22667 1.30934 -1.34794 66 63 133 255 
-6.81872 1.23801 -1.33705 69 55 129 255 
-6.40735 1.16442 -1.32139 70 51 127 255 
-6.10717 1.11215 -1.32287 67 61 132 255 
-5.82944 1.05933 -1.31461 69 56 130 255 
-5.56207 1.01186 -1.30934 67 61 132 255 
-5.31881 0.968514 -1.30692 69 56 130 255 
-5.10479 0.927774 -1.30902 70 52 128 255 
-4.90246 0.895294 -1.30276 69 56 130 255 
-4.71568 0.861282 -1.30062 70 50 126 255 
-4.52524 0.824827 -1.29641 71 45 123 255 
-4.37188 0.792997 -1.30181 67 61 132 255 
-17.6507 3.26222 5.39198 57 86 140 255 
-17.6798 3.25191 5.1988 55 90 140 255 
-17.6713 3.24382 5.00622 57 85 140 255 
-17.657 3.24156 4.82033 58 83 139 255 
-17.6701 3.25626 4.66349 63 71 136 255 
-17.6744 3.25411 4.47412 60 80 139 255 
-17.6493 3.25251 4.28538 61 78 138 255 
-17.6284 3.25218 4.10557 63 71 136 255 
-17.648 3.249 3.9585 58 83 139 255 
-17.6612 3.25486 3.77465 58 84 140 255 
-17.6561 3.26332 3.59757 52 97 141 255 
-17.6279 3.2648 3.4199 58 84 140 255 
-17.6192 3.24369 3.26868 54 93 141 255 
-17.6286 3.25205 3.09315 51 98 141 255 
