ply
format ascii 1.0
comment VTK generated PLY File
obj_info vtkPolyData points and polygons: vtk4.0
element vertex 1236
property float x
property float y
property float z
property uchar red
property uchar green
property uchar blue
property uchar alpha
element face 0
property list uchar int vertex_indices
end_header
24.1687 -34.3363 -1.91407 70 8 92 255 
19.9049 -28.3202 -1.90501 70 10 93 255 
17.0441 -24.3047 -1.91446 72 20 103 255 
10.8801 -15.4339 -1.37014 71 45 123 255 
8.90527 -12.6611 -1.26718 72 24 106 255 
8.03162 -11.4399 -1.277 72 29 111 255 
7.31727 -10.4343 -1.28553 72 35 116 255 
6.78186 -9.63105 -1.2838 71 44 122 255 
6.27595 -8.92613 -1.29341 68 57 131 255 
5.84443 -8.32767 -1.3033 69 56 130 255 
5.38435 -7.68372 -1.29191 71 45 123 255 
5.02958 -7.15053 -1.27691 66 63 133 255 
4.68469 -6.66787 -1.26736 67 61 132 255 
4.38077 -6.24443 -1.25868 68 59 132 255 
4.1436 -5.91311 -1.26276 66 63 133 255 
3.92605 -5.58993 -1.25371 59 82 139 255 
3.72271 -5.30455 -1.25029 51 99 141 255 
3.51664 -5.01269 -1.24244 48 106 142 255 
3.36116 -4.79475 -1.24783 52 97 141 255 
3.23628 -4.61295 -1.25027 50 102 142 255 
3.08765 -4.40291 -1.24548 49 104 142 255 
2.95437 -4.21435 -1.24418 54 93 141 255 
2.8405 -4.04902 -1.24786 60 80 139 255 
2.72374 -3.88959 -1.2413 68 59 132 255 
2.61178 -3.72986 -1.23542 69 53 129 255 
2.52376 -3.60142 -1.23944 68 59 132 255 
2.43556 -3.46923 -1.24192 69 56 130 255 
8.33359 -11.9547 4.37756 68 57 131 255 
8.49352 -12.1619 4.29006 64 69 136 255 
8.13078 -11.6336 3.95483 71 46 124 255 
8.0077 -11.458 3.75347 72 33 115 255 
8.01437 -11.484 3.63472 63 72 137 255 
8.20205 -11.7489 3.56722 72 37 118 255 
0 -0 0 68 2 86 255 
8.27556 -11.8632 3.31281 72 29 111 255 
13.8558 -19.8469 5.33954 72 28 110 255 
8.20072 -11.7513 3.01195 61 77 138 255 
8.22287 -11.796 2.88108 66 63 133 255 
13.969 -20.0548 4.66223 71 13 96 255 
14.003 -20.0578 4.46317 72 22 104 255 
15.6608 -22.4498 4.72313 72 38 119 255 
15.4432 -22.1703 4.39545 72 40 120 255 
15.4609 -22.2378 4.15415 72 31 112 255 
15.5464 -22.2769 3.94361 72 33 115 255 
16.2542 -23.3091 3.84715 72 24 106 255 
14.2275 -20.4479 3.1337 72 20 103 255 
12.7597 -18.3662 2.60733 72 22 104 255 
13.5446 -19.4083 2.5669 71 17 100 255 
12.1738 -17.4771 2.10715 72 41 121 255 
12.7441 -18.3227 1.99584 72 31 112 255 
12.0265 -17.3303 1.68981 72 36 117 255 
12.0558 -17.2815 1.52149 72 38 119 255 
12.124 -17.4121 1.33116 72 26 108 255 
11.9741 -17.2349 1.11821 71 44 122 255 
11.8595 -17.1024 0.912311 72 41 121 255 
11.9448 -17.135 0.751308 71 19 101 255 
15.5169 -22.3014 0.720921 72 24 106 255 
15.2196 -21.9145 0.456404 72 22 104 255 
0 -0 0 68 2 86 255 
0 -0 -0 68 2 86 255 
0 -0 -0 68 1 84 255 
0 -0 -0 68 1 84 255 
0 -0 -0 68 1 84 255 
0 -0 -0 68 2 86 255 
24.2192 -34.8605 -1.93497 70 7 90 255 
19.6448 -28.318 -1.89672 70 10 93 255 
16.8299 -24.3153 -1.90712 72 23 105 255 
10.7163 -15.4013 -1.36138 70 48 126 255 
8.85811 -12.7597 -1.27159 72 38 119 255 
7.99247 -11.534 -1.282 72 28 110 255 
7.25877 -10.4872 -1.28654 72 35 116 255 
6.73285 -9.68717 -1.28575 71 47 125 255 
6.23578 -8.98568 -1.29647 68 58 131 255 
5.78927 -8.35767 -1.30241 62 74 137 255 
5.37204 -7.76713 -1.30037 68 57 131 255 
4.98109 -7.17475 -1.27576 68 57 131 255 
4.64932 -6.70461 -1.2689 69 53 129 255 
4.35248 -6.2858 -1.26161 66 64 134 255 
4.11341 -5.94734 -1.26466 67 61 132 255 
3.8956 -5.61958 -1.25497 57 86 140 255 
3.68729 -5.32325 -1.24934 51 98 141 255 
3.48861 -5.0382 -1.24344 51 99 141 255 
3.33557 -4.82092 -1.24929 50 100 142 255 
3.20902 -4.63433 -1.25071 50 102 142 255 
3.06335 -4.42578 -1.24661 50 102 142 255 
2.9362 -4.24359 -1.24747 51 98 141 255 
2.82223 -4.07594 -1.2508 64 70 136 255 
2.71577 -3.92931 -1.24864 67 62 133 255 
2.59598 -3.75614 -1.23882 69 56 130 255 
2.49832 -3.61208 -1.23782 69 55 129 255 
2.4268 -3.50225 -1.24839 68 58 131 255 
8.32034 -12.0932 4.4095 68 59 132 255 
8.23882 -11.9527 4.19838 69 55 129 255 
7.93289 -11.5001 3.89283 62 76 138 255 
8.06227 -11.6881 3.81259 72 31 112 255 
7.9756 -11.5792 3.64929 69 55 129 255 
8.13256 -11.803 3.56843 69 55 129 255 
8.17393 -11.8672 3.44089 68 57 131 255 
8.24296 -11.9724 3.32911 71 19 101 255 
7.82405 -11.3549 3.04191 72 28 110 255 
8.09293 -11.7499 2.99878 62 74 137 255 
8.11699 -11.7978 2.86929 72 20 103 255 
13.8073 -20.0842 4.64931 72 28 110 255 
15.4493 -22.4212 4.9679 70 8 92 255 
15.4814 -22.4854 4.71055 72 20 103 255 
15.2051 -22.1166 4.36623 72 32 113 255 
15.4209 -22.4732 4.18038 72 31 112 255 
14.9435 -21.6954 3.82437 72 29 111 255 
14.9086 -21.6615 3.56005 72 32 113 255 
13.9833 -20.3623 3.10736 72 28 110 255 
13.9252 -20.3087 2.8709 71 13 96 255 
13.3096 -19.3232 2.5448 72 22 104 255 
12.1075 -17.6113 2.11434 71 47 125 255 
12.3242 -17.9531 1.9473 71 46 124 255 
12.0844 -17.6439 1.71312 72 33 115 255 
11.919 -17.3108 1.5176 72 40 120 255 
11.8604 -17.2583 1.31382 70 48 126 255 
11.8297 -17.2521 1.11459 71 42 122 255 
11.795 -17.2342 0.915465 72 35 116 255 
15.169 -22.0474 0.962599 72 29 111 255 
15.4935 -22.5618 0.726252 71 13 96 255 
14.9492 -21.8095 0.452299 72 24 106 255 
0 -0 0 68 1 84 255 
0 -0 -0 68 1 84 255 
0 -0 -0 68 1 84 255 
0 -0 -0 68 1 84 255 
0 -0 -0 68 1 84 255 
0 -0 -0 68 2 86 255 
0 -0 -0 69 5 89 255 
19.5198 -28.5096 -1.9015 70 11 94 255 
16.7507 -24.5211 -1.91517 71 19 101 255 
10.5459 -15.3566 -1.35169 71 42 122 255 
8.83711 -12.8976 -1.27991 72 28 110 255 
7.9193 -11.5795 -1.28164 72 31 112 255 
7.19597 -10.534 -1.28684 72 35 116 255 
6.6969 -9.76273 -1.2903 71 45 123 255 
6.20578 -9.06064 -1.30176 67 61 132 255 
5.71997 -8.36683 -1.29835 57 86 140 255 
5.34495 -7.83022 -1.30542 64 69 136 255 
4.94089 -7.2109 -1.27677 69 56 130 255 
4.61814 -6.74769 -1.27167 68 58 131 255 
4.33499 -6.34334 -1.2678 67 62 133 255 
4.09461 -5.9985 -1.27017 67 61 132 255 
3.86771 -5.65311 -1.25714 58 84 140 255 
3.6529 -5.34335 -1.24878 52 97 141 255 
3.45708 -5.0587 -1.24324 53 95 141 255 
3.3142 -4.85341 -1.25242 51 98 141 255 
3.17887 -4.65151 -1.25006 49 103 142 255 
3.04712 -4.46058 -1.25113 50 101 142 255 
2.91066 -4.26232 -1.2477 55 91 141 255 
2.78951 -4.08197 -1.24737 60 79 138 255 
2.68616 -3.9379 -1.24611 67 62 133 255 
2.5892 -3.79592 -1.24668 68 57 131 255 
2.49185 -3.6504 -1.24568 68 58 131 255 
2.40527 -3.51707 -1.24839 68 57 131 255 
14.6961 -21.6432 7.85867 72 20 103 255 
7.90003 -11.6131 4.06197 69 55 129 255 
7.88007 -11.5748 3.90169 67 62 133 255 
7.75562 -11.3925 3.70056 70 50 126 255 
7.91257 -11.6399 3.65306 72 37 118 255 
8.05453 -11.8446 3.56601 72 24 106 255 
8.04519 -11.8351 3.4172 67 61 132 255 
7.80558 -11.4874 3.18087 71 42 122 255 
7.73611 -11.376 3.0348 66 65 134 255 
8.0735 -11.877 3.01853 72 33 115 255 
8.09347 -11.9196 2.88678 72 36 117 255 
13.6954 -20.1857 4.65324 70 10 93 255 
0 -0 0 68 2 86 255 
15.1261 -22.2604 4.64389 72 26 108 255 
15.2581 -22.488 4.42098 72 33 115 255 
13.2591 -19.5793 3.62687 70 8 92 255 
14.7962 -21.7662 3.82078 72 20 103 255 
13.8439 -20.3811 3.3356 72 38 119 255 
12.1904 -17.987 2.73342 72 36 117 255 
12.2527 -18.1068 2.54896 72 36 117 255 
12.1048 -17.807 2.33529 72 20 103 255 
12.1528 -17.9117 2.14142 72 24 106 255 
12.2094 -18.0217 1.94658 72 29 111 255 
11.7761 -17.422 1.68454 72 33 115 255 
11.8238 -17.4001 1.51904 71 44 122 255 
11.7677 -17.3506 1.31532 70 52 128 255 
11.713 -17.3086 1.11358 69 53 129 255 
11.6616 -17.2657 0.913319 72 40 120 255 
12.0951 -17.8128 0.774457 72 23 105 255 
14.795 -21.8306 0.69978 72 24 106 255 
14.6857 -21.7095 0.448348 72 29 111 255 
0 -0 0 68 1 84 255 
0 -0 -0 68 1 84 255 
0 -0 -0 68 2 86 255 
0 -0 -0 68 1 84 255 
0 -0 -0 68 2 86 255 
0 -0 -0 69 4 87 255 
23.9609 -35.4083 -1.94891 70 7 90 255 
19.2601 -28.5039 -1.8932 71 14 97 255 
16.8789 -25.0371 -1.94735 71 16 99 255 
10.428 -15.3863 -1.34865 71 47 125 255 
8.77177 -12.9723 -1.28195 72 32 113 255 
7.86091 -11.6469 -1.28373 72 31 112 255 
7.16123 -10.6225 -1.29226 72 37 118 255 
6.64691 -9.81846 -1.29225 70 50 126 255 
6.13338 -9.07386 -1.29823 69 55 129 255 
5.69071 -8.43466 -1.30343 66 65 134 255 
5.31175 -7.88505 -1.3091 65 66 135 255 
4.91041 -7.26157 -1.28038 68 58 131 255 
4.57278 -6.77016 -1.27059 68 59 132 255 
4.29543 -6.369 -1.26763 65 66 135 255 
4.04507 -6.00472 -1.26621 67 62 133 255 
3.84011 -5.68734 -1.25948 58 84 140 255 
3.62444 -5.37217 -1.25029 55 91 141 255 
3.43036 -5.08632 -1.24483 50 100 142 255 
3.28545 -4.87528 -1.25284 49 103 142 255 
3.1328 -4.64503 -1.24312 50 102 142 255 
3.01643 -4.47434 -1.24977 48 106 142 255 
2.88825 -4.28575 -1.24935 54 92 141 255 
2.77091 -4.10866 -1.25031 55 91 141 255 
2.67167 -3.96876 -1.25066 64 70 136 255 
2.57394 -3.82374 -1.25061 69 56 130 255 
2.47048 -3.66722 -1.24623 68 59 132 255 
2.38096 -3.52779 -1.24699 69 53 129 255 
12.5606 -18.7447 6.77809 72 24 106 255 
7.85004 -11.6932 4.07308 67 62 133 255 
7.81642 -11.6342 3.90545 63 72 137 255 
7.68826 -11.4439 3.70186 72 23 105 255 
14.3528 -21.3951 6.68685 71 13 96 255 
14.8143 -22.0754 6.61865 71 16 99 255 
7.55573 -11.2631 3.23859 64 70 136 255 
7.73441 -11.5343 3.18064 71 46 124 255 
7.64875 -11.3974 3.0279 65 68 135 255 
7.68318 -11.4533 2.89881 61 78 138 255 
7.80295 -11.6448 2.80859 71 14 97 255 
21.5038 -32.1168 7.37308 70 10 93 255 
22.8992 -34.122 7.49762 70 11 94 255 
15.0095 -22.3831 4.65019 72 28 110 255 
14.926 -22.2917 4.3643 72 26 108 255 
15.2065 -22.7545 4.19766 72 26 108 255 
14.7302 -21.9577 3.83845 71 13 96 255 
12.4136 -18.519 3.01831 72 28 110 255 
12.1052 -18.0994 2.73916 71 44 122 255 
12.6147 -18.8904 2.64832 72 20 103 255 
13.19 -19.6617 2.56787 72 26 108 255 
13.0924 -19.5537 2.32808 72 24 106 255 
11.907 -17.8098 1.91577 72 27 109 255 
11.9179 -17.8671 1.72047 72 33 115 255 
12.9173 -19.2624 1.67467 72 23 105 255 
11.7426 -17.5444 1.32452 70 48 126 255 
11.6083 -17.3827 1.11374 70 51 127 255 
11.5571 -17.3394 0.91345 72 33 115 255 
11.5695 -17.2657 0.74757 70 51 127 255 
14.5952 -21.8229 0.69665 72 23 105 255 
14.4928 -21.7103 0.446518 72 27 109 255 
0 -0 0 68 2 86 255 
0 -0 -0 68 1 84 255 
0 -0 -0 68 2 86 255 
0 -0 -0 68 1 84 255 
0 -0 -0 68 2 86 255 
0 -0 -0 69 4 87 255 
23.4563 -35.1251 -1.92536 70 7 90 255 
19.1153 -28.6673 -1.89622 71 13 96 255 
16.8454 -25.3213 -1.96138 72 20 103 255 
10.3361 -15.4542 -1.34901 70 50 126 255 
8.72132 -13.0698 -1.28628 72 28 110 255 
7.81028 -11.7264 -1.28719 72 32 113 255 
7.12402 -10.7085 -1.29738 72 35 116 255 
6.60752 -9.89047 -1.29636 71 42 122 255 
6.09027 -9.13033 -1.30094 70 50 126 255 
5.62896 -8.45455 -1.30114 71 47 125 255 
5.27423 -7.93399 -1.31183 65 66 135 255 
4.8707 -7.29897 -1.28168 69 55 129 255 
4.53006 -6.79645 -1.27028 68 57 131 255 
4.25846 -6.39852 -1.26829 65 68 135 255 
4.00487 -6.02451 -1.26517 68 57 131 255 
3.82586 -5.7419 -1.26634 51 99 141 255 
3.60175 -5.40984 -1.25389 54 92 141 255 
3.40777 -5.12033 -1.24801 47 107 142 255 
3.25331 -4.89209 -1.252 49 103 142 255 
3.10208 -4.66091 -1.24226 48 105 142 255 
2.98946 -4.49358 -1.25 50 100 142 255 
2.86674 -4.31067 -1.25146 51 99 141 255 
2.75478 -4.13931 -1.25447 56 89 140 255 
2.64888 -3.98749 -1.25142 62 76 138 255 
2.5531 -3.84348 -1.25192 67 62 133 255 
2.45113 -3.68712 -1.24785 66 63 133 255 
2.35714 -3.53914 -1.24586 70 52 128 255 
7.88451 -11.9239 4.29413 72 23 105 255 
7.99938 -12.0751 4.18893 69 55 129 255 
7.90298 -11.9204 3.98516 69 56 130 255 
0 -0 0 69 4 87 255 
14.2645 -21.5481 6.7072 72 22 104 255 
7.66479 -11.5745 3.45609 70 51 127 255 
7.52245 -11.3636 3.25416 67 62 133 255 
7.53547 -11.388 3.12751 71 42 122 255 
7.43956 -11.234 2.97233 59 81 139 255 
7.55766 -11.417 2.87783 55 91 141 255 
7.60264 -11.4978 2.76183 72 28 110 255 
7.58402 -11.4788 2.62446 70 7 90 255 
21.5558 -32.5501 7.12302 70 11 94 255 
14.7049 -22.2225 4.59798 71 19 101 255 
14.7916 -22.387 4.3651 72 20 103 255 
14.2852 -21.6624 3.97996 72 27 109 255 
12.0567 -18.2129 3.17084 71 46 124 255 
12.0013 -18.1435 2.94506 72 38 119 255 
12.0185 -18.2106 2.74478 72 37 118 255 
12.9975 -19.7247 2.75405 72 28 110 255 
12.967 -19.5881 2.54782 72 35 116 255 
12.9355 -19.5781 2.32148 72 23 105 255 
13.8768 -21.0344 2.25342 70 8 92 255 
11.7713 -17.8841 1.71512 72 23 105 255 
11.6661 -17.6295 1.52646 71 42 122 255 
11.6556 -17.6478 1.3269 69 55 129 255 
11.4959 -17.4452 1.11321 71 44 122 255 
11.4544 -17.4158 0.913757 71 42 122 255 
11.8304 -17.8915 0.77151 72 40 120 255 
14.3509 -21.7452 0.691344 72 26 108 255 
14.3494 -21.7838 0.44621 72 32 113 255 
0 -0 0 68 1 84 255 
0 -0 -0 68 1 84 255 
0 -0 -0 68 1 84 255 
0 -0 -0 68 1 84 255 
0 -0 -0 68 1 84 255 
0 -0 -0 68 2 86 255 
23.3844 -35.487 -1.9373 70 7 90 255 
19.1284 -29.0718 -1.91518 71 14 97 255 
16.5978 -25.2841 -1.95057 71 16 99 255 
10.2285 -15.4981 -1.34734 70 51 127 255 
8.68591 -13.1913 -1.29297 72 36 117 255 
7.76826 -11.8199 -1.29219 71 45 123 255 
7.08767 -10.7969 -1.3028 72 36 117 255 
6.54561 -9.92916 -1.29615 71 47 125 255 
6.03959 -9.17582 -1.30212 70 50 126 255 
5.59549 -8.51712 -1.30546 71 42 122 255 
5.21784 -7.95461 -1.30992 66 64 134 255 
4.83344 -7.34029 -1.28371 69 55 129 255 
4.49641 -6.8365 -1.27259 68 59 132 255 
4.22453 -6.43278 -1.26991 65 66 135 255 
3.98296 -6.07203 -1.27 66 64 134 255 
3.79218 -5.76773 -1.26688 54 93 141 255 
3.57172 -5.43676 -1.25503 50 101 142 255 
3.38436 -5.15343 -1.251 47 107 142 255 
3.22538 -4.91523 -1.25284 48 105 142 255 
3.07825 -4.6872 -1.24421 48 106 142 255 
2.95862 -4.50695 -1.24864 50 100 142 255 
2.84184 -4.33062 -1.25217 53 95 141 255 
2.74051 -4.17315 -1.2596 52 97 141 255 
2.62171 -3.99963 -1.25015 63 72 137 255 
2.52312 -3.84939 -1.24877 66 64 134 255 
2.42793 -3.70128 -1.24758 67 62 133 255 
2.33749 -3.55674 -1.24699 70 50 126 255 
7.81276 -11.9745 4.295 71 44 122 255 
7.99189 -12.2261 4.22422 71 45 123 255 
14.3362 -21.9147 7.29687 71 13 96 255 
7.71537 -11.7944 3.78433 72 27 109 255 
14.2093 -21.7535 6.74388 71 19 101 255 
7.62601 -11.6708 3.47083 69 53 129 255 
7.50311 -11.4869 3.27622 72 37 118 255 
7.361 -11.2741 3.08375 71 42 122 255 
7.44795 -11.398 3.00356 64 69 136 255 
7.48104 -11.4533 2.87537 57 85 140 255 
7.64446 -11.7167 2.80309 68 57 131 255 
7.65883 -11.7481 2.67524 71 14 97 255 
21.5214 -32.9354 7.17831 70 8 92 255 
14.5624 -22.3032 4.59611 72 22 104 255 
14.3936 -22.078 4.28755 72 23 105 255 
14.1935 -21.8134 3.99163 71 17 100 255 
12.119 -18.5534 3.2171 72 20 103 255 
11.9406 -18.2948 2.95767 72 41 121 255 
12.0901 -18.5659 2.78709 72 33 115 255 
12.8172 -19.7133 2.74143 72 33 115 255 
12.9629 -19.8454 2.57089 71 16 99 255 
11.5075 -17.6514 2.08461 72 20 103 255 
12.0951 -18.5807 1.98257 72 20 103 255 
11.6147 -17.8841 1.70825 72 26 108 255 
11.5495 -17.6883 1.52538 71 42 122 255 
11.5281 -17.6897 1.32471 68 57 131 255 
11.3941 -17.5238 1.11374 71 45 123 255 
11.3897 -17.5511 0.917173 71 45 123 255 
11.9219 -18.2726 0.784774 72 38 119 255 
14.2145 -21.8286 0.691212 72 32 113 255 
0 -0 0 68 2 86 255 
0 -0 0 68 2 86 255 
0 -0 -0 68 1 84 255 
0 -0 -0 68 2 86 255 
0 -0 -0 68 1 84 255 
0 -0 -0 68 1 84 255 
0 -0 -0 69 4 87 255 
0 -0 -0 68 2 86 255 
18.9545 -29.1962 -1.91567 72 23 105 255 
16.3349 -25.2196 -1.93782 71 16 99 255 
9.94434 -15.2706 -1.32223 71 47 125 255 
8.88065 -13.6689 -1.33441 72 40 120 255 
7.71509 -11.8974 -1.29547 72 31 112 255 
7.03102 -10.8553 -1.3046 72 31 112 255 
6.4786 -9.95997 -1.29496 70 50 126 255 
5.98317 -9.21271 -1.30212 70 50 126 255 
5.5496 -8.56128 -1.30699 71 47 125 255 
5.16571 -7.98149 -1.3091 66 64 134 255 
4.8061 -7.39719 -1.28848 67 62 133 255 
4.47697 -6.89877 -1.27904 66 64 134 255 
4.18874 -6.46437 -1.27105 67 62 133 255 
3.95259 -6.1071 -1.27224 67 61 132 255 
3.75726 -5.79171 -1.26706 52 96 141 255 
3.53295 -5.45033 -1.25313 50 101 142 255 
3.34308 -5.15929 -1.24742 47 108 142 255 
3.19516 -4.93492 -1.25284 50 101 142 255 
3.05686 -4.71747 -1.24724 49 104 142 255 
2.92826 -4.52093 -1.24752 50 101 142 255 
2.81786 -4.35205 -1.25334 51 99 141 255 
2.70642 -4.17687 -1.25569 52 96 141 255 
2.59817 -4.01726 -1.25066 61 78 138 255 
2.52304 -3.90127 -1.26056 66 65 134 255 
2.40047 -3.70884 -1.24514 66 63 133 255 
2.31719 -3.57343 -1.24783 69 53 129 255 
7.70441 -11.9683 4.27572 61 77 138 255 
14.3391 -22.2329 7.6511 72 22 104 255 
7.71953 -11.9598 3.96638 71 42 122 255 
7.63029 -11.822 3.7781 72 35 116 255 
7.55846 -11.7281 3.62141 72 41 121 255 
7.56424 -11.7329 3.47542 68 59 132 255 
11.0755 -17.1854 4.88205 72 37 118 255 
7.2901 -11.3166 3.08308 66 65 134 255 
7.43819 -11.537 3.02812 58 83 139 255 
7.36079 -11.4217 2.85603 55 90 140 255 
7.56765 -11.756 2.80132 72 35 116 255 
14.722 -22.8884 5.1914 72 23 105 255 
15.4867 -24.0206 5.21452 70 10 93 255 
15.0262 -23.325 4.78758 71 16 99 255 
14.3305 -22.2788 4.30939 72 23 105 255 
14.2591 -22.2112 4.04833 71 16 99 255 
12.0585 -18.7106 3.23146 71 44 122 255 
11.8185 -18.3527 2.95526 72 24 106 255 
12.0135 -18.6981 2.79583 72 29 111 255 
12.6515 -19.7222 2.73182 72 32 113 255 
12.7176 -19.7332 2.5462 72 31 112 255 
11.4932 -17.8681 2.10184 72 29 111 255 
12.0045 -18.6914 1.98649 72 24 106 255 
11.815 -18.4393 1.75433 72 22 104 255 
11.3127 -17.5601 1.50831 71 45 123 255 
11.3216 -17.6081 1.31338 68 58 131 255 
11.3117 -17.6329 1.11624 69 56 130 255 
11.6799 -18.2425 0.949536 72 31 112 255 
12.1158 -18.821 0.805119 72 40 120 255 
13.8523 -21.5605 0.680018 72 27 109 255 
13.8748 -21.6367 0.439677 70 8 92 255 
0 -0 0 68 1 84 255 
0 -0 -0 68 1 84 255 
0 -0 -0 68 2 86 255 
0 -0 -0 68 2 86 255 
0 -0 -0 68 1 84 255 
0 -0 -0 69 4 87 255 
0 -0 -0 69 4 87 255 
18.7815 -29.322 -1.91633 71 16 99 255 
16.1331 -25.2462 -1.93222 72 20 103 255 
9.79331 -15.2424 -1.31456 70 51 127 255 
8.93806 -13.9438 -1.35587 69 55 129 255 
7.65107 -11.9588 -1.29701 72 33 115 255 
6.96267 -10.8957 -1.3043 72 37 118 255 
6.42811 -10.0163 -1.29712 70 48 126 255 
5.96511 -9.30945 -1.31059 70 52 128 255 
5.49536 -8.59266 -1.30661 67 62 133 255 
5.1209 -8.01971 -1.31019 68 58 131 255 
4.77825 -7.45403 -1.29324 68 57 131 255 
4.45694 -6.96107 -1.2855 65 66 135 255 
4.15909 -6.50575 -1.27415 67 61 132 255 
3.92299 -6.14369 -1.27482 65 66 135 255 
3.72748 -5.82377 -1.26905 51 99 141 255 
3.51425 -5.49507 -1.25844 52 96 141 255 
3.31611 -5.18714 -1.24921 46 111 142 255 
3.16324 -4.95196 -1.25221 50 102 142 255 
3.03785 -4.75177 -1.25136 49 104 142 255 
2.89837 -4.53553 -1.24661 51 99 141 255 
2.80052 -4.38401 -1.25757 50 102 142 255 
2.67813 -4.18931 -1.25447 53 95 141 255 
2.57087 -4.02905 -1.24939 65 66 135 255 
2.49542 -3.91098 -1.25872 63 71 136 255 
2.37663 -3.72187 -1.2446 69 55 129 255 
2.2978 -3.59162 -1.24923 70 52 128 255 
12.1035 -19.0578 6.78183 71 17 100 255 
13.3361 -20.9589 7.18437 71 19 101 255 
7.57926 -11.9021 3.93175 72 32 113 255 
7.55242 -11.8605 3.77551 71 42 122 255 
7.53206 -11.8461 3.64351 72 36 117 255 
7.56606 -11.8954 3.50972 70 52 128 255 
7.52128 -11.8293 3.34729 72 24 106 255 
7.35856 -11.5783 3.14202 70 52 128 255 
7.40552 -11.6426 3.04384 61 78 138 255 
7.32627 -11.5228 2.87002 59 81 139 255 
14.5082 -22.8445 5.42228 72 31 112 255 
14.5592 -22.9434 5.18353 72 24 106 255 
15.0159 -23.6072 5.10467 72 27 109 255 
14.794 -23.277 4.75901 71 14 97 255 
14.2364 -22.4338 4.32239 72 22 104 255 
13.1093 -20.6983 3.75785 72 23 105 255 
11.9589 -18.8084 3.23563 72 31 112 255 
11.7444 -18.486 2.96505 72 37 118 255 
11.9309 -18.8226 2.80344 72 32 113 255 
12.5903 -19.8943 2.7449 71 16 99 255 
12.5867 -19.7958 2.54426 72 26 108 255 
11.362 -17.9047 2.0979 72 20 103 255 
11.8955 -18.774 1.98747 70 52 128 255 
11.8955 -18.8182 1.78339 72 28 110 255 
11.1764 -17.5845 1.50449 71 45 123 255 
11.1861 -17.6343 1.31018 68 57 131 255 
11.5819 -18.3002 1.15396 72 29 111 255 
11.5752 -18.3256 0.950149 72 32 113 255 
13.273 -20.8994 0.890527 72 23 105 255 
13.8139 -21.7937 0.684686 72 20 103 255 
13.7455 -21.7273 0.439797 72 23 105 255 
0 -0 0 68 2 86 255 
0 -0 -0 68 1 84 255 
0 -0 -0 68 1 84 255 
0 -0 -0 68 2 86 255 
0 -0 -0 68 1 84 255 
0 -0 -0 69 4 87 255 
21.0621 -33.2803 -1.79536 70 7 90 255 
18.4428 -29.186 -1.90001 71 14 97 255 
16.0242 -25.4182 -1.93782 71 14 97 255 
9.62965 -15.1918 -1.30508 71 46 124 255 
8.83582 -13.9723 -1.35334 68 57 131 255 
7.57595 -12.003 -1.29674 72 29 111 255 
6.90418 -10.9517 -1.30591 72 35 116 255 
6.40056 -10.1093 -1.30406 71 44 122 255 
5.91796 -9.36182 -1.31283 69 56 130 255 
5.44465 -8.62958 -1.30711 71 46 124 255 
5.08691 -8.07529 -1.31415 68 58 131 255 
4.73454 -7.48655 -1.29382 68 57 131 255 
4.41942 -6.99664 -1.28703 64 69 136 255 
4.13068 -6.54951 -1.27773 66 63 133 255 
3.89152 -6.17765 -1.27689 65 68 135 255 
3.69798 -5.85651 -1.27122 50 101 142 255 
3.48152 -5.51819 -1.25882 51 99 141 255 
3.29363 -5.22231 -1.25279 46 109 142 255 
3.13697 -4.9779 -1.25388 49 103 142 255 
3.01072 -4.77362 -1.25222 49 103 142 255 
2.8762 -4.56229 -1.24909 47 108 142 255 
2.77771 -4.40769 -1.25945 50 101 142 255 
2.64513 -4.19418 -1.25104 54 93 141 255 
2.54713 -4.04639 -1.2499 64 69 136 255 
2.47189 -3.92703 -1.25899 64 69 136 255 
2.3753 -3.77059 -1.25599 64 69 136 255 
2.28392 -3.61864 -1.25373 69 55 129 255 
11.9782 -19.1187 6.77723 72 23 105 255 
7.42484 -11.8285 4.03891 72 24 106 255 
11.1572 -17.7603 5.84421 72 24 106 255 
7.60383 -12.1045 3.83827 72 24 106 255 
11.1896 -17.8394 5.46565 72 36 117 255 
7.53677 -12.0114 3.53026 70 51 127 255 
7.49869 -11.9551 3.36982 64 70 136 255 
7.28945 -11.6265 3.14292 68 57 131 255 
7.34173 -11.7002 3.04708 72 38 119 255 
7.26999 -11.5907 2.87578 69 53 129 255 
14.2199 -22.6971 5.36649 72 36 117 255 
0 -0 0 68 2 86 255 
0 -0 0 68 2 86 255 
12.4759 -19.8983 4.0525 72 22 104 255 
10.5931 -16.9213 3.24769 72 22 104 255 
10.6739 -17.0841 3.08973 71 45 123 255 
11.1349 -17.7522 3.04211 72 24 106 255 
11.6634 -18.6097 2.97337 71 42 122 255 
11.7789 -18.8374 2.79483 72 20 103 255 
12.4633 -19.9636 2.74386 72 26 108 255 
11.4158 -18.2 2.33012 72 40 120 255 
11.2699 -18.0027 2.10125 72 28 110 255 
11.7827 -18.8508 1.98791 72 28 110 255 
11.7772 -18.8866 1.78299 71 19 101 255 
11.1223 -17.739 1.51184 72 31 112 255 
11.0539 -17.6645 1.30737 71 42 122 255 
11.6756 -18.7013 1.17471 71 17 100 255 
11.4953 -18.4489 0.952864 72 36 117 255 
13.6847 -21.8426 0.92712 71 13 96 255 
13.6396 -21.8137 0.68267 72 22 104 255 
21.8747 -35.0512 0.706764 71 14 97 255 
0 -0 0 68 1 84 255 
0 -0 -0 68 1 84 255 
0 -0 -0 68 1 84 255 
0 -0 -0 68 1 84 255 
71.2993 -114.607 -3.81735 69 4 87 255 
0 -0 -0 68 2 86 255 
20.848 -33.3936 -1.79454 70 8 92 255 
18.2174 -29.2249 -1.89523 71 13 96 255 
15.8985 -25.5652 -1.94156 71 13 96 255 
9.45006 -15.1128 -1.29329 71 46 124 255 
8.6497 -13.8656 -1.33784 66 63 133 255 
7.51585 -12.0712 -1.29911 72 35 116 255 
6.85576 -11.0242 -1.30952 72 35 116 255 
6.3421 -10.1543 -1.30482 71 44 122 255 
5.86881 -9.41144 -1.31471 70 51 127 255 
5.40732 -8.68809 -1.31093 69 56 130 255 
5.02158 -8.08111 -1.31005 70 51 127 255 
4.70265 -7.53813 -1.29773 67 61 132 255 
4.37275 -7.01775 -1.28596 67 62 133 255 
4.09614 -6.58394 -1.27952 64 70 136 255 
3.86758 -6.224 -1.28154 64 69 136 255 
3.65885 -5.87408 -1.27013 52 96 141 255 
3.45226 -5.54695 -1.26052 50 102 142 255 
3.27292 -5.26073 -1.25716 46 110 142 255 
3.1043 -4.99373 -1.25304 50 100 142 255 
2.98395 -4.79615 -1.25331 48 105 142 255 
2.84867 -4.58068 -1.24932 49 103 142 255 
2.74189 -4.41061 -1.25546 50 100 142 255 
2.63112 -4.22927 -1.25667 55 91 141 255 
2.53093 -4.07591 -1.2542 57 86 140 255 
2.45589 -3.95525 -1.26318 66 63 133 255 
2.35618 -3.79163 -1.25816 67 62 133 255 
2.26522 -3.63829 -1.2557 69 55 129 255 
7.27185 -11.7667 4.15518 72 24 106 255 
7.44467 -12.0233 4.08975 72 22 104 255 
7.5676 -12.212 4.00315 66 63 133 255 
7.5462 -12.178 3.84682 71 42 122 255 
7.30463 -11.8059 3.60332 72 27 109 255 
7.41696 -11.9832 3.50851 70 50 126 255 
7.46357 -12.0629 3.38724 72 36 117 255 
7.33282 -11.8567 3.19292 72 40 120 255 
10.5807 -17.0941 4.43479 72 27 109 255 
7.27906 -11.765 2.90787 68 58 131 255 
14.2113 -22.9958 5.41639 72 20 103 255 
0 -0 0 68 2 86 255 
0 -0 0 68 2 86 255 
14.7125 -23.7887 4.82634 71 13 96 255 
10.4968 -16.9986 3.2501 72 40 120 255 
10.5014 -17.0399 3.07002 71 44 122 255 
10.0891 -16.3062 2.78366 72 32 113 255 
10.7856 -17.4461 2.77683 72 27 109 255 
10.2865 -16.6774 2.46495 72 31 112 255 
11.1827 -18.1595 2.48643 72 28 110 255 
11.2977 -18.2596 2.32882 72 37 118 255 
11.2151 -18.1621 2.11178 72 29 111 255 
14.1968 -23.0263 2.419 71 14 97 255 
11.6794 -18.9882 1.78579 72 29 111 255 
12.0358 -19.4602 1.6522 70 11 94 255 
13.85 -22.4379 1.65432 72 32 113 255 
11.5858 -18.8134 1.17727 72 24 106 255 
11.4384 -18.611 0.957594 72 33 115 255 
11.3843 -18.4211 0.778915 70 8 92 255 
13.6331 -22.1037 0.689116 72 20 103 255 
21.5497 -35.0068 0.703189 69 5 89 255 
0 -0 0 68 1 84 255 
0 -0 -0 68 1 84 255 
0 -0 -0 68 2 86 255 
0 -0 -0 68 2 86 255 
0 -0 -0 68 2 86 255 
0 -0 -0 69 5 89 255 
20.6427 -33.5209 -1.79454 71 13 96 255 
18.0304 -29.3242 -1.89446 72 20 103 255 
15.7455 -25.669 -1.94207 71 19 101 255 
9.31526 -15.1026 -1.2875 69 53 129 255 
8.56028 -13.9116 -1.33719 68 57 131 255 
7.51043 -12.2291 -1.31112 72 36 117 255 
6.81661 -11.1127 -1.31504 72 32 113 255 
6.28645 -10.204 -1.30622 70 50 126 255 
5.82292 -9.46673 -1.31742 69 56 130 255 
5.37363 -8.75322 -1.31575 71 47 125 255 
4.98536 -8.13373 -1.3136 70 52 128 255 
4.65112 -7.55842 -1.29628 67 61 132 255 
4.33374 -7.05118 -1.28719 68 58 131 255 
4.05619 -6.60979 -1.27968 64 69 136 255 
3.8288 -6.24678 -1.28137 66 65 134 255 
3.6248 -5.89978 -1.27085 50 101 142 255 
3.40943 -5.5538 -1.2573 51 98 141 255 
3.24058 -5.28071 -1.25716 45 113 142 255 
3.08025 -5.02352 -1.25575 50 100 142 255 
2.96212 -4.82685 -1.25655 46 110 142 255 
2.82866 -4.61136 -1.25293 50 102 142 255 
2.70868 -4.41741 -1.25264 51 99 141 255 
2.60056 -4.2379 -1.25447 57 86 140 255 
2.51042 -4.09879 -1.25648 55 91 141 255 
2.41847 -3.94884 -1.25637 64 69 136 255 
2.33337 -3.80684 -1.25843 68 59 132 255 
2.24084 -3.64885 -1.25458 69 56 130 255 
7.35404 -12.0646 4.24436 68 59 132 255 
7.23557 -11.8474 4.01474 69 56 130 255 
7.47545 -12.2303 3.99402 72 29 111 255 
7.48443 -12.2455 3.85357 69 53 129 255 
10.5761 -17.33 5.26944 71 13 96 255 
10.5824 -17.3341 5.05609 71 14 97 255 
7.41526 -12.1509 3.39908 72 22 104 255 
7.25536 -11.894 3.19091 72 31 112 255 
10.5285 -17.2453 4.4572 72 27 109 255 
10.4877 -17.1857 4.2317 72 26 108 255 
10.5757 -17.35 4.07123 71 19 101 255 
10.6119 -17.4239 3.89172 70 11 94 255 
11.9521 -19.5772 4.18497 69 5 89 255 
11.9895 -19.6545 3.97259 71 19 101 255 
10.4195 -17.1073 3.25861 72 24 106 255 
10.1754 -16.7399 3.00468 72 41 121 255 
9.93674 -16.2825 2.76915 68 59 132 255 
10.1888 -16.709 2.64951 72 38 119 255 
10.0277 -16.4834 2.42713 70 48 126 255 
10.0233 -16.5027 2.25111 71 46 124 255 
11.1756 -18.3124 2.32677 72 32 113 255 
11.0284 -18.1074 2.09751 72 37 118 255 
14.0548 -23.1121 2.41891 71 17 100 255 
11.0508 -18.2158 1.70673 72 23 105 255 
12.166 -19.9432 1.68685 72 26 108 255 
13.5252 -22.2155 1.63178 71 14 97 255 
11.4587 -18.8653 1.1761 72 36 117 255 
11.3436 -18.7133 0.959258 72 26 108 255 
12.2619 -20.1162 0.847392 72 20 103 255 
13.2296 -21.7471 0.675455 72 23 105 255 
0 -0 0 68 1 84 255 
0 -0 0 68 1 84 255 
0 -0 -0 68 1 84 255 
0 -0 -0 68 2 86 255 
0 -0 -0 68 1 84 255 
0 -0 -0 68 2 86 255 
27.1753 -44.6522 -1.89844 70 7 90 255 
20.3028 -33.4266 -1.78279 70 7 90 255 
17.8274 -29.3967 -1.89204 71 16 99 255 
15.4715 -25.573 -1.92759 71 14 97 255 
9.24212 -15.1918 -1.29025 71 45 123 255 
8.42408 -13.8804 -1.32919 67 62 133 255 
7.45692 -12.3107 -1.31494 71 44 122 255 
6.76271 -11.1782 -1.31785 72 32 113 255 
6.25005 -10.2857 -1.31175 71 47 125 255 
5.7673 -9.50652 -1.31801 69 55 129 255 
5.32547 -8.79536 -1.31715 69 53 129 255 
4.94766 -8.18451 -1.31688 69 53 129 255 
4.61852 -7.60965 -1.30018 68 59 132 255 
4.3032 -7.09877 -1.29103 66 64 134 255 
4.01657 -6.63625 -1.28001 65 68 135 255 
3.79448 -6.2769 -1.28274 64 69 136 255 
3.5921 -5.92779 -1.27212 51 99 141 255 
3.38393 -5.5889 -1.26052 49 104 142 255 
3.21065 -5.30469 -1.25815 46 110 142 255 
3.04683 -5.03815 -1.25471 51 99 141 255 
2.93245 -4.84493 -1.25655 46 110 142 255 
2.80384 -4.63447 -1.25451 50 101 142 255 
2.68152 -4.43395 -1.25264 53 94 141 255 
2.5715 -4.2488 -1.253 55 90 140 255 
2.48122 -4.10749 -1.25445 57 85 140 255 
2.39569 -3.96608 -1.25715 63 72 137 255 
2.31097 -3.82273 -1.25898 65 66 135 255 
2.23233 -3.68551 -1.26245 69 55 129 255 
7.20142 -11.979 4.19862 65 66 135 255 
7.21776 -11.9829 4.04558 72 36 117 255 
7.23465 -12.0012 3.90464 71 45 123 255 
7.26157 -12.0464 3.77681 68 59 132 255 
13.5427 -22.5006 6.81623 71 13 96 255 
11.0289 -18.3174 5.32304 72 28 110 255 
10.2582 -17.0437 4.75012 72 31 112 255 
10.0862 -16.7653 4.48108 72 23 105 255 
10.1762 -16.9005 4.35186 71 47 125 255 
10.6853 -17.7537 4.35532 72 23 105 255 
10.6135 -17.6549 4.12742 70 48 126 255 
11.7643 -19.5854 4.3583 71 17 100 255 
11.8282 -19.6443 4.18371 72 29 111 255 
10.0155 -16.6473 3.35229 71 13 96 255 
10.0674 -16.7597 3.18058 72 28 110 255 
10.413 -17.3701 3.10625 72 31 112 255 
9.91422 -16.472 2.79099 71 44 122 255 
9.92619 -16.5054 2.60752 71 42 122 255 
9.70839 -16.1813 2.37383 66 63 133 255 
9.89585 -16.5205 2.24521 72 36 117 255 
11.0548 -18.367 2.32505 72 32 113 255 
13.8184 -23.0048 2.65494 71 16 99 255 
13.7452 -22.9186 2.38979 71 17 100 255 
10.947 -18.2969 1.70801 72 20 103 255 
12.0727 -20.0662 1.69095 72 28 110 255 
11.4908 -19.1373 1.40048 72 20 103 255 
11.314 -18.8873 1.17312 72 38 119 255 
11.1445 -18.6419 0.952076 71 14 97 255 
13.2644 -22.0642 0.926006 72 20 103 255 
13.1916 -21.9873 0.680389 71 16 99 255 
0 -0 0 68 1 84 255 
0 -0 0 68 2 86 255 
0 -0 -0 68 1 84 255 
0 -0 -0 68 1 84 255 
0 -0 -0 68 1 84 255 
0 -0 -0 68 1 84 255 
26.8885 -44.7975 -1.89757 70 8 92 255 
20.3545 -33.9799 -1.8056 70 8 92 255 
17.6349 -29.4859 -1.89078 70 11 94 255 
15.2866 -25.6212 -1.92412 71 17 100 255 
9.11794 -15.1969 -1.2859 71 46 124 255 
8.33057 -13.9181 -1.32789 64 69 136 255 
7.38073 -12.3554 -1.31485 72 36 117 255 
6.69349 -11.2186 -1.31775 72 35 116 255 
6.2042 -10.3528 -1.31543 70 51 127 255 
5.71956 -9.55963 -1.32048 69 53 129 255 
5.27649 -8.83639 -1.31842 69 55 129 255 
4.90445 -8.22663 -1.31878 71 45 123 255 
4.57225 -7.6387 -1.30033 69 56 130 255 
4.26717 -7.13776 -1.29333 66 63 133 255 
3.99196 -6.68788 -1.28522 68 59 132 255 
3.75892 -6.30514 -1.28378 64 69 136 255 
3.55465 -5.94803 -1.27176 52 96 141 255 
3.35713 -5.6222 -1.26336 48 106 142 255 
3.18658 -5.33859 -1.26153 47 107 142 255 
3.01837 -5.06095 -1.25575 48 106 142 255 
2.89516 -4.85026 -1.25331 47 108 142 255 
2.76936 -4.64154 -1.2518 50 102 142 255 
2.65875 -4.45783 -1.25475 52 96 141 255 
2.5424 -4.2595 -1.25153 56 88 140 255 
2.45993 -4.12929 -1.25648 56 88 140 255 
2.37576 -3.98817 -1.25951 62 73 137 255 
2.28698 -3.83601 -1.2587 68 59 132 255 
2.21214 -3.70326 -1.26386 68 59 132 255 
7.04084 -11.8763 4.14741 70 51 127 255 
7.13134 -12.0055 4.03836 69 55 129 255 
7.05307 -11.864 3.84586 68 57 131 255 
7.15297 -12.0326 3.75865 72 35 116 255 
10.1413 -17.0856 5.15689 72 33 115 255 
10.8494 -18.272 5.29043 72 22 104 255 
10.0492 -16.9307 4.70135 72 37 118 255 
10.0622 -16.9601 4.51657 72 27 109 255 
10.8451 -18.2641 4.68575 72 24 106 255 
10.6012 -17.861 4.3656 72 40 120 255 
10.5235 -17.7509 4.13469 71 44 122 255 
10.3272 -17.4345 3.86549 72 36 117 255 
11.7095 -19.7199 4.18443 70 10 93 255 
9.90208 -16.6898 3.34855 69 56 130 255 
9.78074 -16.5112 3.12197 71 44 122 255 
9.89376 -16.7359 2.98194 72 31 112 255 
9.88418 -16.6525 2.81124 70 52 128 255 
9.68016 -16.3223 2.56915 66 63 133 255 
9.56042 -16.1586 2.36185 69 56 130 255 
9.67811 -16.3842 2.21857 72 27 109 255 
11.3803 -19.1732 2.41821 72 26 108 255 
11.2826 -19.047 2.19015 72 22 104 255 
10.9941 -18.5891 1.93126 72 20 103 255 
10.9044 -18.4823 1.71903 72 28 110 255 
12.1153 -20.4195 1.71443 71 16 99 255 
11.1779 -18.8777 1.37643 72 41 121 255 
11.4539 -19.3897 1.19993 72 29 111 255 
12.7306 -21.5947 1.09887 70 8 92 255 
12.7852 -21.5658 0.901778 71 13 96 255 
12.5922 -21.2832 0.656198 72 27 109 255 
0 -0 0 68 1 84 255 
0 -0 0 68 2 86 255 
0 -0 -0 68 2 86 255 
0 -0 -0 68 1 84 255 
0 -0 -0 68 1 84 255 
0 -0 -0 68 1 84 255 
26.5596 -44.8714 -1.89376 69 5 89 255 
20.1639 -34.1352 -1.80724 69 5 89 255 
17.1878 -29.1428 -1.86199 70 10 93 255 
8.64725 -14.6975 -1.09975 70 8 92 255 
8.8234 -14.9127 -1.25725 71 45 123 255 
8.22829 -13.9406 -1.32519 68 57 131 255 
7.34522 -12.4691 -1.32212 72 35 116 255 
6.62503 -11.2603 -1.31785 72 36 117 255 
6.14612 -10.4001 -1.31663 72 41 121 255 
5.68098 -9.62875 -1.32519 68 58 131 255 
5.23123 -8.88399 -1.32071 68 58 131 255 
4.86091 -8.26852 -1.32069 70 48 126 255 
4.53485 -7.6828 -1.30307 68 59 132 255 
4.23835 -7.18934 -1.29795 63 71 136 255 
3.94835 -6.70799 -1.2844 67 61 132 255 
3.73564 -6.35441 -1.28912 56 89 140 255 
3.52408 -5.9799 -1.27392 51 99 141 255 
3.32606 -5.64862 -1.26469 48 106 142 255 
3.14979 -5.35129 -1.25994 47 108 142 255 
2.98974 -5.08359 -1.2568 54 93 141 255 
2.86584 -4.86878 -1.25352 50 102 142 255 
2.74182 -4.66013 -1.25225 49 103 142 255 
2.63529 -4.48076 -1.25663 53 94 141 255 
2.51916 -4.28003 -1.253 59 81 139 255 
2.4321 -4.14013 -1.25521 59 82 139 255 
2.35026 -4.00101 -1.25899 61 78 138 255 
2.24779 -3.82342 -1.25002 66 63 133 255 
2.1884 -3.71511 -1.26329 68 58 131 255 
6.90984 -11.8201 4.11289 70 51 127 255 
7.07745 -12.083 4.04975 70 48 126 255 
6.94215 -11.8423 3.82492 64 70 136 255 
10.2292 -17.4503 5.4313 72 28 110 255 
10.048 -17.1676 5.16292 71 42 122 255 
10.0321 -17.1341 4.94303 72 36 117 255 
9.9918 -17.0718 4.72341 72 40 120 255 
9.97667 -17.0535 4.52506 72 28 110 255 
9.99809 -17.0755 4.365 72 33 115 255 
10.5151 -17.9663 4.37548 72 31 112 255 
10.4891 -17.943 4.16435 72 33 115 255 
10.2597 -17.5654 3.88048 72 31 112 255 
13.2381 -22.609 4.78015 69 4 87 255 
9.78456 -16.7248 3.34345 71 47 125 255 
9.69219 -16.5931 3.12614 70 50 126 255 
9.75206 -16.7297 2.97011 71 47 125 255 
9.79482 -16.7351 2.81498 68 58 131 255 
9.79043 -16.7415 2.62563 71 45 123 255 
9.65159 -16.5435 2.4094 71 47 125 255 
9.5714 -16.4329 2.21718 71 46 124 255 
11.26 -19.2384 2.41767 72 27 109 255 
11.1234 -19.0437 2.18188 72 36 117 255 
10.8803 -18.657 1.93135 72 24 106 255 
10.8058 -18.5747 1.72143 72 36 117 255 
10.4607 -17.8798 1.49578 72 23 105 255 
10.0227 -17.1662 1.24713 71 47 125 255 
11.1658 -19.1697 1.18206 72 33 115 255 
12.6049 -21.6845 1.09949 71 19 101 255 
12.3546 -21.1339 0.880534 72 20 103 255 
12.608 -21.6113 0.663917 71 19 101 255 
42.0298 -72.1865 1.42887 69 5 89 255 
0 -0 0 68 1 84 255 
0 -0 -0 68 2 86 255 
41.9659 -71.9915 -0.799937 69 4 87 255 
41.9032 -72.0269 -1.5709 70 7 90 255 
41.8607 -72.1297 -2.35861 70 10 93 255 
26.2697 -45.0093 -1.89274 70 7 90 255 
20.5293 -35.2457 -1.85934 69 5 89 255 
16.6669 -28.6599 -1.82457 70 10 93 255 
14.8304 -25.5643 -1.90603 70 11 94 255 
8.86543 -15.1957 -1.2765 70 50 126 255 
8.107 -13.9297 -1.3194 66 65 134 255 
7.27758 -12.5294 -1.32376 72 35 116 255 
6.60773 -11.3903 -1.32829 72 41 121 255 
6.08519 -10.4428 -1.31728 67 61 132 255 
5.62229 -9.66429 -1.3253 70 51 127 255 
5.20003 -8.95623 -1.32668 66 64 134 255 
4.82002 -8.31533 -1.32342 70 48 126 255 
4.49459 -7.72245 -1.3051 67 62 133 255 
4.19564 -7.21778 -1.29841 68 58 131 255 
3.91603 -6.74745 -1.28733 66 63 133 255 
3.70596 -6.3934 -1.29239 55 90 140 255 
3.50066 -6.02437 -1.2788 50 100 142 255 
3.28986 -5.66637 -1.26412 49 104 142 255 
3.11246 -5.36289 -1.25815 48 105 142 255 
2.95456 -5.09507 -1.25513 52 97 141 255 
2.84768 -4.90653 -1.25872 50 101 142 255 
2.72197 -4.69203 -1.25631 47 107 142 255 
2.61798 -4.51451 -1.26157 52 96 141 255 
2.49383 -4.29709 -1.25349 57 85 140 255 
2.40665 -4.15498 -1.25521 59 81 139 255 
2.31599 -3.99865 -1.25375 65 68 135 255 
2.22477 -3.83798 -1.25029 64 70 136 255 
2.16701 -3.73096 -1.26414 67 62 133 255 
11.2118 -19.452 6.74443 71 14 97 255 
7.07476 -12.2501 4.09114 72 24 106 255 
6.85055 -11.8521 3.81445 70 52 128 255 
10.1123 -17.4961 5.42611 71 45 123 255 
10.0063 -17.3396 5.19608 72 35 116 255 
9.88792 -17.1281 4.92371 71 46 124 255 
9.89026 -17.1387 4.72504 72 40 120 255 
9.90399 -17.1701 4.53979 72 29 111 255 
10.7104 -18.5523 4.72561 71 17 100 255 
10.3763 -17.9813 4.36355 72 27 109 255 
13.0062 -22.5655 5.21856 71 13 96 255 
11.3586 -19.7237 4.34181 72 20 103 255 
0 -0 0 69 4 87 255 
9.64039 -16.7128 3.32916 70 48 126 255 
9.81481 -17.0423 3.19936 71 42 122 255 
9.6571 -16.8029 2.97254 69 55 129 255 
9.71717 -16.8386 2.82231 70 52 128 255 
10.7146 -18.5826 2.90401 72 37 118 255 
9.67258 -16.8157 2.44036 70 50 126 255 
9.60245 -16.7213 2.2481 72 35 116 255 
10.1673 -17.6185 2.20622 72 23 105 255 
10.1263 -17.5835 2.00742 72 32 113 255 
10.7458 -18.6889 1.92779 72 29 111 255 
10.1099 -17.6264 1.62776 72 33 115 255 
10.0153 -17.3622 1.44731 72 28 110 255 
9.86191 -17.1313 1.24018 68 57 131 255 
10.1454 -17.6662 1.08548 72 37 118 255 
10.0499 -17.5359 0.885991 71 17 100 255 
12.2896 -21.3219 0.885207 72 27 109 255 
41.659 -72.4251 2.21706 70 8 92 255 
41.4407 -72.1898 1.42387 69 5 89 255 
41.3699 -72.2438 0.653861 69 4 87 255 
41.6564 -72.3013 -0.0145636 69 5 89 255 
41.5299 -72.2589 -0.800061 69 4 87 255 
41.4416 -72.2497 -1.57019 69 4 87 255 
41.3046 -72.1882 -2.3522 70 7 90 255 
26.2198 -45.5638 -1.90926 70 7 90 255 
19.9639 -34.7638 -1.82741 70 8 92 255 
17.033 -29.7076 -1.88457 71 13 96 255 
9.84508 -17.2132 -1.27886 70 8 92 255 
8.7576 -15.2247 -1.2744 72 40 120 255 
8.03576 -14.0043 -1.32177 68 58 131 255 
7.2258 -12.6179 -1.3284 72 28 110 255 
6.54019 -11.4349 -1.32879 72 38 119 255 
6.04131 -10.5153 -1.32172 71 45 123 255 
5.5703 -9.71152 -1.32707 66 65 134 255 
5.1573 -9.00949 -1.32986 66 65 134 255 
4.7748 -8.35507 -1.32506 70 52 128 255 
4.46387 -7.77906 -1.31001 66 63 133 255 
4.14538 -7.2331 -1.29656 66 63 133 255 
3.87259 -6.76793 -1.28668 67 61 132 255 
3.6735 -6.42799 -1.2948 53 94 141 255 
3.45581 -6.03209 -1.27591 51 99 141 255 
3.25502 -5.68645 -1.26412 49 104 142 255 
3.07658 -5.37678 -1.25696 46 109 142 255 
2.92955 -5.12414 -1.25784 51 99 141 255 
2.81703 -4.92307 -1.2585 48 106 142 255 
2.68781 -4.69934 -1.25383 51 99 141 255 
2.58782 -4.52627 -1.26039 52 96 141 255 
2.46982 -4.31652 -1.25471 60 80 139 255 
2.39742 -4.19823 -1.26381 59 82 139 255 
2.29572 -4.02033 -1.25611 68 58 131 255 
2.22076 -3.88582 -1.26142 66 65 134 255 
2.12023 -3.70254 -1.25008 67 61 132 255 
11.0482 -19.443 6.71767 70 7 90 255 
13.3682 -23.4788 7.81362 70 11 94 255 
6.7963 -11.9266 3.82492 70 7 90 255 
9.94261 -17.4487 5.3924 71 44 122 255 
9.82314 -17.266 5.15589 72 37 118 255 
9.77304 -17.1716 4.91888 71 46 124 255 
9.78492 -17.1991 4.72504 72 36 117 255 
10.741 -18.888 4.97647 72 22 104 255 
10.4911 -18.4326 4.67864 72 23 105 255 
10.1269 -17.8005 4.30451 71 46 124 255 
10.038 -17.6654 4.07103 72 28 110 255 
12.9363 -22.7854 4.99821 71 14 97 255 
9.47397 -16.6456 3.49447 72 28 110 255 
9.54205 -16.7793 3.33069 71 47 125 255 
9.84066 -17.3322 3.2424 69 53 129 255 
9.62204 -16.9823 2.99376 71 42 122 255 
10.8557 -19.081 3.18693 72 24 106 255 
11.3178 -19.9101 3.10055 72 33 115 255 
11.0693 -19.52 2.82291 72 23 105 255 
10.0306 -17.7178 2.37375 72 22 104 255 
10.058 -17.6788 2.20601 72 32 113 255 
9.78485 -17.2343 1.96066 70 50 126 255 
10.6368 -18.7649 1.92886 72 29 111 255 
9.99176 -17.6707 1.62617 71 14 97 255 
9.91306 -17.4312 1.44796 72 24 106 255 
9.78715 -17.2453 1.24406 71 47 125 255 
10.055 -17.7602 1.08745 72 38 119 255 
12.2641 -21.7071 1.09292 72 27 109 255 
12.0765 -21.2527 0.87924 71 17 100 255 
13.5657 -23.9227 0.729754 72 20 103 255 
41.4161 -73.1832 1.43843 70 7 90 255 
41.0393 -72.6975 0.655675 69 5 89 255 
41.374 -72.8408 -0.0146208 69 5 89 255 
0 -0 -0 68 2 86 255 
41.2726 -72.9891 -1.58072 69 4 87 255 
40.9193 -72.5439 -2.35556 70 7 90 255 
26.1385 -46.0741 -1.92388 70 8 92 255 
19.7448 -34.8761 -1.82691 70 11 94 255 
16.6205 -29.4047 -1.85885 71 13 96 255 
14.3327 -25.4202 -1.88203 70 10 93 255 
8.6099 -15.1827 -1.26644 70 50 126 255 
7.986 -14.1175 -1.32781 66 64 134 255 
7.19671 -12.7479 -1.33741 72 29 111 255 
6.49043 -11.5113 -1.333 72 38 119 255 
5.98598 -10.5686 -1.32378 70 52 128 255 
5.52087 -9.76367 -1.32954 70 51 127 255 
5.13019 -9.09107 -1.33723 64 70 136 255 
4.72831 -8.39285 -1.32642 70 52 128 255 
4.42239 -7.8175 -1.31189 66 63 133 255 
4.11696 -7.28679 -1.30163 68 57 131 255 
3.84457 -6.81563 -1.29124 65 66 135 255 
3.63109 -6.44526 -1.29377 54 93 141 255 
3.41099 -6.03947 -1.27302 51 98 141 255 
3.22538 -5.71572 -1.2662 48 105 142 255 
3.05268 -5.41177 -1.26074 49 104 142 255 
2.90238 -5.14968 -1.25971 50 102 142 255 
2.7743 -4.91815 -1.25287 50 100 142 255 
2.65462 -4.70811 -1.2518 53 95 141 255 
2.5538 -4.53105 -1.25734 51 98 141 255 
2.45425 -4.35102 -1.26034 56 89 140 255 
2.36402 -4.19938 -1.25976 57 86 140 255 
2.27433 -4.04023 -1.25794 61 77 138 255 
2.20915 -3.92117 -1.26847 66 65 134 255 
2.10927 -3.73638 -1.25711 66 65 134 255 
13.1678 -23.5078 8.09401 70 10 93 255 
11.7527 -20.9392 6.94433 70 11 94 255 
13.6295 -24.2628 7.75425 70 8 92 255 
9.93138 -17.6803 5.44504 72 20 103 255 
9.69381 -17.2846 5.14358 70 48 126 255 
9.61812 -17.1432 4.89375 70 51 127 255 
9.6497 -17.2062 4.71064 70 48 126 255 
9.69635 -17.2972 4.54158 72 22 104 255 
12.4171 -22.1314 5.59804 71 14 97 255 
10.1548 -18.1073 4.36355 72 29 111 255 
12.206 -21.7909 5.00441 71 13 96 255 
10.2378 -18.293 3.9989 71 16 99 255 
9.33651 -16.6407 3.48137 72 23 105 255 
9.40711 -16.7808 3.31947 72 31 112 255 
9.82283 -17.5507 3.27194 69 53 129 255 
12.0683 -21.6078 3.79606 71 16 99 255 
11.0521 -19.7065 3.28002 72 23 105 255 
13.6713 -24.3975 3.78624 71 19 101 255 
9.98206 -17.8572 2.57353 72 27 109 255 
9.93236 -17.7981 2.3763 72 36 117 255 
9.9396 -17.7229 2.20385 72 38 119 255 
9.6517 -17.2453 1.95515 70 52 128 255 
11.3649 -20.3392 2.08348 72 28 110 255 
9.8283 -17.6333 1.61714 70 8 92 255 
9.85908 -17.5865 1.45581 72 41 121 255 
9.74158 -17.4131 1.25183 67 62 133 255 
9.9585 -17.8443 1.08884 72 35 116 255 
12.1331 -21.7863 1.09314 71 19 101 255 
11.9591 -21.3499 0.880211 72 27 109 255 
13.6459 -24.4121 0.742115 72 28 110 255 
40.6759 -72.9156 1.42824 70 11 94 255 
40.7418 -73.2162 0.658086 70 10 93 255 
40.7465 -72.7722 -0.0145566 70 7 90 255 
41.13 -73.6405 -0.809709 69 4 87 255 
41.0226 -73.5973 -1.58841 70 7 90 255 
40.981 -73.7066 -2.3851 69 4 87 255 
25.8216 -46.1734 -1.92138 69 5 89 255 
19.5275 -34.9913 -1.82664 70 10 93 255 
8.10761 -14.5516 -0.916734 71 19 101 255 
9.79599 -17.6258 -1.30048 70 8 92 255 
8.41 -15.0446 -1.25059 68 57 131 255 
7.89243 -14.154 -1.32666 66 65 134 255 
7.12513 -12.804 -1.33868 72 27 109 255 
6.43466 -11.5778 -1.33612 72 41 121 255 
5.92877 -10.619 -1.32551 69 53 129 255 
5.46618 -9.80691 -1.33084 70 51 127 255 
5.08251 -9.13711 -1.33939 61 78 138 255 
4.69404 -8.45288 -1.33133 69 55 129 255 
4.3753 -7.84622 -1.31218 66 65 134 255 
4.05871 -7.28774 -1.29733 69 53 129 255 
3.80076 -6.83564 -1.29059 65 66 135 255 
3.58813 -6.46139 -1.29256 52 96 141 255 
3.36957 -6.05256 -1.2714 48 105 142 255 
3.19789 -5.74914 -1.26924 49 103 142 255 
3.02465 -5.43982 -1.26293 47 107 142 255 
2.87025 -5.16654 -1.25951 50 101 142 255 
2.74976 -4.94532 -1.25547 48 106 142 255 
2.62899 -4.73027 -1.25338 54 93 141 255 
2.53114 -4.55598 -1.25992 53 94 141 255 
2.42562 -4.3626 -1.25936 56 88 140 255 
2.3368 -4.21126 -1.259 58 84 140 255 
2.24575 -4.04736 -1.25584 59 81 139 255 
2.17617 -3.91867 -1.26332 65 68 135 255 
2.08724 -3.75093 -1.25767 68 58 131 255 
9.75432 -17.6672 6.06231 72 33 115 255 
9.70756 -17.5469 5.79944 71 45 123 255 
9.76136 -17.6293 5.61498 72 38 119 255 
10.9347 -19.7493 6.06146 71 14 97 255 
9.59319 -17.3539 5.14659 70 48 126 255 
9.5212 -17.2172 4.8981 72 35 116 255 
9.54489 -17.2668 4.71111 72 40 120 255 
11.487 -20.7896 5.43994 72 28 110 255 
10.4943 -18.9762 4.78355 72 24 106 255 
10.0653 -18.2086 4.37301 72 32 113 255 
10.3034 -18.6619 4.27123 71 17 100 255 
10.0946 -18.2996 3.98672 72 28 110 255 
10.3664 -18.7449 3.90819 72 27 109 255 
9.83155 -17.793 3.5077 72 40 120 255 
9.71829 -17.6167 3.27307 71 45 123 255 
9.74658 -17.7052 3.09988 72 31 112 255 
9.6737 -17.4996 2.90276 70 52 128 255 
11.1005 -20.0978 3.10833 72 22 104 255 
9.84501 -17.8686 2.56642 70 50 126 255 
9.8761 -17.9553 2.38915 70 52 128 255 
9.72292 -17.5886 2.1797 70 48 126 255 
9.48129 -17.1875 1.94195 70 52 128 255 
9.58741 -17.4082 1.77718 70 48 126 255 
9.7204 -17.6941 1.61722 72 29 111 255 
9.83637 -17.8012 1.46855 71 47 125 255 
9.79985 -17.7723 1.2733 68 57 131 255 
9.74776 -17.7213 1.07766 72 38 119 255 
9.61823 -17.5226 0.876225 72 32 113 255 
12.5973 -22.8165 0.937473 71 19 101 255 
13.3444 -24.2204 0.733786 71 13 96 255 
40.5226 -73.7 1.4387 69 4 87 255 
40.437 -73.7295 0.660458 70 7 90 255 
40.4577 -73.308 -0.0146138 69 5 89 255 
40.4922 -73.5551 -0.806023 70 7 90 255 
40.5134 -73.7442 -1.58619 69 5 89 255 
40.4122 -73.7454 -2.37829 70 7 90 255 
25.532 -46.3205 -1.92094 70 8 92 255 
19.3124 -35.1105 -1.82664 70 7 90 255 
8.0225 -14.6089 -0.917228 71 16 99 255 
7.99482 -14.5952 -1.07324 72 24 106 255 
8.26025 -14.992 -1.24198 67 62 133 255 
7.79535 -14.1839 -1.32495 67 62 133 255 
7.05793 -12.8684 -1.34087 72 28 110 255 
6.38357 -11.6537 -1.34033 72 38 119 255 
5.87788 -10.6813 -1.32876 71 45 123 255 
5.4059 -9.84026 -1.33084 71 46 124 255 
5.02969 -9.17421 -1.34028 60 80 139 255 
4.65017 -8.49629 -1.33365 71 47 125 255 
4.33422 -7.88593 -1.31435 65 68 135 255 
4.03627 -7.35322 -1.30455 65 66 135 255 
3.75779 -6.8571 -1.29026 64 69 136 255 
3.56119 -6.50662 -1.29722 55 91 141 255 
3.33473 -6.07743 -1.2723 53 95 141 255 
3.16585 -5.77468 -1.27056 48 105 142 255 
2.99028 -5.45656 -1.26253 47 107 142 255 
2.84366 -5.19349 -1.2618 49 104 142 255 
2.72078 -4.96467 -1.25612 46 109 142 255 
2.60647 -4.75827 -1.25654 51 99 141 255 
2.50594 -4.57654 -1.26133 52 97 141 255 
2.39694 -4.374 -1.25838 55 90 140 255 
2.31278 -4.22892 -1.26002 53 94 141 255 
2.22921 -4.0763 -1.26056 56 88 140 255 
2.14747 -3.9235 -1.2606 65 66 135 255 
2.07664 -3.78638 -1.26526 68 58 131 255 
9.65855 -17.7503 6.07036 72 32 113 255 
9.57304 -17.5573 5.78333 71 42 122 255 
9.65716 -17.6965 5.6174 70 50 126 255 
9.95839 -18.2493 5.58222 72 31 112 255 
9.3439 -17.1507 5.06921 71 46 124 255 
9.39309 -17.2344 4.8865 70 52 128 255 
9.42201 -17.2943 4.70274 72 40 120 255 
11.376 -20.8905 5.44797 72 23 105 255 
11.7184 -21.5002 5.40158 72 20 103 255 
9.20199 -16.8908 4.04287 72 20 103 255 
9.23265 -16.9678 3.87045 71 19 101 255 
9.20842 -16.9381 3.67773 72 28 110 255 
10.2568 -18.8185 3.91035 72 28 110 255 
9.67694 -17.7699 3.49138 71 47 125 255 
9.6119 -17.6795 3.27371 70 52 128 255 
9.6618 -17.809 3.10762 71 47 125 255 
9.5955 -17.6125 2.91167 71 45 123 255 
9.82186 -18.0436 2.78125 72 24 106 255 
9.72808 -17.9155 2.56455 72 37 118 255 
9.51487 -17.5527 2.32778 71 42 122 255 
9.24859 -16.9757 2.09667 71 44 122 255 
9.30816 -17.1212 1.92797 66 65 134 255 
9.55453 -17.6033 1.79107 72 36 117 255 
9.85274 -18.1987 1.65779 70 11 94 255 
9.73793 -17.8813 1.47021 72 40 120 255 
9.57052 -17.6111 1.25752 69 56 130 255 
9.50654 -17.5367 1.06287 68 57 131 255 
10.9594 -20.2596 1.00971 72 28 110 255 
12.4437 -22.8688 0.936466 71 19 101 255 
12.5449 -23.1036 0.697604 72 22 104 255 
0 -0 0 68 2 86 255 
0 -0 0 68 2 86 255 
0 -0 -0 68 2 86 255 
0 -0 -0 68 2 86 255 
0 -0 -0 68 2 86 255 
0 -0 -0 68 2 86 255 
25.3256 -46.6203 -1.92689 70 7 90 255 
19.3585 -35.7113 -1.85168 70 7 90 255 
7.93841 -14.6684 -0.917888 72 20 103 255 
8.00609 -14.831 -1.08694 72 36 117 255 
8.07339 -14.868 -1.22758 70 51 127 255 
7.68681 -14.192 -1.32128 68 58 131 255 
7.02477 -12.9965 -1.34969 72 27 109 255 
6.32612 -11.719 -1.34334 71 42 122 255 
5.82598 -10.7425 -1.3319 70 52 128 255 
5.33975 -9.86277 -1.32942 71 44 122 255 
4.97896 -9.21537 -1.3418 62 74 137 255 
4.5909 -8.51159 -1.33161 69 53 129 255 
4.28198 -7.90541 -1.31319 67 61 132 255 
4.0047 -7.40305 -1.30901 67 62 133 255 
3.72221 -6.89218 -1.29254 65 66 135 255 
3.51371 -6.51448 -1.29446 56 89 140 255 
3.31001 -6.12113 -1.27717 51 99 141 255 
3.13129 -5.79572 -1.27094 47 107 142 255 
2.95767 -5.47653 -1.26293 46 111 142 255 
2.82196 -5.22978 -1.26638 48 106 142 255 
2.69769 -4.99501 -1.25959 47 107 142 255 
