ply
format ascii 1.0
comment VTK generated PLY File
obj_info vtkPolyData points and polygons: vtk4.0
element vertex 1177
property float x
property float y
property float z
property uchar red
property uchar green
property uchar blue
property uchar alpha
element face 0
property list uchar int vertex_indices
end_header
-34.2268 -22.2973 -1.48359 70 8 92 255 
-23.5706 -15.3254 -1.2816 69 4 87 255 
-34.2194 -22.2156 -2.24526 70 10 93 255 
-23.8535 -15.4501 -1.83286 69 4 87 255 
-23.1612 -15.0828 -2.00546 70 7 90 255 
-18.8732 -12.2619 -1.84248 71 13 96 255 
-16.1721 -10.4871 -1.76092 70 11 94 255 
-14.2599 -9.23623 -1.71378 71 14 97 255 
-12.6241 -8.21154 -1.64134 71 17 100 255 
-11.3522 -7.37269 -1.60451 70 48 126 255 
-10.27 -6.65725 -1.56785 71 47 125 255 
-9.38118 -6.0716 -1.53867 71 42 122 255 
-8.61111 -5.59481 -1.49992 70 50 126 255 
-7.9987 -5.19077 -1.48297 71 46 124 255 
-7.46959 -4.84009 -1.4687 68 57 131 255 
-6.97128 -4.51189 -1.45226 68 57 131 255 
-6.55498 -4.25241 -1.43404 66 63 133 255 
-6.17952 -4.00561 -1.42079 67 61 132 255 
-5.83453 -3.78062 -1.41068 67 61 132 255 
-5.51454 -3.57044 -1.39998 66 65 134 255 
-5.23199 -3.39026 -1.38327 67 62 133 255 
-5.0099 -3.24498 -1.38244 62 74 137 255 
-4.7853 -3.09837 -1.37811 62 74 137 255 
-4.55281 -2.95001 -1.36871 68 58 131 255 
-4.38528 -2.83618 -1.36523 68 57 131 255 
-4.18329 -2.70542 -1.35168 71 46 124 255 
-4.01993 -2.60182 -1.34958 70 48 126 255 
-3.84639 -2.49419 -1.34315 70 52 128 255 
-39.0849 -25.1604 13.9633 69 5 89 255 
-38.7889 -25.0169 13.3486 70 8 92 255 
-38.7469 -25.0095 12.8501 70 10 93 255 
-38.7947 -25.0392 12.3981 70 7 90 255 
-38.8405 -25.0318 11.9932 70 7 90 255 
-38.9047 -25.082 11.524 70 7 90 255 
-37.5423 -24.1948 10.665 71 13 96 255 
-37.4758 -24.1418 10.2099 71 16 99 255 
-38.8822 -25.0682 10.2054 71 13 96 255 
-17.1905 -11.0786 4.29855 62 73 137 255 
-17.0383 -10.968 4.06003 71 16 99 255 
-39.0123 -25.0931 8.84852 70 11 94 255 
-37.7053 -24.3095 8.18524 71 16 99 255 
-39.1734 -25.2359 8.04056 70 7 90 255 
-17.0391 -10.9601 3.29587 70 52 128 255 
-17.0342 -10.9356 3.10474 71 42 122 255 
-17.0452 -10.9852 2.94385 70 52 128 255 
-17.0413 -10.974 2.74409 68 58 131 255 
-17.0537 -10.9569 2.54994 69 56 130 255 
-17.0652 -10.9471 2.36379 70 50 126 255 
-17.029 -10.9748 2.19727 69 55 129 255 
-17.037 -10.9586 2.00408 69 56 130 255 
-18.3428 -11.7806 1.94943 72 38 119 255 
-21.063 -13.4961 2.00394 72 28 110 255 
-23.7136 -15.277 2.03686 70 8 92 255 
-23.7263 -15.2554 1.76973 72 29 111 255 
-26.4086 -16.9414 1.67178 72 24 106 255 
-29.1188 -18.6435 1.51566 71 13 96 255 
-34.343 -22.1079 1.46911 70 7 90 255 
-31.9607 -20.5342 1.00804 71 16 99 255 
-31.9942 -20.5167 0.650151 71 19 101 255 
-31.9472 -20.4388 0.297875 72 23 105 255 
-34.433 -22.1573 -0.00714643 70 10 93 255 
-34.4339 -22.1062 -0.392807 70 11 94 255 
-34.4257 -22.059 -0.770788 70 7 90 255 
-38.7746 -24.7876 -1.30155 70 7 90 255 
-34.3832 -22.0998 -1.48446 70 10 93 255 
-23.7542 -15.2382 -1.28648 69 4 87 255 
-23.6609 -15.1554 -1.54635 69 5 89 255 
-23.8604 -15.2475 -1.82616 69 5 89 255 
-23.2676 -14.9496 -2.00669 70 7 90 255 
-18.9624 -12.155 -1.84387 71 14 97 255 
-16.2395 -10.3898 -1.76129 71 13 96 255 
-14.2434 -9.10194 -1.70505 70 11 94 255 
-12.6969 -8.14843 -1.64426 72 20 103 255 
-11.4048 -7.30771 -1.60557 70 52 128 255 
-10.3023 -6.58877 -1.56658 71 42 122 255 
-9.38653 -5.99367 -1.53349 72 38 119 255 
-8.67443 -5.56056 -1.50498 69 56 130 255 
-8.04205 -5.14905 -1.48512 69 55 129 255 
-7.48585 -4.78567 -1.4661 68 57 131 255 
-6.99136 -4.46426 -1.45071 67 62 133 255 
-6.5942 -4.22059 -1.43693 65 68 135 255 
-6.20563 -3.96868 -1.42117 66 63 133 255 
-5.86588 -3.75003 -1.41266 66 63 133 255 
-5.53634 -3.53653 -1.39998 65 66 135 255 
-5.25269 -3.35809 -1.38327 66 63 133 255 
-5.00509 -3.19844 -1.37567 64 70 136 255 
-4.79603 -3.06372 -1.37576 65 66 135 255 
-4.58962 -2.93403 -1.37433 66 64 134 255 
-4.40341 -2.80974 -1.36548 68 59 132 255 
-4.19574 -2.67711 -1.35037 69 56 130 255 
-4.02933 -2.57296 -1.34741 70 50 126 255 
-3.8689 -2.47519 -1.34568 70 48 126 255 
-39.3073 -24.9637 13.9877 70 7 90 255 
-39.2456 -24.9719 13.4528 70 11 94 255 
-39.0792 -24.8856 12.9094 71 13 96 255 
-39.0958 -24.8951 12.4453 70 11 94 255 
-39.1355 -24.8834 12.0369 71 16 99 255 
-39.1381 -24.8938 11.5477 71 16 99 255 
-37.9937 -24.1571 10.751 71 13 96 255 
-37.9244 -24.1028 10.2916 70 11 94 255 
-39.0732 -24.8533 10.2153 71 17 100 255 
-17.2128 -10.944 4.28723 61 78 138 255 
-39.0939 -24.8279 9.27918 71 16 99 255 
-39.0187 -24.7601 8.81535 71 17 100 255 
-37.8761 -24.0919 8.19009 71 13 96 255 
-39.0389 -24.8117 7.98156 71 19 101 255 
-17.0868 -10.8432 3.29217 70 48 126 255 
-17.0776 -10.8161 3.10049 71 47 125 255 
-17.0789 -10.8592 2.9381 70 50 126 255 
-17.0749 -10.848 2.73872 68 57 131 255 
-17.0904 -10.833 2.54545 68 57 131 255 
-17.0666 -10.8008 2.35476 70 51 127 255 
-17.0701 -10.8536 2.19393 70 50 126 255 
-17.0947 -10.848 2.00299 66 63 133 255 
-18.4484 -11.6892 1.953 72 38 119 255 
-21.153 -13.3714 2.00466 72 32 113 255 
-21.2134 -13.4829 1.81497 71 13 96 255 
-23.8228 -15.1117 1.76998 72 29 111 255 
-26.534 -16.7929 1.67316 72 23 105 255 
-29.247 -18.4736 1.5164 71 17 100 255 
-34.7083 -22.043 1.47893 70 7 90 255 
-32.0844 -20.3366 1.00798 71 14 97 255 
-29.4731 -18.6458 0.596583 72 20 103 255 
-32.138 -20.284 0.298488 71 13 96 255 
-35.6396 -22.6257 -0.00736791 71 17 100 255 
-38.8011 -24.5751 -0.440899 71 19 101 255 
-38.8519 -24.5602 -0.8665 71 19 101 255 
-38.8008 -24.4703 -1.29736 71 14 97 255 
-38.8949 -24.6638 -1.67269 71 14 97 255 
-24.0194 -15.2012 -1.29577 69 5 89 255 
-24.0067 -15.1699 -1.56284 69 5 89 255 
-0 -0 -0 68 2 86 255 
-23.3606 -14.8076 -2.00683 70 8 92 255 
-19.0577 -12.0517 -1.84591 71 16 99 255 
-16.345 -10.3165 -1.76583 71 14 97 255 
-14.3183 -9.02658 -1.70735 71 17 100 255 
-12.7416 -8.06718 -1.64361 72 22 104 255 
-11.457 -7.24237 -1.60663 70 50 126 255 
-10.3476 -6.52861 -1.56734 70 50 126 255 
-9.40217 -5.92276 -1.53008 72 41 121 255 
-8.70839 -5.50723 -1.50498 69 55 129 255 
-8.08602 -5.10753 -1.48743 70 51 127 255 
-7.51174 -4.73754 -1.46545 68 57 131 255 
-7.02362 -4.42443 -1.45174 67 61 132 255 
-6.60001 -4.16744 -1.4326 66 63 133 255 
-6.23651 -3.93472 -1.42268 67 62 133 255 
-5.88131 -3.70926 -1.41087 66 65 134 255 
-5.55297 -3.49937 -1.39873 66 63 133 255 
-5.27567 -3.32736 -1.38392 63 71 136 255 
-5.02709 -3.16923 -1.37635 62 73 137 255 
-4.80323 -3.02698 -1.37247 65 66 135 255 
-4.62558 -2.91719 -1.37972 66 65 134 255 
-4.40337 -2.77184 -1.36017 68 57 131 255 
-4.23006 -2.66263 -1.35613 69 56 130 255 
-4.04748 -2.54972 -1.34822 69 55 129 255 
-3.87752 -2.44731 -1.34343 71 46 124 255 
-39.7153 -24.8822 14.0783 70 8 92 255 
-39.1393 -24.5682 13.3644 71 16 99 255 
-39.0876 -24.5552 12.8622 71 14 97 255 
-39.1571 -24.5978 12.4165 71 19 101 255 
-39.0906 -24.5193 11.9766 71 16 99 255 
-39.1668 -24.5759 11.5114 71 17 100 255 
-38.3909 -24.0801 10.8213 71 13 96 255 
-38.4324 -24.0959 10.3892 70 11 94 255 
-39.0785 -24.5212 10.1772 70 11 94 255 
-17.2456 -10.8169 4.2788 59 81 139 255 
-39.0635 -24.4736 9.23615 72 22 104 255 
-38.7761 -24.2737 8.72672 71 14 97 255 
-38.954 -24.4431 8.39057 71 13 96 255 
-38.9834 -24.4418 7.93939 71 16 99 255 
-17.1279 -10.7224 3.28736 70 50 126 255 
-17.1277 -10.7011 3.09761 72 40 120 255 
-17.1092 -10.7316 2.93192 67 61 132 255 
-17.1218 -10.7309 2.73564 68 57 131 255 
-17.107 -10.6968 2.53809 69 56 130 255 
-17.1216 -10.689 2.35325 70 50 126 255 
-17.1186 -10.7375 2.19167 69 55 129 255 
-17.1095 -10.7107 1.99699 68 57 131 255 
-18.524 -11.5784 1.95344 72 32 113 255 
-21.2693 -13.263 2.00793 72 29 111 255 
-21.3177 -13.3662 1.81684 71 13 96 255 
-23.9447 -14.9838 1.77217 72 28 110 255 
-26.6458 -16.6356 1.67375 72 24 106 255 
-29.3717 -18.3012 1.51702 71 19 101 255 
-29.5957 -18.5421 1.25621 72 36 117 255 
-29.5827 -18.4975 0.925807 72 36 117 255 
-29.5946 -18.4694 0.596737 71 17 100 255 
-32.2814 -20.0986 0.298668 70 10 93 255 
-36.0202 -22.5584 -0.00741782 72 22 104 255 
-38.7884 -24.2348 -0.439056 72 22 104 255 
-38.7974 -24.1939 -0.861958 72 20 103 255 
-38.8263 -24.1547 -1.29324 71 16 99 255 
-38.799 -24.2705 -1.66212 71 16 99 255 
-24.0605 -15.0212 -1.29299 69 5 89 255 
-24.0315 -14.9801 -1.55844 70 10 93 255 
-29.0108 -18.0413 -2.20324 69 4 87 255 
-23.4392 -14.6566 -2.00582 70 8 92 255 
-19.1862 -11.9688 -1.85121 71 14 97 255 
-16.4469 -10.2403 -1.77002 71 17 100 255 
-14.3608 -8.93067 -1.70585 71 14 97 255 
-12.7301 -7.95093 -1.63581 72 23 105 255 
-11.4936 -7.16721 -1.60557 71 47 125 255 
-10.3875 -6.46499 -1.56734 70 48 126 255 
-9.44339 -5.8681 -1.5309 71 45 123 255 
-8.72942 -5.44584 -1.50281 69 53 129 255 
-8.12308 -5.06147 -1.4885 70 51 127 255 
-7.55658 -4.70126 -1.46854 68 59 132 255 
-7.06235 -4.38853 -1.45416 70 50 126 255 
-6.62295 -4.12531 -1.43206 66 63 133 255 
-6.2497 -3.88963 -1.42022 69 56 130 255 
-5.90396 -3.6731 -1.41087 63 72 137 255 
-5.57434 -3.46523 -1.39873 68 57 131 255 
-5.29599 -3.29493 -1.38392 66 64 134 255 
-5.04893 -3.13986 -1.37703 64 70 136 255 
-4.80437 -2.98667 -1.36754 66 64 134 255 
-4.62198 -2.87544 -1.37336 68 57 131 255 
-4.41783 -2.74324 -1.35941 69 55 129 255 
-4.2209 -2.62084 -1.34802 70 52 128 255 
-4.08594 -2.53907 -1.35582 69 53 129 255 
-3.92016 -2.44072 -1.35299 70 48 126 255 
-0 -0 0 68 2 86 255 
-39.1685 -24.2527 13.3233 70 11 94 255 
-39.0934 -24.2256 12.815 71 16 99 255 
-39.1915 -24.2853 12.3799 71 19 101 255 
-39.1556 -24.2266 11.9508 71 19 101 255 
-39.0619 -24.1773 11.4368 71 19 101 255 
-38.9093 -24.0739 10.9256 70 11 94 255 
-38.8266 -24.0124 10.4557 70 11 94 255 
-38.8662 -24.0569 10.0832 70 11 94 255 
-17.3008 -10.7041 4.27613 59 82 139 255 
-39.0328 -24.1221 9.19372 71 17 100 255 
-38.8883 -24.0131 8.71867 71 17 100 255 
-38.9795 -24.127 8.36401 71 16 99 255 
-38.9826 -24.1094 7.90895 71 16 99 255 
-17.1707 -10.6031 3.28302 70 50 126 255 
-17.1745 -10.5844 3.09428 71 46 124 255 
-17.1427 -10.6066 2.92646 68 57 131 255 
-17.184 -10.6236 2.7351 69 56 130 255 
-17.1579 -10.5828 2.53597 69 55 129 255 
-17.1573 -10.5655 2.3492 70 50 126 255 
-17.1673 -10.6218 2.18951 69 56 130 255 
-17.1571 -10.5945 1.99492 70 51 127 255 
-18.5947 -11.4645 1.95344 72 37 118 255 
-21.3571 -13.1364 2.00857 72 27 109 255 
-21.4137 -13.2441 1.81807 71 13 96 255 
-24.0566 -14.8492 1.77367 72 26 108 255 
-26.7865 -16.4958 1.67619 72 20 103 255 
-27.0577 -16.6297 1.3922 71 47 125 255 
-26.9953 -16.6832 1.14147 72 20 103 255 
-26.9917 -16.6479 0.841507 72 24 106 255 
-27.0193 -16.6327 0.542742 72 24 106 255 
-32.4194 -19.9095 0.298809 71 14 97 255 
-36.4242 -22.5015 -0.00747245 71 19 101 255 
-38.7644 -23.8904 -0.437117 71 19 101 255 
-38.7791 -23.8532 -0.858283 71 19 101 255 
-38.7932 -23.8052 -1.28724 71 17 100 255 
-38.7218 -23.8929 -1.65251 71 13 96 255 
-38.6935 -23.828 -2.07145 70 7 90 255 
-38.0545 -23.3983 -2.45847 69 4 87 255 
-24.1481 -14.8125 -1.827 69 5 89 255 
-23.5431 -14.5214 -2.00705 70 7 90 255 
-19.2771 -11.8619 -1.85292 71 13 96 255 
-16.478 -10.1199 -1.76665 71 17 100 255 
-14.3797 -8.82054 -1.70163 71 16 99 255 
-12.8159 -7.89561 -1.64058 72 22 104 255 
-11.5458 -7.10175 -1.60675 72 41 121 255 
-10.4574 -6.41982 -1.57192 70 48 126 255 
-9.48682 -5.8147 -1.53213 71 47 125 255 
-8.74161 -5.37921 -1.4992 68 59 132 255 
-8.15483 -5.01205 -1.48866 68 57 131 255 
-7.56931 -4.645 -1.46545 69 56 130 255 
-7.09082 -4.34614 -1.4545 70 50 126 255 
-6.65987 -4.0918 -1.43459 68 59 132 255 
-6.27177 -3.85019 -1.41984 69 56 130 255 
-5.92221 -3.63424 -1.40988 64 70 136 255 
-5.62385 -3.44834 -1.40582 66 63 133 255 
-5.3236 -3.26697 -1.38587 66 64 134 255 
-5.07391 -3.11239 -1.37861 61 78 138 255 
-4.82758 -2.96019 -1.36895 67 62 133 255 
-4.63128 -2.84195 -1.37091 69 56 130 255 
-4.42221 -2.7085 -1.35562 69 53 129 255 
-4.24513 -2.59993 -1.35063 69 55 129 255 
-4.09406 -2.50942 -1.35338 69 53 129 255 
-3.9089 -2.40055 -1.34399 70 51 127 255 
-0 -0 0 68 2 86 255 
-39.0739 -23.8637 13.2411 71 13 96 255 
-39.0613 -23.8752 12.7562 71 14 97 255 
-39.1395 -23.922 12.3169 71 14 97 255 
-39.044 -23.8275 11.8719 71 19 101 255 
-39.0803 -23.8583 11.3991 71 17 100 255 
-39.053 -23.8327 10.9247 71 17 100 255 
-38.9666 -23.7697 10.4539 71 14 97 255 
-39.0014 -23.8108 10.0802 71 14 97 255 
-17.347 -10.5861 4.2714 61 77 138 255 
-38.9716 -23.7551 9.1448 71 17 100 255 
-38.9896 -23.7465 8.70855 71 14 97 255 
-38.9605 -23.7859 8.32847 71 14 97 255 
-38.8959 -23.7271 7.86168 71 19 101 255 
-17.2076 -10.4806 3.27772 71 45 123 255 
-17.2248 -10.4701 3.0917 70 50 126 255 
-17.1948 -10.4935 2.92431 69 53 129 255 
-17.1905 -10.4823 2.72585 69 53 129 255 
-17.1954 -10.4608 2.53197 69 53 129 255 
-17.1989 -10.4461 2.34607 71 47 125 255 
-17.2203 -10.5091 2.188 69 55 129 255 
-17.2158 -10.4854 1.99423 69 56 130 255 
-18.6595 -11.3471 1.95291 72 36 117 255 
-21.4432 -13.0087 2.00913 72 27 109 255 
-21.4801 -13.1036 1.81684 71 13 96 255 
-24.143 -14.6987 1.77336 72 26 108 255 
-26.8778 -16.3255 1.67561 71 19 101 255 
-27.1874 -16.4805 1.39365 69 53 129 255 
-27.1066 -16.523 1.14186 66 63 133 255 
-27.0993 -16.4856 0.841693 70 51 127 255 
-27.1285 -16.4713 0.542896 72 37 118 255 
-32.5512 -19.7165 0.298904 70 11 94 255 
-36.8801 -22.4717 -0.00753755 71 19 101 255 
-38.7411 -23.5492 -0.435216 72 24 106 255 
-38.7896 -23.5329 -0.855304 71 14 97 255 
-38.7786 -23.4699 -1.28196 71 17 100 255 
-38.7439 -23.5795 -1.64724 71 19 101 255 
-38.7322 -23.5253 -2.06576 71 17 100 255 
-38.1094 -23.1111 -2.45281 70 7 90 255 
-29.107 -17.6095 -2.19397 69 5 89 255 
-23.5389 -14.3201 -1.99916 70 7 90 255 
-19.3564 -11.7475 -1.85358 71 13 96 255 
-16.5296 -10.0124 -1.76556 71 16 99 255 
-14.4829 -8.76201 -1.70745 72 22 104 255 
-12.8505 -7.80856 -1.63885 71 16 99 255 
-11.5909 -7.03181 -1.60699 71 47 125 255 
-10.4838 -6.34782 -1.57001 70 51 127 255 
-9.52825 -5.75997 -1.53308 70 50 126 255 
-8.77022 -5.3229 -1.49848 69 53 129 255 
-8.1905 -4.965 -1.48958 68 59 132 255 
-7.60357 -4.60205 -1.46659 67 61 132 255 
-7.1241 -4.30662 -1.45588 69 53 129 255 
-6.68065 -4.04831 -1.43368 68 59 132 255 
-6.26504 -3.79332 -1.41302 69 56 130 255 
-5.94105 -3.59581 -1.40909 67 61 132 255 
-5.64741 -3.41529 -1.40644 68 59 132 255 
-5.34187 -3.23323 -1.38544 66 65 134 255 
-5.09125 -3.08019 -1.37816 60 79 138 255 
-4.84565 -2.93051 -1.36895 67 61 132 255 
-4.63867 -2.80746 -1.36797 69 55 129 255 
-4.42466 -2.67281 -1.35132 70 51 127 255 
-4.27091 -2.57982 -1.35378 68 57 131 255 
-4.12667 -2.49471 -1.35908 68 58 131 255 
-3.91534 -2.37155 -1.34118 69 56 130 255 
-0 -0 0 68 2 86 255 
-38.9752 -23.4763 13.1586 71 13 96 255 
-39.0107 -23.5167 12.6923 70 10 93 255 
-39.025 -23.5243 12.2352 71 19 101 255 
-39.0452 -23.5006 11.8282 71 17 100 255 
-39.0422 -23.5074 11.3457 71 16 99 255 
-38.9735 -23.4572 10.862 71 16 99 255 
-38.9839 -23.4532 10.4198 71 14 97 255 
-38.9251 -23.4376 10.0231 71 13 96 255 
-17.3739 -10.4567 4.26214 66 64 134 255 
-17.1784 -10.327 4.01603 72 31 112 255 
-17.2091 -10.3369 3.82951 72 28 110 255 
-17.1927 -10.3521 3.66158 72 35 116 255 
-17.1464 -10.3157 3.45278 72 29 111 255 
-17.253 -10.3637 3.27419 67 61 132 255 
-17.2734 -10.3551 3.08897 70 48 126 255 
-17.2563 -10.3863 2.92388 69 56 130 255 
-17.2332 -10.3639 2.72249 69 55 129 255 
-17.2567 -10.3536 2.5316 68 58 131 255 
-17.2635 -10.3409 2.34619 70 52 128 255 
-17.2478 -10.3812 2.18337 70 52 128 255 
-17.2483 -10.3606 1.99059 70 50 126 255 
-18.7451 -11.2421 1.9546 72 36 117 255 
-21.5406 -12.8877 2.01081 72 29 111 255 
-21.5302 -12.9536 1.81432 71 17 100 255 
-24.2575 -14.5652 1.77517 72 29 111 255 
-24.4778 -14.6629 1.52035 71 13 96 255 
-24.4531 -14.6186 1.24887 71 14 97 255 
-27.1749 -16.3368 1.1405 72 33 115 255 
-27.2188 -16.3303 0.842277 72 28 110 255 
-27.2282 -16.304 0.542879 72 24 106 255 
-32.7128 -19.541 0.299281 70 10 93 255 
-37.2719 -22.3979 -0.00758939 72 26 108 255 
-38.6876 -23.1928 -0.433009 72 22 104 255 
-0 -0 -0 68 1 84 255 
-38.6584 -23.0743 -1.27328 72 20 103 255 
-38.576 -23.1542 -1.63403 71 14 97 255 
-38.6933 -23.1779 -2.05606 71 19 101 255 
-38.2342 -22.8671 -2.45177 70 7 90 255 
-23.3176 -13.9122 -1.75112 71 13 96 255 
-23.3671 -14.0199 -1.97723 71 13 96 255 
-19.3494 -11.5814 -1.84607 71 16 99 255 
-16.5959 -9.91384 -1.76611 71 19 101 255 
-14.5441 -8.67757 -1.70836 71 17 100 255 
-12.8701 -7.7127 -1.63527 72 22 104 255 
-11.6543 -6.97279 -1.60981 70 48 126 255 
-10.5209 -6.28236 -1.56976 69 56 130 255 
-9.54469 -5.69024 -1.53008 71 44 122 255 
-8.80186 -5.26848 -1.49833 68 58 131 255 
-8.20893 -4.90755 -1.48743 67 62 133 255 
-7.652 -4.56744 -1.47049 68 57 131 255 
-7.14362 -4.2588 -1.4545 68 57 131 255 
-6.67244 -3.98757 -1.42664 68 58 131 255 
-6.30843 -3.76689 -1.41757 66 64 134 255 
-5.95879 -3.55677 -1.40809 67 61 132 255 
-5.6607 -3.37606 -1.40457 68 59 132 255 
-5.3591 -3.19889 -1.38479 66 65 134 255 
-5.12511 -3.05788 -1.38222 56 88 140 255 
-4.86688 -2.90271 -1.36989 66 63 133 255 
-4.64665 -2.77348 -1.36528 68 57 131 255 
-4.4335 -2.64116 -1.34904 70 48 126 255 
-4.28666 -2.55357 -1.35378 68 57 131 255 
-4.13116 -2.46293 -1.35555 70 51 127 255 
-3.92158 -2.34256 -1.33837 69 55 129 255 
-0 -0 0 68 2 86 255 
-39.0367 -23.1881 13.1311 71 14 97 255 
-38.9059 -23.1292 12.6118 71 13 96 255 
-38.9951 -23.1813 12.181 71 17 100 255 
-38.9315 -23.108 11.7505 71 16 99 255 
-38.9913 -23.152 11.2894 71 14 97 255 
-38.9318 -23.1079 10.8106 71 17 100 255 
-38.9166 -23.0887 10.3637 71 14 97 255 
-38.8826 -23.0881 9.97554 72 20 103 255 
-38.9064 -23.0924 9.50954 72 22 104 255 
-38.9338 -23.0815 9.06877 71 16 99 255 
-17.2756 -10.2331 3.83026 71 17 100 255 
-38.8951 -23.0955 8.25327 71 16 99 255 
-38.9333 -23.0992 7.81135 71 17 100 255 
-17.3112 -10.2546 3.27323 64 69 136 255 
-17.3205 -10.2393 3.08609 70 48 126 255 
-17.2789 -10.256 2.91698 69 53 129 255 
-17.2837 -10.2504 2.72048 67 62 133 255 
-17.3105 -10.242 2.53022 69 55 129 255 
-17.3283 -10.2358 2.34642 70 51 127 255 
-17.2881 -10.2614 2.18045 69 55 129 255 
-17.285 -10.2389 1.98754 70 52 128 255 
-18.8668 -11.1583 1.96012 72 36 117 255 
-21.627 -12.7598 2.01153 72 29 111 255 
-21.6736 -12.8594 1.81972 71 16 99 255 
-24.3421 -14.4135 1.77486 72 29 111 255 
-24.5845 -14.5226 1.52141 72 22 104 255 
-24.6104 -14.5084 1.25233 71 42 122 255 
-24.4903 -14.519 1.02407 72 20 103 255 
-24.5714 -14.5377 0.75758 70 50 126 255 
-27.345 -16.1468 0.543221 72 31 112 255 
-38.7392 -22.8195 0.353127 71 13 96 255 
-37.3389 -22.1275 -0.00757525 72 28 110 255 
-38.5778 -22.8064 -0.430206 72 20 103 255 
-38.5976 -22.7731 -0.844844 70 10 93 255 
-38.6381 -22.7418 -1.26799 71 19 101 255 
-38.6305 -22.8656 -1.63037 70 11 94 255 
-38.5613 -22.7785 -2.04158 71 13 96 255 
-23.3693 -13.7827 -1.49311 71 16 99 255 
-29.4035 -17.2996 -2.20015 69 4 87 255 
-23.766 -14.0617 -2.00365 70 10 93 255 
-19.4167 -11.4604 -1.84574 71 13 96 255 
-16.6958 -9.83507 -1.77029 71 14 97 255 
-14.4941 -8.52762 -1.69631 71 19 101 255 
-12.9043 -7.626 -1.63365 72 32 113 255 
-11.6549 -6.87642 -1.60404 70 50 126 255 
-10.5362 -6.2041 -1.56633 70 51 127 255 
-9.56406 -5.62253 -1.52762 72 40 120 255 
-8.81783 -5.20482 -1.49559 68 57 131 255 
-8.22101 -4.84655 -1.4842 68 57 131 255 
-7.66118 -4.50939 -1.46691 69 56 130 255 
-7.16792 -4.21388 -1.45416 69 53 129 255 
-6.72728 -3.96453 -1.43314 68 59 132 255 
-6.33143 -3.72811 -1.41757 67 61 132 255 
-5.98219 -3.52114 -1.40849 66 64 134 255 
-5.65855 -3.32788 -1.39894 66 65 134 255 
-5.38115 -3.16743 -1.38544 66 64 134 255 
-5.14881 -3.02934 -1.38357 58 84 140 255 
-4.8846 -2.8728 -1.36989 65 66 135 255 
-4.68364 -2.75672 -1.37115 68 59 132 255 
-4.47799 -2.63057 -1.35764 69 53 129 255 
-4.29809 -2.52477 -1.35247 69 53 129 255 
-4.14204 -2.4351 -1.35419 71 47 125 255 
-3.93175 -2.31601 -1.33696 70 50 126 255 
-39.0519 -22.8291 13.5884 69 5 89 255 
-39.0896 -22.8962 13.1013 71 13 96 255 
-38.9498 -22.8331 12.5804 71 14 97 255 
-38.88 -22.7911 12.1011 71 19 101 255 
-38.9497 -22.7968 11.7136 71 17 100 255 
-38.9183 -22.7868 11.2276 71 19 101 255 
-38.9805 -22.8145 10.7851 71 17 100 255 
-38.9305 -22.7752 10.33 70 11 94 255 
-38.8887 -22.7702 9.94107 71 19 101 255 
-17.4561 -10.2165 4.25124 69 53 129 255 
-38.9121 -22.7472 9.03105 72 22 104 255 
-38.8535 -22.6938 8.58338 72 20 103 255 
-38.8527 -22.7491 8.2145 71 16 99 255 
-38.8855 -22.7494 7.7736 71 17 100 255 
-17.3678 -10.1447 3.2721 65 68 135 255 
-17.3497 -10.1134 3.08018 71 46 124 255 
-17.3355 -10.1462 2.91598 69 55 129 255 
-17.3369 -10.1386 2.719 68 57 131 255 
-17.3465 -10.1201 2.52636 70 52 128 255 
-17.3625 -10.1128 2.3426 70 50 126 255 
-17.3233 -10.1391 2.177 69 56 130 255 
-17.3346 -10.1251 1.98606 69 53 129 255 
-18.9556 -11.0544 1.96226 72 36 117 255 
-21.7178 -12.6344 2.01272 72 29 111 255 
-21.7177 -12.706 1.81684 71 16 99 255 
-24.4267 -14.2619 1.77461 72 26 108 255 
-24.6714 -14.3704 1.52131 72 23 105 255 
-24.6911 -14.3526 1.25193 72 36 117 255 
-24.6721 -14.4229 1.02795 71 42 122 255 
-24.6584 -14.3856 0.757526 71 14 97 255 
-27.4591 -15.9877 0.543529 70 51 127 255 
-38.6329 -22.4387 0.350897 71 17 100 255 
-38.4427 -22.4641 -0.00777108 71 13 96 255 
-38.622 -22.5139 -0.42915 72 20 103 255 
-38.6484 -22.4846 -0.842921 72 20 103 255 
-38.6014 -22.4024 -1.26225 71 16 99 255 
-38.5758 -22.5148 -1.6222 71 19 101 255 
-38.5726 -22.467 -2.03484 70 11 94 255 
-38.4187 -22.3419 -2.44583 70 7 90 255 
-29.4685 -17.0953 -2.19712 69 5 89 255 
-23.8536 -13.9166 -2.00379 70 8 92 255 
-19.5805 -11.3957 -1.85464 71 16 99 255 
-16.7671 -9.73895 -1.77148 71 19 101 255 
-14.5832 -8.46 -1.70063 72 24 106 255 
-13.0084 -7.58021 -1.64091 72 35 116 255 
-11.6617 -6.78431 -1.59922 68 57 131 255 
-10.5637 -6.13335 -1.5648 69 53 129 255 
-9.63437 -5.5846 -1.53335 72 41 121 255 
-8.86414 -5.15908 -1.49804 70 50 126 255 
-8.23693 -4.78807 -1.48174 68 57 131 255 
-7.68444 -4.45982 -1.4661 65 66 135 255 
-7.18171 -4.16291 -1.45174 69 56 130 255 
-6.74893 -3.92169 -1.4326 66 65 134 255 
-6.36777 -3.69708 -1.4206 67 61 132 255 
-5.99606 -3.47994 -1.4067 68 59 132 255 
-5.66617 -3.28574 -1.39581 68 58 131 255 
-5.40977 -3.13975 -1.38782 63 72 137 255 
-5.16562 -2.99671 -1.38312 56 89 140 255 
-4.90214 -2.84277 -1.36989 62 74 137 255 
-4.71724 -2.73766 -1.37605 69 56 130 255 
-4.48818 -2.59965 -1.35587 66 63 133 255 
-4.3135 -2.49835 -1.35247 67 61 132 255 
-4.13692 -2.39805 -1.34768 70 51 127 255 
-3.95169 -2.29522 -1.33893 70 50 126 255 
-38.9257 -22.4361 13.4963 70 11 94 255 
-38.9132 -22.4734 12.9958 71 17 100 255 
-38.9174 -22.4944 12.5251 71 17 100 255 
-38.9547 -22.5149 12.0812 71 14 97 255 
-38.8709 -22.4316 11.6483 71 19 101 255 
-38.8691 -22.4389 11.1735 72 20 103 255 
-38.7306 -22.3503 10.6778 71 13 96 255 
-38.7825 -22.3703 10.2541 71 14 97 255 
-38.8408 -22.4232 9.89346 72 22 104 255 
-17.5015 -10.0994 4.24712 71 44 122 255 
-38.8327 -22.3822 8.98056 71 19 101 255 
-38.7792 -22.3324 8.53653 72 22 104 255 
-38.8194 -22.4109 8.17824 71 17 100 255 
-38.7589 -22.3572 7.72072 72 22 104 255 
-17.422 -10.0335 3.27066 71 47 125 255 
-17.3883 -9.9935 3.07608 71 47 125 255 
-17.376 -10.0273 2.91238 71 47 125 255 
-17.3936 -10.0291 2.7182 68 59 132 255 
-17.3756 -9.99464 2.52161 69 55 129 255 
-17.4113 -9.99866 2.34086 70 50 126 255 
-17.3645 -10.0207 2.17442 69 55 129 255 
-17.3688 -10.0027 1.98291 69 55 129 255 
-19.0257 -10.9394 1.96253 72 35 116 255 
-21.8209 -12.5158 2.01512 72 29 111 255 
-21.8471 -12.6024 1.82116 71 19 101 255 
-22.0676 -12.7036 1.59753 52 96 141 255 
-22.0773 -12.6786 1.35652 64 69 136 255 
-22.0726 -12.6499 1.11521 66 65 134 255 
-22.0232 -12.6938 0.914323 61 78 138 255 
-24.7523 -14.2376 0.757712 70 11 94 255 
-27.587 -15.8364 0.544127 70 48 126 255 
-38.5746 -22.0895 0.349129 72 20 103 255 
-38.5911 -22.2342 -0.00777335 72 23 105 255 
-38.5297 -22.1444 -0.426606 72 22 104 255 
-38.5359 -22.1037 -0.837493 72 22 104 255 
-38.4952 -22.0262 -1.25434 72 20 103 255 
-38.5071 -22.1591 -1.61356 71 16 99 255 
-23.5922 -13.5484 -1.24016 70 7 90 255 
-23.5575 -13.5068 -1.49443 71 17 100 255 
-23.5507 -13.4698 -1.7497 71 17 100 255 
-23.514 -13.5258 -1.96826 71 13 96 255 
-19.6682 -11.2858 -1.85635 71 14 97 255 
-16.8144 -9.62896 -1.7702 71 17 100 255 
-14.6512 -8.37974 -1.70254 70 11 94 255 
-13.0168 -7.47846 -1.63614 72 36 117 255 
-11.6919 -6.7062 -1.59769 68 59 132 255 
-10.5891 -6.06152 -1.56302 70 52 128 255 
-9.64007 -5.50916 -1.52885 72 38 119 255 
-8.89907 -5.10656 -1.49862 70 51 127 255 
-8.25758 -4.73252 -1.4802 69 56 130 255 
-7.7108 -4.4121 -1.46594 69 55 129 255 
-7.19515 -4.11192 -1.44933 69 53 129 255 
-6.75665 -3.87092 -1.42917 66 63 133 255 
-6.40738 -3.6677 -1.42439 66 63 133 255 
-6.01049 -3.43919 -1.40511 68 57 131 255 
-5.69132 -3.25382 -1.39706 67 61 132 255 
-5.43571 -3.11037 -1.38955 61 78 138 255 
-5.17714 -2.96109 -1.38131 60 80 139 255 
-4.9389 -2.82374 -1.37529 62 76 138 255 
-4.69187 -2.68459 -1.36382 70 48 126 255 
-4.49985 -2.56966 -1.35461 68 57 131 255 
-4.32037 -2.46705 -1.34985 70 52 128 255 
-4.14404 -2.36833 -1.34524 69 53 129 255 
-3.95987 -2.26759 -1.33696 71 47 125 255 
-38.9477 -22.1315 13.4566 71 14 97 255 
-38.946 -22.1748 12.961 71 14 97 255 
-38.8379 -22.1316 12.4556 71 14 97 255 
-38.8941 -22.1626 12.02 71 19 101 255 
-38.938 -22.1529 11.6274 71 14 97 255 
-38.8753 -22.1255 11.136 72 20 103 255 
-38.845 -22.0998 10.6718 71 16 99 255 
-38.8936 -22.1175 10.2474 71 14 97 255 
-38.8274 -22.099 9.85533 71 17 100 255 
-17.5402 -9.97879 4.24157 72 29 111 255 
-38.7988 -22.0466 8.94127 72 24 106 255 
-38.7917 -22.0238 8.50936 71 16 99 255 
-38.6886 -22.02 8.12206 71 16 99 255 
-38.7377 -22.0293 7.68944 72 20 103 255 
-17.455 -9.91035 3.26536 70 52 128 255 
-17.4553 -9.89003 3.07714 68 57 131 255 
-17.4346 -9.91904 2.91195 69 53 129 255 
-17.4471 -9.91775 2.71699 68 57 131 255 
-17.4193 -9.87805 2.51912 69 55 129 255 
-17.4308 -9.86815 2.3353 70 48 126 255 
-17.4265 -9.91443 2.17452 68 59 132 255 
-17.4186 -9.8895 1.98163 69 53 129 255 
-19.095 -10.8239 1.96279 72 38 119 255 
-21.9198 -12.3944 2.0172 72 26 108 255 
-21.9344 -12.474 1.82203 72 23 105 255 
-22.1443 -12.5674 1.59747 63 72 137 255 
-22.1616 -12.5469 1.35695 58 83 139 255 
-22.1612 -12.5207 1.11578 66 63 133 255 
-22.1076 -12.5624 0.914611 59 81 139 255 
-24.8496 -14.0913 0.75803 71 16 99 255 
-27.7185 -15.6865 0.544811 70 51 127 255 
-38.5588 -21.7673 0.347771 71 13 96 255 
-38.5485 -21.8958 -0.00773757 72 20 103 255 
-38.5387 -21.8361 -0.425214 71 19 101 255 
-38.5629 -21.8058 -0.835155 72 22 104 255 
-38.459 -21.6933 -1.2488 71 16 99 255 
-38.4781 -21.8292 -1.6067 71 14 97 255 
-38.5037 -21.7986 -2.01694 70 10 93 255 
-38.6317 -21.8359 -2.44215 70 11 94 255 
-24.1945 -13.6416 -1.79128 69 5 89 255 
-23.8109 -13.5028 -1.98614 70 7 90 255 
-19.7458 -11.1698 -1.85717 70 11 94 255 
-16.8766 -9.52756 -1.77057 70 10 93 255 
-14.6876 -8.28138 -1.70083 71 13 96 255 
-13.0659 -7.40041 -1.63657 72 35 116 255 
-11.7155 -6.62456 -1.59533 67 61 132 255 
-10.6218 -5.994 -1.56239 70 52 128 255 
-9.67542 -5.45088 -1.52912 71 42 122 255 
-8.96037 -5.06891 -1.50368 70 51 127 255 
-8.30625 -4.69295 -1.48374 70 48 126 255 
-7.71882 -4.35404 -1.46235 69 56 130 255 
-7.21767 -4.06624 -1.44882 69 56 130 255 
-6.7897 -3.83471 -1.43116 65 68 135 255 
-6.4118 -3.61818 -1.42041 67 62 133 255 
-6.05367 -3.41476 -1.41028 67 61 132 255 
-5.70521 -3.21548 -1.39561 69 53 129 255 
-5.43344 -3.06497 -1.38414 65 68 135 255 
-5.19352 -2.92831 -1.38086 57 85 140 255 
-4.94427 -2.7867 -1.372 68 57 131 255 
-4.7167 -2.66051 -1.36626 69 55 129 255 
-4.50963 -2.53868 -1.35284 70 50 126 255 
-4.33458 -2.44002 -1.34959 70 48 126 255 
-4.14843 -2.33719 -1.34198 70 51 127 255 
-3.97371 -2.24325 -1.33696 70 48 126 255 
-38.8446 -21.7587 13.3746 71 14 97 255 
-38.9339 -21.8526 12.9121 71 16 99 255 
-38.8184 -21.8061 12.4062 72 20 103 255 
-38.8753 -21.837 11.9725 71 16 99 255 
-38.7802 -21.7493 11.5403 71 16 99 255 
-38.6972 -21.7109 11.0466 71 13 96 255 
-38.7686 -21.7425 10.6139 71 13 96 255 
-38.7633 -21.7297 10.1777 71 17 100 255 
-38.7145 -21.7213 9.79265 72 23 105 255 
-17.596 -9.86811 4.24034 72 20 103 255 
-38.734 -21.6965 8.89549 72 23 105 255 
-38.7444 -21.6836 8.46964 71 13 96 255 
-38.7449 -21.7383 8.10573 71 14 97 255 
-38.6676 -21.6765 7.64897 72 20 103 255 
-17.4689 -9.77703 3.25669 70 52 128 255 
-17.5148 -9.78226 3.07699 69 56 130 255 
-17.496 -9.81236 2.9121 71 45 123 255 
-17.4721 -9.79065 2.71149 69 56 130 255 
-17.4692 -9.76517 2.51762 68 58 131 255 
-17.4642 -9.74601 2.33171 70 52 128 255 
-17.461 -9.79273 2.17129 68 58 131 255 
-17.459 -9.77126 1.97936 67 61 132 255 
-19.1941 -10.725 1.96618 72 33 115 255 
-22.0103 -12.2679 2.01855 72 29 111 255 
-22.0036 -12.3353 1.82145 71 19 101 255 
-22.2306 -12.4367 1.59816 62 74 137 255 
-22.2452 -12.4145 1.35737 62 73 137 255 
-22.2428 -12.3874 1.11604 62 76 138 255 
-22.2078 -12.4397 0.915582 61 78 138 255 
-24.9409 -13.9415 0.75819 71 16 99 255 
-27.8055 -15.5113 0.54464 70 51 127 255 
-38.5134 -21.4311 0.346169 71 14 97 255 
-38.4806 -21.546 -0.00769725 72 23 105 255 
-38.5218 -21.5154 -0.423563 72 20 103 255 
-38.4898 -21.4539 -0.830707 71 19 101 255 
-38.359 -21.3277 -1.24128 72 36 117 255 
-38.5127 -21.5375 -1.6026 71 14 97 255 
-38.5103 -21.4913 -2.01034 70 11 94 255 
-23.7712 -13.2444 -1.49756 71 14 97 255 
-29.4223 -16.3522 -2.17086 69 4 87 255 
-23.8942 -13.3569 -1.98621 70 7 90 255 
-19.7904 -11.0353 -1.85496 71 13 96 255 
-16.9322 -9.42238 -1.77029 71 17 100 255 
-14.6912 -8.165 -1.69541 71 13 96 255 
-13.1093 -7.31913 -1.63636 72 41 121 255 
-11.7447 -6.54626 -1.5938 68 58 131 255 
-10.6618 -5.93064 -1.56289 71 46 124 255 
-9.67058 -5.37025 -1.52312 72 38 119 255 
-8.96884 -5.00131 -1.49992 70 51 127 255 
-8.35561 -4.65343 -1.48743 70 50 126 255 
-7.72901 -4.29749 -1.45926 70 51 127 255 
-7.25281 -4.02762 -1.45088 69 56 130 255 
-6.82255 -3.79824 -1.43314 67 61 132 255 
-6.41072 -3.56588 -1.41529 68 57 131 255 
-6.07794 -3.37946 -1.41107 66 64 134 255 
-5.71628 -3.17566 -1.39352 69 55 129 255 
-5.44958 -3.03015 -1.38349 63 72 137 255 
-5.20713 -2.89402 -1.37973 58 84 140 255 
-4.95618 -2.75347 -1.37059 66 65 134 255 
-4.72954 -2.62964 -1.36528 70 51 127 255 
-4.5302 -2.51378 -1.35435 70 52 128 255 
-4.34188 -2.40917 -1.34723 71 46 124 255 
-4.16521 -2.31309 -1.3428 70 50 126 255 
-3.98237 -2.21603 -1.33527 69 53 129 255 
-38.7971 -21.4204 13.3128 71 16 99 255 
-38.8622 -21.4999 12.8443 71 17 100 255 
-38.8908 -21.5339 12.3868 71 16 99 255 
-38.8666 -21.5195 11.9289 71 19 101 255 
-38.7283 -21.4088 11.4855 72 20 103 255 
-38.7694 -21.4397 11.0295 71 19 101 255 
-38.6944 -21.3899 10.5575 72 20 103 255 
-38.7423 -21.4066 10.1376 71 13 96 255 
-38.7026 -21.4035 9.75624 72 20 103 255 
-38.7665 -21.4293 9.31023 71 17 100 255 
-38.6878 -21.3598 8.85463 72 20 103 255 
-38.7313 -21.3653 8.43797 71 19 101 255 
-17.463 -9.65748 3.64094 72 20 103 255 
-38.711 -21.3898 7.63145 72 24 106 255 
-17.5459 -9.67919 3.2599 69 55 129 255 
-17.5312 -9.65077 3.06941 70 51 127 255 
-17.516 -9.6828 2.90549 70 51 127 255 
-17.5197 -9.67655 2.70961 67 61 132 255 
-17.5218 -9.65397 2.51662 68 57 131 255 
-17.5114 -9.63196 2.33009 70 52 128 255 
-17.5155 -9.68252 2.17064 68 57 131 255 
-17.5081 -9.65818 1.97818 68 58 131 255 
-19.2735 -10.6147 1.9676 72 35 116 255 
-19.5052 -10.7153 1.78275 65 66 135 255 
-19.4791 -10.7635 1.60698 66 63 133 255 
-19.4809 -10.742 1.39572 59 82 139 255 
-19.4616 -10.705 1.18349 62 73 137 255 
-19.4668 -10.6854 0.973448 57 86 140 255 
-22.2934 -12.3085 0.915977 65 68 135 255 
-25.0365 -13.794 0.758508 71 16 99 255 
-38.7337 -21.297 0.756124 69 5 89 255 
-38.8125 -21.2867 0.347676 69 4 87 255 
-38.5342 -21.2665 -0.00768172 70 11 94 255 
-38.54 -21.2164 -0.422325 70 8 92 255 
-38.619 -21.2164 -0.83067 70 7 90 255 
-38.4883 -21.0915 -1.24125 70 7 90 255 
-38.4499 -21.1937 -1.59454 70 10 93 255 
-24.3689 -13.4041 -1.26781 72 24 106 255 
-24.2948 -13.3415 -1.52536 71 13 96 255 
-23.9461 -13.117 -1.76084 70 8 92 255 
-23.9346 -13.1874 -1.98281 70 10 93 255 
-19.822 -10.894 -1.85162 71 14 97 255 
-16.9434 -9.29292 -1.76547 71 19 101 255 
-14.7306 -8.06897 -1.69421 71 16 99 255 
-13.1409 -7.23137 -1.63473 72 38 119 255 
-11.7933 -6.47886 -1.59498 68 57 131 255 
-10.7024 -5.86749 -1.56353 70 52 128 255 
-9.699 -5.30843 -1.52244 71 47 125 255 
-9.00282 -4.94809 -1.5005 70 48 126 255 
-8.37361 -4.59637 -1.48558 69 53 129 255 
-7.74312 -4.24334 -1.45698 70 51 127 255 
-7.26875 -3.97831 -1.44916 70 52 128 255 
-6.82935 -3.74731 -1.42971 63 72 137 255 
-6.43248 -3.52648 -1.41529 68 59 132 255 
-6.08997 -3.33739 -1.40909 64 69 136 255 
-5.74767 -3.1471 -1.39644 69 53 129 255 
-5.48006 -3.00322 -1.38652 57 86 140 255 
-5.21881 -2.85874 -1.37816 59 81 139 255 
-4.97298 -2.72301 -1.37059 63 72 137 255 
-4.74304 -2.59917 -1.36455 69 55 129 255 
-4.57864 -2.50404 -1.36422 70 50 126 255 
-4.35997 -2.38433 -1.34828 70 48 126 255 
-4.16244 -2.27825 -1.33737 71 45 123 255 
-3.99337 -2.19016 -1.33443 70 50 126 255 
-38.7226 -21.0703 13.2426 71 14 97 255 
-38.7378 -21.1217 12.7602 71 17 100 255 
-38.7922 -21.1693 12.3138 71 13 96 255 
-38.7656 -21.1538 11.8579 71 17 100 255 
-38.6464 -21.055 11.4227 71 17 100 255 
-38.7775 -21.1346 10.9947 71 17 100 255 
-38.7823 -21.1288 10.5459 71 16 99 255 
-38.7008 -21.0748 10.0927 71 16 99 255 
-38.5923 -21.0343 9.69571 71 17 100 255 
-38.6472 -21.0548 9.25037 72 24 106 255 
-38.7079 -21.062 8.82948 72 23 105 255 
-38.6986 -21.0386 8.40255 71 16 99 255 
-17.4788 -9.5266 3.63196 72 29 111 255 
-38.562 -20.9996 7.57653 72 23 105 255 
-17.5919 -9.56428 3.25749 71 45 123 255 
-17.5631 -9.52841 3.06471 70 50 126 255 
-17.5664 -9.57041 2.90405 66 64 134 255 
-17.5744 -9.5665 2.70894 69 56 130 255 
-17.5624 -9.53633 2.514 69 53 129 255 
-17.5449 -9.51061 2.32673 70 52 128 255 
-17.5327 -9.55204 2.16547 70 51 127 255 
-17.5505 -9.54154 1.97631 69 53 129 255 
-19.3645 -10.5105 1.97028 72 33 115 255 
-19.5715 -10.5959 1.78283 66 65 134 255 
-19.5614 -10.6529 1.60834 56 89 140 255 
-19.5535 -10.6261 1.39622 51 98 141 255 
-19.569 -10.6082 1.18605 52 97 141 255 
-19.554 -10.5777 0.974542 59 81 139 255 
-22.4071 -12.1925 0.917559 62 73 137 255 
-25.1487 -13.6554 0.759357 72 22 104 255 
-36.0541 -19.5365 0.701461 70 7 90 255 
-36.0974 -19.5105 0.322277 70 10 93 255 
-38.9986 -21.2117 -0.00774821 69 5 89 255 
-38.9552 -21.1345 -0.425445 69 4 87 255 
-36.0141 -19.4986 -0.772051 70 7 90 255 
-36.0654 -19.477 -1.15923 71 16 99 255 
-38.9893 -21.1802 -1.61149 69 4 87 255 
-24.4709 -13.2652 -1.26885 71 19 101 255 
-24.3183 -13.1608 -1.52174 70 11 94 255 
-29.771 -16.071 -2.18187 69 5 89 255 
-23.9388 -12.9989 -1.97651 70 7 90 255 
-19.8911 -10.7736 -1.85186 71 13 96 255 
-16.9852 -9.18074 -1.76392 71 17 100 255 
-14.7719 -7.97418 -1.6933 71 17 100 255 
-13.1999 -7.15866 -1.63657 71 42 122 255 
-11.8355 -6.40779 -1.59533 68 58 131 255 
-10.7033 -5.78285 -1.55845 71 46 124 255 
-9.7436 -5.2554 -1.52435 71 46 124 255 
-9.0452 -4.89935 -1.50252 71 42 122 255 
-8.39036 -4.53879 -1.48359 70 52 128 255 
-7.80547 -4.21544 -1.46382 70 50 126 255 
-7.29736 -3.93598 -1.45002 69 53 129 255 
-6.86346 -3.71142 -1.43206 68 59 132 255 
-6.45226 -3.48601 -1.41491 66 64 134 255 
-6.09998 -3.29437 -1.4067 65 68 135 255 
-5.76687 -3.11177 -1.39644 68 59 132 255 
-5.50353 -2.97232 -1.38782 55 90 140 255 
-5.25082 -2.83453 -1.38199 56 89 140 255 
-4.9896 -2.69245 -1.37059 59 81 139 255 
-4.77852 -2.58062 -1.37018 69 53 129 255 
-4.58285 -2.46993 -1.36093 70 52 128 255 
-4.36517 -2.3525 -1.3454 71 46 124 255 
-4.19583 -2.26317 -1.34361 70 50 126 255 
-4.01517 -2.17018 -1.33724 70 52 128 255 
-38.7431 -20.7744 13.2058 71 13 96 255 
-38.6847 -20.7858 12.7004 71 16 99 255 
-38.7865 -20.8584 12.2712 72 20 103 255 
-38.7467 -20.836 11.8128 71 19 101 255 
-38.6572 -20.7543 11.388 71 19 101 255 
-38.6876 -20.7787 10.9328 71 17 100 255 
-38.6712 -20.7616 10.4808 71 17 100 255 
-38.6826 -20.7581 10.0545 71 19 101 255 
-38.6354 -20.7513 9.67438 71 19 101 255 
-38.5981 -20.7219 9.208 72 23 105 255 
-38.6446 -20.7213 8.78587 72 24 106 255 
-38.5784 -20.6676 8.34877 71 13 96 255 
-17.5126 -9.40614 3.62694 72 41 121 255 
-38.6102 -20.7197 7.56089 72 23 105 255 
-17.6155 -9.43751 3.25107 72 41 121 255 
-17.6152 -9.4172 3.06365 69 55 129 255 
-17.6205 -9.4601 2.90333 66 64 134 255 
-17.6049 -9.44349 2.70465 66 65 134 255 
-17.597 -9.41575 2.51063 69 56 130 255 
-17.5994 -9.4009 2.32627 69 55 129 255 
-17.5726 -9.4344 2.1632 68 58 131 255 
-17.5929 -9.42521 1.97454 69 53 129 255 
-19.4506 -10.4032 1.9725 72 37 118 255 
-19.6537 -10.485 1.78443 68 57 131 255 
-19.6369 -10.5383 1.60921 53 95 141 255 
-19.635 -10.5149 1.39741 54 92 141 255 
-19.6479 -10.4955 1.1869 61 77 138 255 
-19.6344 -10.4659 0.975331 62 76 138 255 
-22.4859 -12.0571 0.917738 63 71 136 255 
-25.3008 -13.5376 0.761426 71 13 96 255 
-0 -0 0 68 2 86 255 
-0 -0 0 68 2 86 255 
-39.5344 -21.1898 -0.00782867 69 4 87 255 
-39.6229 -21.1831 -0.43131 69 4 87 255 
-39.6492 -21.1532 -0.847181 69 4 87 255 
-39.8314 -21.1961 -1.27608 69 4 87 255 
-36.174 -19.3643 -1.4902 69 4 87 255 
-24.5333 -13.105 -1.2679 69 5 89 255 
-0 -0 -0 68 2 86 255 
-29.7122 -15.8046 -2.17041 69 4 87 255 
-24.0551 -12.8715 -1.97955 70 10 93 255 
-19.9418 -10.6434 -1.85048 71 14 97 255 
-16.9999 -9.05434 -1.75965 71 16 99 255 
-14.8408 -7.89413 -1.69561 72 20 103 255 
-13.2488 -7.08034 -1.63722 72 40 120 255 
-11.843 -6.31822 -1.5911 69 55 129 255 
-10.7254 -5.71008 -1.55654 70 50 126 255 
-9.77391 -5.19459 -1.52408 70 51 127 255 
-9.04803 -4.82932 -1.49804 71 47 125 255 
-8.42153 -4.48908 -1.4842 70 50 126 255 
-7.80419 -4.1531 -1.45877 70 52 128 255 
-7.31963 -3.8902 -1.44968 70 52 128 255 
-6.8861 -3.66924 -1.43206 66 65 134 255 
-6.46747 -3.44312 -1.41359 66 63 133 255 
-6.12527 -3.25964 -1.40789 69 56 130 255 
-5.7824 -3.07449 -1.39561 68 58 131 255 
-5.52598 -2.94079 -1.3889 56 89 140 255 
-5.27156 -2.80409 -1.38289 56 89 140 255 
-5.01203 -2.66498 -1.37224 57 86 140 255 
-4.8071 -2.55808 -1.37384 67 62 133 255 
-4.57484 -2.42951 -1.3541 70 51 127 255 
-4.40765 -2.34061 -1.35404 71 47 125 255 
-4.20453 -2.23468 -1.34198 70 51 127 255 
-4.00385 -2.13242 -1.32909 69 53 129 255 
-38.6531 -20.4217 13.1321 71 16 99 255 
-38.7029 -20.4905 12.6649 71 14 97 255 
-38.6865 -20.4996 12.1995 72 22 104 255 
-38.605 -20.4554 11.7311 71 17 100 255 
-38.67 -20.4565 11.3546 71 19 101 255 
-38.5528 -20.4025 10.8592 71 16 99 255 
-38.6431 -20.4421 10.439 71 16 99 255 
-38.8902 -20.5632 10.0755 70 11 94 255 
-38.9381 -20.607 9.71833 71 19 101 255 
-38.9286 -20.5927 9.25654 72 20 103 255 
-38.9262 -20.5657 8.82103 72 20 103 255 
-17.5041 -9.23969 3.77573 71 17 100 255 
-17.577 -9.30219 3.62837 71 47 125 255 
-38.9022 -20.57 7.59319 71 19 101 255 
-17.6556 -9.32003 3.24786 71 42 122 255 
-17.663 -9.30387 3.06198 70 51 127 255 
-17.6397 -9.33144 2.89701 68 58 131 255 
-17.6441 -9.32557 2.70183 68 59 132 255 
-17.6465 -9.30344 2.50951 68 57 131 255 
-17.6374 -9.28256 2.32372 68 58 131 255 
-17.6214 -9.32175 2.16212 68 59 132 255 
-17.631 -9.30687 1.97237 70 52 128 255 
-19.537 -10.2958 1.97482 72 41 121 255 
-19.7274 -10.3693 1.78531 69 56 130 255 
-19.7056 -10.4199 1.60957 60 80 139 255 
-19.7186 -10.4044 1.39879 52 97 141 255 
-19.7243 -10.3813 1.18764 59 81 139 255 
-19.7195 -10.3564 0.976382 61 77 138 255 
-22.586 -11.9329 0.918817 65 68 135 255 
-0 -0 0 68 1 84 255 
-33.7905 -17.7771 0.653127 69 5 89 255 
-33.8823 -17.7795 0.30053 69 5 89 255 
-0 -0 -0 68 2 86 255 
-0 -0 -0 68 2 86 255 
-33.7346 -17.7326 -0.718465 69 4 87 255 
-33.6733 -17.6548 -1.0753 70 10 93 255 
-33.6369 -17.7415 -1.38117 70 7 90 255 
-0 -0 -0 68 2 86 255 
-34.0347 -17.8828 -2.11586 69 4 87 255 
-29.7573 -15.5951 -2.16668 69 4 87 255 
-24.1424 -12.7284 -1.98027 70 8 92 255 
-20.0579 -10.5477 -1.85521 71 13 96 255 
-17.0075 -8.92487 -1.75474 71 14 97 255 
-14.8907 -7.80385 -1.69581 71 19 101 255 
-13.2726 -6.98873 -1.63484 72 35 116 255 
-11.8754 -6.2422 -1.59027 69 53 129 255 
-10.7769 -5.65292 -1.55896 70 52 128 255 
-9.79068 -5.12671 -1.52176 70 50 126 255 
-9.06873 -4.7691 -1.4966 70 51 127 255 
-8.43842 -4.43181 -1.48236 70 50 126 255 
-7.84438 -4.11293 -1.46154 69 55 129 255 
-7.33638 -3.84156 -1.4483 70 50 126 255 
-6.89368 -3.61914 -1.42899 67 61 132 255 
-6.50064 -3.40976 -1.41624 68 59 132 255 
-6.13995 -3.21927 -1.4067 68 59 132 255 
-5.79336 -3.03487 -1.39373 62 76 138 255 
-5.54046 -2.90502 -1.38804 59 82 139 255 
-5.28435 -2.76943 -1.38177 56 89 140 255 
-5.04809 -2.64455 -1.37764 57 85 140 255 
-4.82614 -2.53034 -1.37482 66 65 134 255 
-4.58795 -2.4005 -1.35359 69 55 129 255 
-4.44331 -2.3247 -1.36058 69 55 129 255 
-4.20538 -2.20214 -1.33792 70 52 128 255 
-4.02791 -2.11361 -1.33274 70 52 128 255 
-38.6043 -20.0939 13.0734 71 14 97 255 
-38.6064 -20.1372 12.5926 71 16 99 255 
-38.6202 -20.1619 12.1394 71 17 100 255 
-38.6972 -20.2012 11.7212 72 20 103 255 
-38.5691 -20.1012 11.2885 72 22 104 255 
-38.5938 -20.122 10.8357 71 19 101 255 
-38.5798 -20.1066 10.3884 71 19 101 255 
-38.9707 -20.3007 10.0639 71 16 99 255 
-0 -0 0 68 2 86 255 
-0 -0 0 68 2 86 255 
-0 -0 0 68 2 86 255 
-17.6154 -9.16066 3.78754 72 28 110 255 
-17.6398 -9.19735 3.62963 66 63 133 255 
-17.6698 -9.20481 3.43782 70 11 94 255 
-17.7081 -9.20925 3.24705 72 38 119 255 
-17.6846 -9.17711 3.05592 69 53 129 255 
-17.6835 -9.21617 2.89486 68 59 132 255 
-17.6974 -9.2153 2.70129 65 66 135 255 
-17.6909 -9.18858 2.50776 69 56 130 255 
-17.6667 -9.15999 2.32013 69 53 129 255 
-17.6633 -9.20564 2.16029 68 58 131 255 
-17.664 -9.18612 1.96972 70 48 126 255 
-19.629 -10.1908 1.97776 72 40 120 255 
-19.8083 -10.2573 1.78691 71 44 122 255 
-19.7887 -10.309 1.61115 62 74 137 255 
-19.8113 -10.2984 1.40085 58 84 140 255 
-19.8248 -10.2793 1.18988 62 76 138 255 
-19.8226 -10.2559 0.978352 62 74 137 255 
-22.6694 -11.7997 0.919248 63 71 136 255 
-33.8883 -17.601 1.01329 69 4 87 255 
-0 -0 0 68 2 86 255 
-0 -0 0 68 1 84 255 
-33.7821 -17.5764 -0.00664639 70 7 90 255 
-33.8604 -17.5715 -0.366208 69 5 89 255 
-0 -0 -0 68 2 86 255 
-40.7128 -21.0282 -1.29595 69 4 87 255 
-33.7016 -17.5122 -1.37939 53 95 141 255 
-33.77 -17.5097 -1.73402 69 5 89 255 
-33.1143 -17.1407 -2.05206 69 4 87 255 
-29.8489 -15.4104 -2.16642 69 4 87 255 
-24.182 -12.5602 -1.97716 70 8 92 255 
-19.9541 -10.3373 -1.83971 71 13 96 255 
-17.0292 -8.80343 -1.75137 71 13 96 255 
-14.9374 -7.71188 -1.69571 71 19 101 255 
-13.2994 -6.89892 -1.63289 72 37 118 255 
-11.8985 -6.16145 -1.58827 70 52 128 255 
-10.8026 -5.58213 -1.55769 71 46 124 255 
-9.8246 -5.0679 -1.52217 68 58 131 255 
-9.07234 -4.70017 -1.49241 70 51 127 255 
-8.45493 -4.3745 -1.48051 70 48 126 255 
-7.87736 -4.06879 -1.46301 71 47 125 255 
-7.34581 -3.78925 -1.44554 70 50 126 255 
-6.91488 -3.57633 -1.42881 68 57 131 255 
-6.51708 -3.36756 -1.41529 66 63 133 255 
-6.15262 -3.17794 -1.40511 67 61 132 255 
-5.8084 -2.99747 -1.3929 69 53 129 255 
-5.56078 -2.87231 -1.38869 55 90 140 255 
-5.30211 -2.7374 -1.38199 54 92 141 255 
-5.04436 -2.60327 -1.37224 61 77 138 255 
-4.84502 -2.50246 -1.3758 63 72 137 255 
-4.60345 -2.37274 -1.35385 71 47 125 255 
-4.46006 -2.29872 -1.36137 70 52 128 255 
-4.22822 -2.18115 -1.3409 68 57 131 255 
-4.06979 -2.10384 -1.3423 69 56 130 255 
-38.5513 -19.7667 13.0142 71 13 96 255 
-38.6199 -19.8437 12.5571 71 16 99 255 
-38.6344 -19.8686 12.1053 71 16 99 255 
-38.6255 -19.8631 11.6624 71 16 99 255 
-38.5393 -19.786 11.2441 71 17 100 255 
-38.5137 -19.7806 10.779 71 14 97 255 
-38.6298 -19.8322 10.3689 71 17 100 255 
-39.0026 -20.0141 10.0402 70 11 94 255 
-43.8475 -22.5208 10.8738 69 4 87 255 
-0 -0 0 68 2 86 255 
-17.7015 -9.07606 3.98577 70 7 90 255 
-17.6835 -9.05868 3.79016 72 38 119 255 
-17.6732 -9.07725 3.62496 62 73 137 255 
-17.7548 -9.11106 3.44343 72 23 105 255 
-17.7388 -9.08737 3.2424 71 46 124 255 
-17.7336 -9.06483 3.05471 71 47 125 255 
-17.7229 -9.09891 2.89213 66 63 133 255 
-17.7351 -9.09704 2.69848 66 65 134 255 
-17.7214 -9.06675 2.50414 66 63 133 255 
-17.7305 -9.05548 2.32118 68 57 131 255 
-17.6955 -9.08483 2.15738 69 53 129 255 
-17.7271 -9.08119 1.9705 70 52 128 255 
-19.7133 -10.0815 1.97998 72 36 117 255 
-19.8709 -10.1355 1.78691 72 32 113 255 
-19.8888 -10.2065 1.61418 60 80 139 255 
-19.9025 -10.1912 1.40286 58 83 139 255 
-19.8982 -10.163 1.19052 63 72 137 255 
-19.919 -10.1513 0.980017 63 71 136 255 
-22.7396 -11.6594 0.919176 65 68 135 255 
-0 -0 0 68 1 84 255 
-41.0403 -20.9522 0.788227 69 4 87 255 
-0 -0 0 68 2 86 255 
-38.9877 -19.9818 -0.00764629 69 5 89 255 
-0 -0 -0 68 2 86 255 
-0 -0 -0 68 2 86 255 
-0 -0 -0 68 2 86 255 
-0 -0 -0 68 2 86 255 
-0 -0 -0 68 2 86 255 
-0 -0 -0 68 1 84 255 
-30.0959 -15.3047 -2.17749 68 2 86 255 
-23.9736 -12.2658 -1.95393 70 7 90 255 
-20.0687 -10.241 -1.84444 71 14 97 255 
-17.0341 -8.67392 -1.74637 71 13 96 255 
-14.9871 -7.62143 -1.69601 71 13 96 255 
-13.3282 -6.8104 -1.63126 72 35 116 255 
-11.9228 -6.08156 -1.58651 69 55 129 255 
-10.8181 -5.50629 -1.55502 70 52 128 255 
-9.85462 -5.00707 -1.52203 68 58 131 255 
-9.11776 -4.65296 -1.49515 70 48 126 255 
-8.47721 -4.3203 -1.47974 69 55 129 255 
-7.87052 -4.00427 -1.45714 71 46 124 255 
-7.36365 -3.74143 -1.44451 70 51 127 255 
-6.91829 -3.52445 -1.42502 67 61 132 255 
-6.52712 -3.32216 -1.41302 68 57 131 255 
-6.18947 -3.14901 -1.40909 68 57 131 255 
-5.83976 -2.96843 -1.39602 63 72 137 255 
-5.58961 -2.84389 -1.3915 56 89 140 255 
-5.31099 -2.70084 -1.37996 51 98 141 255 
-5.05157 -2.56786 -1.36989 61 78 138 255 
-4.85597 -2.47048 -1.37458 60 79 138 255 
-4.63949 -2.3554 -1.36017 69 55 129 255 
-4.43966 -2.25384 -1.3509 70 51 127 255 
-4.28357 -2.17653 -1.35419 69 55 129 255 
-4.10827 -2.09189 -1.35074 69 55 129 255 
-38.5556 -19.471 12.975 71 16 99 255 
-38.4889 -19.4788 12.4754 71 17 100 255 
-38.5588 -19.5315 12.0438 72 22 104 255 
-38.5605 -19.5314 11.6063 72 20 103 255 
-38.5174 -19.477 11.2026 71 19 101 255 
-38.5486 -19.5006 10.755 72 22 104 255 
-38.5346 -19.4855 10.3111 71 17 100 255 
-39.0498 -19.7366 10.021 69 4 87 255 
-44.207 -22.3638 10.9288 69 4 87 255 
-0 -0 0 68 1 84 255 
-17.7096 -8.94341 3.97516 71 17 100 255 
-17.7177 -8.93938 3.78566 71 46 124 255 
-17.7198 -8.9642 3.62317 61 78 138 255 
-17.7383 -8.9655 3.42949 72 24 106 255 
-17.818 -8.99036 3.24673 71 46 124 255 
-17.7924 -8.95762 3.05531 71 42 122 255 
-17.7643 -8.98284 2.88983 68 58 131 255 
-17.7517 -8.96839 2.69257 68 58 131 255 
-17.7616 -8.95026 2.50202 68 58 131 255 
-17.7831 -8.94518 2.32083 71 46 124 255 
-17.7403 -8.9707 2.15609 69 56 130 255 
-17.7531 -8.95745 1.96726 70 51 127 255 
-19.7926 -9.96936 1.98177 72 37 118 255 
-19.9336 -10.0139 1.78699 72 28 110 255 
-19.9644 -10.091 1.61526 61 78 138 255 
-19.9771 -10.0752 1.40373 59 81 139 255 
-19.9655 -10.0434 1.19083 59 82 139 255 
-19.9925 -10.0347 0.980586 62 73 137 255 
-22.8143 -11.5215 0.91932 72 35 116 255 
-31.5682 -15.9072 0.938009 71 13 96 255 
-31.5634 -15.8706 0.604331 70 11 94 255 
-31.5705 -15.8322 0.277392 70 10 93 255 
-31.46 -15.8808 -0.00615071 70 11 94 255 
-31.4611 -15.8394 -0.338131 71 16 99 255 
-31.5296 -15.8398 -0.66518 71 14 97 255 
-31.4786 -15.7724 -0.995774 71 17 100 255 
-31.4618 -15.8611 -1.27965 46 110 142 255 
-31.4693 -15.8298 -1.60578 71 17 100 255 
-31.4287 -15.7823 -1.93546 71 13 96 255 
-29.8885 -14.9692 -2.1558 69 4 87 255 
-24.0591 -12.1238 -1.9548 70 7 90 255 
-20.0661 -10.085 -1.83848 71 13 96 255 
-17.0808 -8.56611 -1.74573 71 19 101 255 
-15.0078 -7.51641 -1.6931 71 14 97 255 
-13.4496 -6.76871 -1.64101 72 37 118 255 
-11.9661 -6.01141 -1.58733 70 48 126 255 
-10.8419 -5.43492 -1.55362 70 52 128 255 
-9.90731 -4.95759 -1.52544 69 56 130 255 
-9.11785 -4.5827 -1.49053 70 50 126 255 
-8.49472 -4.26377 -1.47821 70 52 128 255 
-7.91346 -3.96519 -1.46056 70 52 128 255 
-7.39704 -3.70146 -1.44658 71 45 123 255 
-6.94946 -3.48679 -1.427 66 63 133 255 
-6.55265 -3.28469 -1.41416 67 62 133 255 
-6.20342 -3.10834 -1.40789 65 68 135 255 
-5.85699 -2.9321 -1.39581 62 74 137 255 
-5.6087 -2.81042 -1.39194 53 94 141 255 
-5.33269 -2.67082 -1.38131 50 102 142 255 
-5.06636 -2.53638 -1.36965 61 77 138 255 
-4.88751 -2.44889 -1.37923 60 80 139 255 
-4.66165 -2.33078 -1.36245 68 59 132 255 
