ply
format ascii 1.0
comment VTK generated PLY File
obj_info vtkPolyData points and polygons: vtk4.0
element vertex 1159
property float x
property float y
property float z
property uchar red
property uchar green
property uchar blue
property uchar alpha
element face 0
property list uchar int vertex_indices
end_header
10.2861 -1.24944 2.68936 62 76 138 255 
15.3042 -1.85649 3.83803 71 17 100 255 
15.475 -1.87981 3.72239 72 24 106 255 
17.4134 -2.11868 4.01761 71 47 125 255 
12.1022 -1.4679 2.68927 66 63 133 255 
17.6478 -2.14391 3.7366 72 40 120 255 
9.18304 -1.12038 1.8536 72 32 113 255 
9.24995 -1.13198 1.77769 72 31 112 255 
9.23182 -1.11975 1.69671 72 32 113 255 
9.2589 -1.12644 1.60941 72 40 120 255 
9.23188 -1.12961 1.51305 72 35 116 255 
9.22156 -1.13666 1.4251 72 41 121 255 
9.24247 -1.12267 1.3516 72 41 121 255 
9.20041 -1.12095 1.25479 71 46 124 255 
9.23519 -1.13492 1.1705 72 37 118 255 
9.2268 -1.14058 1.08393 72 37 118 255 
9.27799 -1.12699 1.01367 72 36 117 255 
9.27322 -1.13475 0.924261 72 40 120 255 
9.27177 -1.14106 0.83537 72 36 117 255 
9.25607 -1.14911 0.747166 72 40 120 255 
9.28322 -1.12927 0.675257 72 38 119 255 
9.28317 -1.13761 0.586778 70 52 128 255 
9.33364 -1.15363 0.501107 42 120 142 255 
9.35076 -1.16417 0.413063 31 154 138 255 
9.36943 -1.14307 0.33951 33 166 133 255 
9.36224 -1.15062 0.250298 31 158 137 255 
9.36416 -1.15906 0.161405 31 154 138 255 
9.34714 -1.16703 0.0739837 36 135 142 255 
9.35246 -1.14265 -0.00164445 34 139 141 255 
9.3647 -1.15424 -0.0905777 31 154 138 255 
9.36941 -1.16304 -0.177986 31 149 139 255 
9.38097 -1.17458 -0.267383 34 140 141 255 
9.38636 -1.15177 -0.343458 31 153 138 255 
9.37881 -1.1593 -0.430783 33 142 141 255 
9.38446 -1.16657 -0.520433 34 140 141 255 
9.40071 -1.17871 -0.611016 35 138 141 255 
9.41128 -1.1565 -0.688001 32 146 140 255 
9.39146 -1.16419 -0.774703 34 140 141 255 
9.47667 -1.18307 -0.8725 39 127 142 255 
9.45067 -1.18497 -0.960763 50 100 142 255 
9.16479 -1.13107 -1.00643 68 59 132 255 
8.54316 -1.06055 -1.02043 65 66 135 255 
8.04217 -1.00541 -1.03824 68 58 131 255 
7.53796 -0.947819 -1.04611 65 66 135 255 
7.16261 -0.887774 -1.05419 63 72 137 255 
6.74718 -0.839986 -1.05744 63 72 137 255 
6.43311 -0.805389 -1.06982 62 73 137 255 
6.14462 -0.772621 -1.08308 65 68 135 255 
5.87465 -0.732295 -1.08654 62 76 138 255 
5.63344 -0.704327 -1.09533 59 81 139 255 
5.41745 -0.678234 -1.10782 61 78 138 255 
5.18204 -0.650669 -1.11298 64 70 136 255 
5.0101 -0.627186 -1.12031 63 71 136 255 
4.79262 -0.600901 -1.11868 64 70 136 255 
4.58973 -0.576235 -1.11823 66 64 134 255 
4.41029 -0.552204 -1.12139 68 59 132 255 
4.30703 -0.542984 -1.13482 68 58 131 255 
4.16524 -0.525193 -1.13906 70 48 126 255 
3.97083 -0.499237 -1.12795 72 40 120 255 
3.77478 -0.471297 -1.11455 72 31 112 255 
11.9047 -1.52656 3.60539 66 63 133 255 
10.8349 -1.37993 3.15879 71 46 124 255 
13.3052 -1.68971 3.73715 72 37 118 255 
12.8768 -1.63555 3.48532 72 29 111 255 
13.8144 -1.7641 3.61462 72 28 110 255 
15.7103 -2.00364 3.94288 72 36 117 255 
15.4178 -1.96893 3.71147 72 28 110 255 
15.6278 -1.99881 3.60839 72 22 104 255 
12.3012 -1.56869 2.73558 71 45 123 255 
11.972 -1.529 2.5368 72 40 120 255 
9.22948 -1.18356 1.8644 72 29 111 255 
9.25452 -1.19022 1.77994 72 31 112 255 
9.23942 -1.17824 1.6994 72 32 113 255 
9.25474 -1.1836 1.60992 72 36 117 255 
9.21988 -1.1856 1.51225 72 32 113 255 
9.20657 -1.19221 1.42388 72 35 116 255 
9.23344 -1.17911 1.35132 72 35 116 255 
9.18746 -1.17663 1.25399 72 31 112 255 
9.22904 -1.19169 1.17063 72 26 108 255 
9.24524 -1.20049 1.08694 72 29 111 255 
9.28668 -1.18591 1.0154 72 29 111 255 
9.2572 -1.19049 0.923375 72 31 112 255 
9.26163 -1.19754 0.835103 72 28 110 255 
9.25181 -1.20627 0.747405 72 27 109 255 
9.26622 -1.18494 0.674536 72 33 115 255 
9.2968 -1.19723 0.588093 72 28 110 255 
9.33826 -1.21242 0.501746 45 112 142 255 
9.36424 -1.22425 0.413982 31 150 139 255 
9.37909 -1.2027 0.340121 30 157 137 255 
9.37979 -1.21124 0.250961 31 156 137 255 
9.36976 -1.21818 0.161627 31 150 139 255 
9.36954 -1.22826 0.0742194 32 146 140 255 
9.36709 -1.20282 -0.00164829 41 121 142 255 
9.36736 -1.21296 -0.0906737 50 100 142 255 
9.37796 -1.22257 -0.178287 36 134 142 255 
9.39044 -1.23433 -0.267864 38 129 142 255 
9.393 -1.21114 -0.343967 31 149 139 255 
9.39034 -1.21927 -0.431648 33 142 141 255 
9.3999 -1.2271 -0.521697 37 132 142 255 
9.41408 -1.23911 -0.612368 36 135 142 255 
9.41489 -1.21563 -0.688797 34 141 141 255 
9.39995 -1.22385 -0.776008 35 136 142 255 
9.47515 -1.24197 -0.873046 39 128 142 255 
9.44519 -1.2432 -0.960963 50 101 142 255 
9.16162 -1.18779 -1.00686 67 62 133 255 
8.53649 -1.11295 -1.02043 68 59 132 255 
8.04765 -1.05628 -1.03977 70 50 126 255 
7.5654 -0.99846 -1.05074 66 63 133 255 
7.16782 -0.933111 -1.05578 63 71 136 255 
6.76933 -0.884956 -1.06175 64 69 136 255 
6.43098 -0.845232 -1.07031 64 70 136 255 
6.16809 -0.814047 -1.08808 64 70 136 255 
5.88468 -0.770242 -1.08925 61 77 138 255 
5.63486 -0.739647 -1.09647 61 77 138 255 
5.41416 -0.71159 -1.10802 58 84 140 255 
5.17795 -0.682453 -1.11298 62 73 137 255 
5.01971 -0.659697 -1.12334 60 80 139 255 
4.79368 -0.630933 -1.11981 60 79 138 255 
4.59381 -0.605402 -1.12011 66 65 134 255 
4.41931 -0.580898 -1.12457 69 56 130 255 
4.29115 -0.567752 -1.13154 66 64 134 255 
4.12367 -0.545676 -1.12858 68 59 132 255 
4.00204 -0.528125 -1.13772 70 51 127 255 
3.76611 -0.493701 -1.11287 72 36 117 255 
10.2919 -1.38399 3.11948 66 64 134 255 
10.5406 -1.40822 3.07544 63 71 136 255 
13.1571 -1.75299 3.6985 71 46 124 255 
12.9325 -1.72334 3.50322 72 36 117 255 
11.6553 -1.56112 3.05213 70 52 128 255 
11.1849 -1.49629 2.80937 72 37 118 255 
17.187 -2.30213 4.14068 72 38 119 255 
18.6256 -2.49849 4.30404 71 14 97 255 
11.8123 -1.58005 2.62895 66 64 134 255 
11.556 -1.54799 2.45061 61 78 138 255 
9.23565 -1.242 1.86715 72 33 115 255 
9.2451 -1.24672 1.77956 72 29 111 255 
9.25346 -1.23778 1.70335 72 27 109 255 
9.22875 -1.23788 1.60668 72 31 112 255 
9.24471 -1.24651 1.51755 72 28 110 255 
9.2598 -1.25692 1.43328 72 24 106 255 
9.21917 -1.23483 1.35031 72 26 108 255 
9.22525 -1.23905 1.26016 72 26 108 255 
9.25695 -1.25309 1.17512 72 20 103 255 
9.24655 -1.2584 1.08798 71 17 100 255 
9.29598 -1.24511 1.01723 72 23 105 255 
9.26451 -1.24926 0.924852 71 19 101 255 
9.28175 -1.2581 0.837597 72 20 103 255 
9.25312 -1.26423 0.748124 71 19 101 255 
9.22912 -1.2378 0.672376 72 26 108 255 
9.31499 -1.25772 0.589721 72 23 105 255 
9.33955 -1.27091 0.502225 53 94 141 255 
9.39417 -1.28683 0.415647 37 133 142 255 
9.39134 -1.26289 0.34084 33 143 141 255 
9.38407 -1.27038 0.25128 35 136 142 255 
9.39282 -1.27983 0.162157 36 134 142 255 
9.42127 -1.29389 0.0746906 35 137 142 255 
9.38926 -1.26427 -0.00165352 37 132 142 255 
9.3855 -1.27391 -0.0909233 40 124 142 255 
9.4109 -1.28564 -0.17906 52 96 141 255 
9.41537 -1.29642 -0.268797 46 111 142 255 
9.40519 -1.27142 -0.344692 35 136 142 255 
9.42822 -1.28306 -0.433743 37 133 142 255 
9.42682 -1.28949 -0.52362 38 130 142 255 
9.43991 -1.30148 -0.614556 37 131 142 255 
9.43493 -1.27712 -0.690823 37 132 142 255 
9.43275 -1.28703 -0.779353 38 129 142 255 
9.48314 -1.30225 -0.874502 41 123 142 255 
9.44724 -1.30249 -0.961967 52 96 141 255 
9.14135 -1.24225 -1.00545 66 65 134 255 
8.52753 -1.16504 -1.0202 66 63 133 255 
8.06558 -1.10902 -1.04295 69 55 129 255 
7.57483 -1.04703 -1.05293 68 59 132 255 
7.16392 -0.977342 -1.05607 62 73 137 255 
6.80293 -0.931839 -1.06789 63 72 137 255 
6.45109 -0.888175 -1.07454 65 68 135 255 
6.1659 -0.852283 -1.08859 65 68 135 255 
5.88374 -0.80687 -1.08997 62 74 137 255 
5.65161 -0.777151 -1.10064 57 85 140 255 
5.39804 -0.743193 -1.10563 61 78 138 255 
5.17657 -0.714612 -1.11361 60 79 138 255 
5.00396 -0.688887 -1.12074 61 77 138 255 
4.81674 -0.66406 -1.12613 58 83 139 255 
4.5852 -0.632913 -1.11894 65 68 135 255 
4.43295 -0.610384 -1.12897 66 63 133 255 
4.27704 -0.59261 -1.12875 66 65 134 255 
4.12598 -0.571763 -1.13015 66 63 133 255 
3.97584 -0.549508 -1.13121 70 52 128 255 
3.79723 -0.521501 -1.12299 71 45 123 255 
10.3212 -1.45246 3.13098 61 78 138 255 
10.3462 -1.44692 3.02127 61 77 138 255 
10.8849 -1.5183 3.06235 67 62 133 255 
11.6342 -1.62304 3.15417 71 47 125 255 
11.4883 -1.61057 3.01093 67 62 133 255 
15.1714 -2.12442 3.81387 72 26 108 255 
15.2875 -2.14327 3.68615 71 44 122 255 
11.8306 -1.66095 2.73615 72 38 119 255 
12.3874 -1.73442 2.75928 71 42 122 255 
11.87 -1.66425 2.51931 72 28 110 255 
9.25601 -1.30261 1.87285 72 33 115 255 
9.22949 -1.30233 1.77806 72 20 103 255 
9.2457 -1.29453 1.70335 71 17 100 255 
9.23464 -1.2964 1.60906 72 24 106 255 
9.22125 -1.301 1.51498 72 23 105 255 
9.24605 -1.31288 1.43237 72 24 106 255 
9.28688 -1.30195 1.36137 72 27 109 255 
9.22729 -1.29701 1.2615 72 24 106 255 
9.28936 -1.31557 1.18024 72 26 108 255 
9.25439 -1.31736 1.08983 72 26 108 255 
9.33543 -1.30876 1.0224 72 24 106 255 
9.28525 -1.31011 0.927707 72 23 105 255 
9.2916 -1.31754 0.8392 72 27 109 255 
9.29551 -1.32817 0.752196 72 26 108 255 
9.3142 -1.30743 0.679146 72 27 109 255 
9.36936 -1.32365 0.593665 72 27 109 255 
9.37706 -1.33467 0.504672 43 116 142 255 
9.41774 -1.34898 0.417048 31 148 140 255 
9.43388 -1.32759 0.342674 30 157 137 255 
9.42163 -1.33439 0.2525 30 155 138 255 
9.41647 -1.34195 0.162705 31 150 139 255 
9.43988 -1.35551 0.0749027 31 148 140 255 
9.43876 -1.32995 -0.00166365 31 150 139 255 
9.4379 -1.34005 -0.0915088 31 149 139 255 
9.42758 -1.34689 -0.179531 33 144 141 255 
9.41515 -1.35531 -0.269023 48 106 142 255 
9.42591 -1.33317 -0.345745 31 148 140 255 
9.435 -1.343 -0.434426 33 144 141 255 
9.44344 -1.35084 -0.524994 35 138 141 255 
9.45446 -1.36265 -0.616036 35 137 142 255 
9.4437 -1.33736 -0.692054 33 143 141 255 
9.45921 -1.34981 -0.782209 33 142 141 255 
9.48877 -1.3624 -0.875775 39 126 142 255 
9.4568 -1.36299 -0.963774 56 88 140 255 
9.14832 -1.30041 -1.00708 68 58 131 255 
8.52317 -1.21776 -1.02055 65 68 135 255 
8.06353 -1.1592 -1.04358 69 56 130 255 
7.59473 -1.09732 -1.05661 65 66 135 255 
7.14016 -1.01876 -1.05347 63 72 137 255 
6.81176 -0.975665 -1.0702 65 66 135 255 
6.4377 -0.926617 -1.07324 64 70 136 255 
6.14886 -0.88841 -1.08653 66 63 133 255 
5.88841 -0.844353 -1.09178 61 78 138 255 
5.64965 -0.812233 -1.1012 59 82 139 255 
5.39532 -0.77658 -1.10603 62 74 137 255 
5.18177 -0.747759 -1.11569 60 80 139 255 
4.99095 -0.718326 -1.11879 60 79 138 255 
4.80293 -0.692213 -1.12387 62 73 137 255 
4.60047 -0.663812 -1.12364 65 66 135 255 
4.43296 -0.638125 -1.12995 65 66 135 255 
4.2762 -0.619259 -1.12951 66 64 134 255 
4.13099 -0.598314 -1.13251 66 65 134 255 
3.97144 -0.573756 -1.13093 68 59 132 255 
3.80536 -0.546427 -1.12636 71 45 123 255 
10.3111 -1.51562 3.1307 55 90 140 255 
10.6879 -1.56163 3.12378 54 92 141 255 
11.0489 -1.61034 3.1112 59 81 139 255 
10.8805 -1.58602 2.95241 71 16 99 255 
11.8957 -1.74218 3.12046 72 33 115 255 
16.0971 -2.35485 4.05014 72 27 109 255 
15.276 -2.23731 3.68662 71 19 101 255 
15.3028 -2.24426 3.54231 72 20 103 255 
11.8248 -1.72969 2.63627 70 51 127 255 
12.2691 -1.79704 2.60632 72 33 115 255 
9.28665 -1.36508 1.88071 72 33 115 255 
9.27089 -1.36624 1.78762 66 64 134 255 
9.24342 -1.35209 1.70443 72 33 115 255 
9.30842 -1.36505 1.62335 72 35 116 255 
9.28633 -1.36835 1.52702 72 36 117 255 
9.29746 -1.37843 1.44162 72 35 116 255 
9.30026 -1.36206 1.36453 72 28 110 255 
9.31132 -1.36713 1.27411 72 31 112 255 
9.30663 -1.37632 1.18348 72 36 117 255 
9.26775 -1.37733 1.09238 72 35 116 255 
9.34591 -1.36875 1.02445 72 36 117 255 
9.34202 -1.37664 0.934205 72 36 117 255 
9.34443 -1.38357 0.844722 72 36 117 255 
9.28719 -1.38518 0.752196 72 31 112 255 
9.30304 -1.36413 0.67893 72 32 113 255 
9.36106 -1.38111 0.593665 72 36 117 255 
9.39437 -1.39599 0.506056 40 125 142 255 
9.41225 -1.40719 0.417179 31 153 138 255 
9.4305 -1.38618 0.342853 31 161 135 255 
9.41919 -1.39305 0.252659 31 153 138 255 
9.41696 -1.40103 0.162859 31 150 139 255 
9.42249 -1.41207 0.074832 31 154 138 255 
9.43933 -1.38915 -0.00166522 31 156 137 255 
9.4295 -1.39794 -0.0915088 31 148 140 255 
9.41321 -1.40383 -0.179418 33 142 141 255 
9.41456 -1.41424 -0.269249 35 138 141 255 
9.42348 -1.39186 -0.345963 43 117 142 255 
9.42362 -1.40043 -0.43429 34 139 141 255 
9.43596 -1.40891 -0.525049 35 136 142 255 
9.44395 -1.42034 -0.615907 37 132 142 255 
9.44222 -1.3963 -0.69256 34 139 141 255 
9.44878 -1.40754 -0.782046 33 142 141 255 
9.48713 -1.42162 -0.876412 39 127 142 255 
9.45809 -1.42247 -0.964777 59 82 139 255 
9.14607 -1.3574 -1.00773 64 70 136 255 
8.55875 -1.27648 -1.02573 68 59 132 255 
8.04744 -1.20733 -1.04244 69 55 129 255 
7.60059 -1.14581 -1.05838 67 62 133 255 
7.16705 -1.06751 -1.05839 65 68 135 255 
6.80858 -1.01788 -1.07066 68 59 132 255 
6.42799 -0.965514 -1.07259 63 71 136 255 
6.14134 -0.925828 -1.08618 65 66 135 255 
5.88312 -0.880468 -1.09178 60 80 139 255 
5.65233 -0.848049 -1.10272 58 83 139 255 
5.37107 -0.806759 -1.10205 62 74 137 255 
5.18288 -0.780413 -1.11694 62 76 138 255 
4.97293 -0.746906 -1.11576 62 76 138 255 
4.81882 -0.724712 -1.12861 60 79 138 255 
4.60496 -0.69333 -1.12575 60 79 138 255 
4.45677 -0.66949 -1.13704 66 64 134 255 
4.27041 -0.645196 -1.12901 63 72 137 255 
4.14346 -0.626101 -1.13696 66 64 134 255 
3.9707 -0.598544 -1.13175 68 59 132 255 
3.84559 -0.576309 -1.1393 69 56 130 255 
10.3745 -1.59003 3.15285 51 98 141 255 
11.0418 -1.6826 3.23019 71 45 123 255 
10.6284 -1.61571 2.99552 57 86 140 255 
10.6691 -1.62212 2.8977 68 58 131 255 
11.9279 -1.82172 3.13177 71 44 122 255 
19.1674 -2.92423 4.82707 71 16 99 255 
14.5456 -2.22159 3.51359 72 26 108 255 
17.8133 -2.72419 4.12722 71 17 100 255 
11.8768 -1.81179 2.65028 68 59 132 255 
17.5766 -2.68468 3.73721 72 26 108 255 
9.32462 -1.42917 1.89014 34 139 141 255 
9.34 -1.43503 1.80261 31 150 139 255 
9.34776 -1.42599 1.72525 31 149 139 255 
9.35441 -1.43048 1.63287 31 149 139 255 
9.3402 -1.43489 1.5373 33 145 140 255 
9.32985 -1.44179 1.44799 43 117 142 255 
9.27412 -1.41641 1.36195 72 33 115 255 
9.31157 -1.42559 1.27532 72 33 115 255 
9.30782 -1.43491 1.18473 72 37 118 255 
9.3082 -1.44177 1.09817 72 40 120 255 
9.34913 -1.42787 1.02575 72 35 116 255 
9.3452 -1.43575 0.935386 72 38 119 255 
9.31608 -1.43785 0.842941 72 35 116 255 
9.2667 -1.4403 0.751238 72 28 110 255 
9.28069 -1.41907 0.677921 72 35 116 255 
9.33268 -1.43549 0.592413 72 36 117 255 
9.38859 -1.45407 0.506215 44 115 142 255 
9.40541 -1.46522 0.417267 31 152 139 255 
9.41688 -1.44326 0.342674 31 160 136 255 
9.4164 -1.45173 0.252818 31 154 138 255 
9.4072 -1.45863 0.162841 30 155 138 255 
9.40772 -1.46894 0.0747848 31 152 139 255 
9.41975 -1.44538 -0.0016633 31 153 138 255 
9.41185 -1.45439 -0.0914224 31 148 140 255 
9.42022 -1.46402 -0.17972 32 147 140 255 
9.4225 -1.47461 -0.269729 34 141 141 255 
9.42563 -1.45132 -0.346362 45 113 142 255 
9.41485 -1.45822 -0.43429 34 141 141 255 
9.43602 -1.46816 -0.525544 34 141 141 255 
9.44294 -1.4795 -0.616422 35 138 141 255 
9.43644 -1.45467 -0.692777 33 143 141 255 
9.43012 -1.46396 -0.78123 35 137 142 255 
9.48118 -1.48027 -0.876685 39 127 142 255 
9.45509 -1.4814 -0.965379 61 77 138 255 
9.13757 -1.41349 -1.00773 68 59 132 255 
8.57726 -1.33309 -1.02891 69 55 129 255 
8.03596 -1.25607 -1.04193 68 59 132 255 
7.57776 -1.18997 -1.0562 67 61 132 255 
7.16916 -1.11284 -1.05969 62 74 137 255 
6.80806 -1.06055 -1.07158 65 66 135 255 
6.44047 -1.00784 -1.07568 62 74 137 255 
6.13068 -0.962729 -1.08532 66 65 134 255 
5.88538 -0.917761 -1.09322 61 78 138 255 
5.63926 -0.881502 -1.1012 61 78 138 255 
5.39119 -0.84364 -1.10722 58 83 139 255 
5.16447 -0.810078 -1.11403 61 77 138 255 
4.975 -0.778462 -1.11727 60 79 138 255 
4.82872 -0.756528 -1.13199 59 82 139 255 
4.61406 -0.723681 -1.12904 62 73 137 255 
4.45258 -0.696824 -1.13704 64 70 136 255 
4.28166 -0.673793 -1.13305 63 71 136 255 
4.1424 -0.651964 -1.13775 65 66 135 255 
3.97836 -0.624688 -1.135 67 61 132 255 
3.83629 -0.599006 -1.13761 68 57 131 255 
10.4251 -1.66331 3.17126 57 86 140 255 
10.6736 -1.69357 3.12545 66 64 134 255 
10.6335 -1.6833 2.99981 52 96 141 255 
10.7134 -1.69616 2.91248 56 88 140 255 
13.857 -2.20344 3.64175 72 31 112 255 
14.2145 -2.25794 3.58316 72 20 103 255 
18.8601 -2.99909 4.56014 71 42 122 255 
12.136 -1.93223 2.81451 72 40 120 255 
11.8625 -1.88417 2.64963 61 77 138 255 
17.786 -2.82845 3.78535 72 27 109 255 
9.32729 -1.48821 1.8925 34 139 141 255 
9.33587 -1.49309 1.80355 35 138 141 255 
9.33883 -1.48332 1.72525 34 141 141 255 
9.33768 -1.48661 1.63151 33 143 141 255 
9.35656 -1.49623 1.54147 32 147 140 255 
9.3384 -1.50184 1.45072 33 143 141 255 
9.34833 -1.4865 1.37416 30 155 138 255 
9.33103 -1.48722 1.27921 34 140 141 255 
9.31549 -1.49466 1.18685 45 113 142 255 
9.33448 -1.50455 1.10234 49 104 142 255 
9.37652 -1.49098 1.02974 48 106 142 255 
9.34604 -1.49463 0.936371 72 31 112 255 
9.29528 -1.49309 0.841872 72 31 112 255 
9.32164 -1.50748 0.756428 72 29 111 255 
9.31121 -1.48226 0.680802 72 32 113 255 
9.32271 -1.49257 0.59235 72 33 115 255 
9.37949 -1.51165 0.506215 49 103 142 255 
9.41597 -1.5261 0.418143 32 146 140 255 
9.4266 -1.504 0.343357 31 160 136 255 
9.4231 -1.51202 0.253243 31 156 137 255 
9.41189 -1.51856 0.163081 31 149 139 255 
9.40642 -1.52792 0.0748477 33 142 141 255 
9.41268 -1.50346 -0.00166365 31 149 139 255 
9.41657 -1.51434 -0.0915568 34 140 141 255 
9.42784 -1.52451 -0.18004 33 144 141 255 
9.42511 -1.53433 -0.270069 38 130 142 255 
9.42642 -1.51071 -0.346725 32 146 140 255 
9.41164 -1.51692 -0.434563 50 102 142 255 
9.44753 -1.52938 -0.526697 38 129 142 255 
9.46422 -1.54239 -0.618417 40 124 142 255 
9.45688 -1.51728 -0.694948 34 140 141 255 
9.4367 -1.52433 -0.782536 38 130 142 255 
9.50042 -1.54305 -0.879324 37 132 142 255 
9.53223 -1.55347 -0.974211 55 91 141 255 
9.12087 -1.46827 -1.00686 62 74 137 255 
8.56205 -1.38458 -1.02809 66 63 133 255 
8.04279 -1.30774 -1.04384 68 58 131 255 
7.56738 -1.23597 -1.05579 66 64 134 255 
7.15243 -1.15523 -1.05824 66 65 134 255 
6.81703 -1.10483 -1.07404 62 76 138 255 
6.44585 -1.04924 -1.07764 59 81 139 255 
6.13632 -1.00223 -1.08739 63 72 137 255 
5.88838 -0.955274 -1.09485 61 78 138 255 
5.63278 -0.915929 -1.10101 60 80 139 255 
5.39075 -0.877491 -1.10822 62 73 137 255 
5.1594 -0.841752 -1.11403 62 76 138 255 
4.98748 -0.811797 -1.12117 59 82 139 255 
4.82783 -0.786769 -1.13289 61 77 138 255 
4.61049 -0.752135 -1.12928 66 64 134 255 
4.44535 -0.723664 -1.13631 66 65 134 255 
4.28508 -0.701302 -1.13508 65 66 135 255 
4.13356 -0.676589 -1.13644 63 72 137 255 
3.98966 -0.651569 -1.13934 66 64 134 255 
3.8316 -0.62238 -1.13733 66 63 133 255 
10.6377 -1.76423 3.23916 63 72 137 255 
10.5521 -1.74074 3.09294 72 37 118 255 
10.6591 -1.75446 3.01001 62 73 137 255 
10.7151 -1.76391 2.91585 65 66 135 255 
13.9339 -2.30342 3.66562 72 36 117 255 
10.5545 -1.74302 2.66321 72 35 116 255 
18.8299 -3.11286 4.55735 71 45 123 255 
12.7374 -2.10821 2.95695 70 48 126 255 
18.5979 -3.07109 4.1582 72 36 117 255 
12.3605 -2.04348 2.63327 72 22 104 255 
9.32959 -1.54734 1.89485 38 130 142 255 
9.35367 -1.55485 1.80879 35 138 141 255 
9.33441 -1.5414 1.72615 35 138 141 255 
9.34879 -1.54726 1.63508 33 144 141 255 
9.37057 -1.5575 1.54533 35 136 142 255 
9.35825 -1.564 1.45526 37 133 142 255 
9.34977 -1.54561 1.37574 33 145 140 255 
9.35007 -1.54914 1.2831 34 139 141 255 
9.34725 -1.55865 1.1921 44 115 142 255 
9.36916 -1.56918 1.10755 37 133 142 255 
9.38093 -1.55076 1.03125 52 96 141 255 
9.3308 -1.55097 0.93578 66 65 134 255 
9.2771 -1.54862 0.84107 72 29 111 255 
9.32107 -1.56613 0.757147 71 19 101 255 
9.33146 -1.54425 0.682963 71 19 101 255 
9.31436 -1.54991 0.592413 72 23 105 255 
9.39072 -1.57264 0.507333 49 104 142 255 
9.43894 -1.58932 0.419588 33 145 140 255 
9.431 -1.5641 0.34386 33 144 141 255 
9.44915 -1.57573 0.254198 34 141 141 255 
9.44775 -1.58388 0.163868 33 142 141 255 
9.44124 -1.59309 0.0752011 34 139 141 255 
9.42498 -1.56479 -0.00166749 37 133 142 255 
9.43176 -1.57621 -0.0917968 35 137 142 255 
9.43803 -1.58564 -0.180417 35 138 141 255 
9.44903 -1.59779 -0.27103 38 130 142 255 
9.44556 -1.57328 -0.347777 36 135 142 255 
9.4258 -1.5786 -0.435656 44 115 142 255 
9.46258 -1.59146 -0.528071 40 125 142 255 
9.48606 -1.60576 -0.620477 34 139 141 255 
9.46903 -1.57889 -0.696541 36 134 142 255 
9.45273 -1.5865 -0.784657 35 136 142 255 
9.51925 -1.60612 -0.881962 38 129 142 255 
9.60787 -1.62638 -0.982943 61 78 138 255 
9.08522 -1.51977 -1.00394 69 55 129 255 
8.55144 -1.43676 -1.02785 64 69 136 255 
8.04537 -1.35888 -1.04523 66 63 133 255 
7.57431 -1.28486 -1.05784 65 68 135 255 
7.16375 -1.2022 -1.06099 64 69 136 255 
6.81889 -1.14812 -1.07542 61 77 138 255 
6.45096 -1.09074 -1.07959 62 76 138 255 
6.1252 -1.03904 -1.08653 65 66 135 255 
5.87756 -0.990569 -1.09395 63 72 137 255 
5.62318 -0.94982 -1.10026 60 80 139 255 
5.38237 -0.910061 -1.10762 61 78 138 255 
5.1686 -0.875844 -1.11715 61 77 138 255 
4.99107 -0.843849 -1.12312 62 74 137 255 
4.80082 -0.812638 -1.1277 60 80 139 255 
4.61729 -0.782359 -1.1321 62 74 137 255 
4.44369 -0.751411 -1.13704 66 65 134 255 
4.27402 -0.726447 -1.13331 62 73 137 255 
4.11887 -0.70016 -1.13356 65 68 135 255 
3.97704 -0.674588 -1.1369 63 71 136 255 
3.84096 -0.648114 -1.14127 66 65 134 255 
10.4719 -1.80282 3.19197 61 78 138 255 
10.5289 -1.80334 3.08933 61 77 138 255 
10.9899 -1.87825 3.10664 62 73 137 255 
10.6955 -1.82816 2.91351 59 81 139 255 
10.7065 -1.83746 2.8195 71 45 123 255 
10.5647 -1.81136 2.66853 62 74 137 255 
18.5046 -3.17585 4.48326 72 22 104 255 
12.7675 -2.19376 2.96699 72 37 118 255 
12.0522 -2.06623 2.69745 72 40 120 255 
18.1116 -3.10857 3.86248 71 19 101 255 
9.33538 -1.60722 1.898 38 130 142 255 
9.37009 -1.61673 1.81385 33 143 141 255 
9.37229 -1.60679 1.73494 34 141 141 255 
9.37992 -1.6116 1.64222 31 148 140 255 
9.38223 -1.61865 1.54886 31 151 139 255 
9.38841 -1.62831 1.46148 31 150 139 255 
9.39766 -1.61283 1.38422 31 152 139 255 
9.38923 -1.61489 1.28981 40 124 142 255 
9.38346 -1.62393 1.19796 31 148 140 255 
9.40045 -1.63378 1.11241 33 145 140 255 
9.41925 -1.61653 1.03653 45 113 142 255 
9.41329 -1.6241 0.945035 31 156 137 255 
9.40973 -1.63016 0.853985 32 146 140 255 
9.36529 -1.63271 0.761539 49 104 142 255 
9.32574 -1.60216 0.683251 72 32 113 255 
9.38041 -1.62011 0.597235 72 33 115 255 
9.40746 -1.63484 0.508769 44 114 142 255 
9.43787 -1.64875 0.419982 31 150 139 255 
9.43895 -1.62499 0.344507 31 156 137 255 
9.45407 -1.63623 0.254596 30 155 138 255 
9.45362 -1.64456 0.164141 31 152 139 255 
9.45887 -1.65582 0.075421 32 146 140 255 
9.43886 -1.62667 -0.00167168 32 146 140 255 
9.46132 -1.64089 -0.0921808 31 148 140 255 
9.43994 -1.64558 -0.180643 33 143 141 255 
9.45874 -1.6592 -0.271595 32 146 140 255 
9.46034 -1.63547 -0.348685 31 148 140 255 
9.45727 -1.64359 -0.437568 32 146 140 255 
9.46739 -1.65207 -0.528895 46 109 142 255 
9.49373 -1.66704 -0.621635 33 145 140 255 
9.48668 -1.64172 -0.698567 33 145 140 255 
9.4762 -1.65028 -0.787431 33 143 141 255 
9.53767 -1.66948 -0.884601 34 140 141 255 
9.61927 -1.68908 -0.985151 60 80 139 255 
9.08356 -1.57685 -1.0048 69 55 129 255 
8.54931 -1.4904 -1.02867 65 66 135 255 
8.02125 -1.40548 -1.0432 65 66 135 255 
7.61116 -1.33921 -1.06411 68 58 131 255 
7.15819 -1.24647 -1.06128 62 74 137 255 
6.81172 -1.18994 -1.07542 62 73 137 255 
6.44415 -1.1303 -1.07959 61 78 138 255 
6.12744 -1.07814 -1.08808 62 73 137 255 
5.84811 -1.02255 -1.08961 60 80 139 255 
5.654 -0.990745 -1.10746 58 83 139 255 
5.38633 -0.944763 -1.10961 58 84 140 255 
5.16506 -0.90788 -1.11757 58 83 139 255 
4.99445 -0.875975 -1.12507 58 83 139 255 
4.78519 -0.840227 -1.12522 63 72 137 255 
4.60762 -0.809834 -1.13092 62 74 137 255 
4.44569 -0.779836 -1.13876 62 74 137 255 
4.28663 -0.755682 -1.13786 62 76 138 255 
4.1297 -0.728101 -1.13775 62 74 137 255 
3.95008 -0.694975 -1.13039 66 64 134 255 
3.86527 -0.676633 -1.1497 65 68 135 255 
10.438 -1.863 3.18507 60 80 139 255 
10.53 -1.8701 3.09294 59 81 139 255 
11.0209 -1.95321 3.11872 61 78 138 255 
12.7335 -2.25699 3.47236 72 33 115 255 
10.7074 -1.90532 2.82276 56 89 140 255 
10.5801 -1.8809 2.67529 61 77 138 255 
18.1994 -3.23855 4.41405 72 22 104 255 
13.8516 -2.46763 3.22239 72 26 108 255 
12.0623 -2.14425 2.70262 71 19 101 255 
17.4226 -3.10048 3.71953 72 33 115 255 
9.34465 -1.66791 1.90193 41 123 142 255 
9.3803 -1.67782 1.81779 31 148 140 255 
9.37775 -1.66702 1.73781 32 147 140 255 
9.39216 -1.6731 1.64613 31 150 139 255 
9.37893 -1.67741 1.54999 31 153 138 255 
9.38992 -1.68799 1.4633 31 154 138 255 
9.4061 -1.67375 1.38695 31 160 136 255 
9.3967 -1.6756 1.29222 35 138 141 255 
9.40457 -1.68708 1.20196 31 154 138 255 
9.40394 -1.69389 1.11403 32 146 140 255 
9.41111 -1.67464 1.03675 42 120 142 255 
9.41588 -1.6841 0.946315 31 160 136 255 
9.4172 -1.69104 0.855589 32 147 140 255 
9.3963 -1.69759 0.764893 32 146 140 255 
9.37661 -1.67019 0.687716 48 105 142 255 
9.36538 -1.67676 0.596922 72 40 120 255 
9.40315 -1.6936 0.509088 43 117 142 255 
9.42659 -1.70645 0.419938 31 152 139 255 
9.44159 -1.68516 0.344974 31 158 137 255 
9.44779 -1.69492 0.254702 31 153 138 255 
9.44335 -1.70254 0.164141 31 149 139 255 
9.44755 -1.71365 0.0754132 31 150 139 255 
9.44346 -1.68719 -0.00167429 31 149 139 255 
9.45304 -1.69926 -0.0922 31 150 139 255 
9.44442 -1.70614 -0.180926 32 146 140 255 
9.45133 -1.71774 -0.27168 33 142 141 255 
9.45997 -1.69525 -0.349048 31 148 140 255 
9.45291 -1.70265 -0.437842 31 148 140 255 
9.4502 -1.70888 -0.528511 48 106 142 255 
9.48332 -1.72526 -0.621635 34 139 141 255 
9.48527 -1.70149 -0.699218 32 147 140 255 
9.46786 -1.70875 -0.787594 34 140 141 255 
9.539 -1.7301 -0.885692 35 136 142 255 
9.63907 -1.7536 -0.988262 58 83 139 255 
9.14807 -1.64594 -1.01304 72 41 121 255 
8.54489 -1.54371 -1.02926 66 65 134 255 
8.0359 -1.45893 -1.04625 65 66 135 255 
7.58721 -1.38304 -1.06193 67 61 132 255 
7.17183 -1.29424 -1.06446 62 73 137 255 
6.80915 -1.23259 -1.07619 62 76 138 255 
6.44389 -1.17106 -1.08073 60 80 139 255 
6.14009 -1.11925 -1.09152 64 70 136 255 
5.86786 -1.06315 -1.09449 59 82 139 255 
5.58791 -1.01454 -1.09571 62 74 137 255 
5.3814 -0.97797 -1.10981 60 80 139 255 
5.1565 -0.93903 -1.11694 61 78 138 255 
4.96785 -0.902764 -1.12031 60 79 138 255 
4.77036 -0.867828 -1.12297 62 76 138 255 
4.59778 -0.83722 -1.12975 59 81 139 255 
4.44749 -0.808313 -1.14047 65 68 135 255 
4.27716 -0.781101 -1.13659 64 69 136 255 
4.1394 -0.756028 -1.14168 62 73 137 255 
3.96278 -0.722306 -1.13528 65 68 135 255 
3.84971 -0.698282 -1.14633 64 69 136 255 
10.416 -1.9251 3.18191 62 73 137 255 
16.9721 -3.12175 4.99072 72 41 121 255 
11.6785 -2.14376 3.30849 72 41 121 255 
11.5595 -2.12215 3.15572 72 41 121 255 
10.7003 -1.97186 2.82402 70 52 128 255 
10.5226 -1.93735 2.6637 55 91 141 255 
13.8833 -2.5585 3.37098 71 45 123 255 
10.648 -1.96439 2.47986 72 31 112 255 
19.0223 -3.50201 4.26677 71 47 125 255 
17.3802 -3.20307 3.71459 71 19 101 255 
9.33424 -1.72522 1.90193 64 69 136 255 
9.37755 -1.73678 1.81929 32 146 140 255 
9.37218 -1.72542 1.73871 31 150 139 255 
9.37881 -1.73016 1.64562 31 154 138 255 
9.37234 -1.73564 1.55063 31 149 139 255 
9.37938 -1.74557 1.4633 31 156 137 255 
9.38786 -1.73 1.3858 32 147 140 255 
9.38722 -1.7334 1.29236 31 152 139 255 
9.38917 -1.74384 1.20133 32 146 140 255 
9.39141 -1.7512 1.1138 32 147 140 255 
9.39772 -1.73182 1.03642 42 119 142 255 
9.40635 -1.74203 0.946413 31 151 139 255 
9.40762 -1.74897 0.855678 31 148 140 255 
9.39354 -1.75668 0.765531 32 146 140 255 
9.41229 -1.7362 0.691101 31 148 140 255 
9.39416 -1.74147 0.599426 31 149 139 255 
9.39945 -1.75254 0.509461 42 120 142 255 
9.41201 -1.76353 0.419763 31 148 140 255 
9.43009 -1.74288 0.344938 31 156 137 255 
9.44115 -1.75359 0.254808 31 151 139 255 
9.43272 -1.76045 0.164141 31 150 139 255 
9.43685 -1.77159 0.0754132 32 146 140 255 
9.44965 -1.7482 -0.00167726 31 150 139 255 
9.44244 -1.75723 -0.0922 32 147 140 255 
9.44656 -1.76644 -0.181171 31 149 139 255 
9.45044 -1.77755 -0.271963 35 138 141 255 
9.45725 -1.75472 -0.349338 31 150 139 255 
9.44523 -1.76117 -0.437978 33 143 141 255 
9.45622 -1.76996 -0.529445 35 136 142 255 
9.46961 -1.78286 -0.621442 39 126 142 255 
9.47367 -1.75947 -0.699146 33 143 141 255 
9.46209 -1.76773 -0.788002 35 136 142 255 
9.55659 -1.79392 -0.888331 34 139 141 255 
9.65746 -1.81823 -0.991273 65 66 135 255 
9.20718 -1.71496 -1.02073 70 51 127 255 
8.54209 -1.59739 -1.03009 67 61 132 255 
8.03849 -1.51041 -1.04777 66 65 134 255 
7.56008 -1.42608 -1.05934 70 48 126 255 
7.1657 -1.33858 -1.06474 61 77 138 255 
6.78981 -1.27216 -1.07435 62 76 138 255 
6.44143 -1.21149 -1.08154 60 79 138 255 
6.1244 -1.15526 -1.08997 64 70 136 255 
5.84963 -1.09696 -1.09232 58 83 139 255 
5.59123 -1.05062 -1.0976 59 82 139 255 
5.38589 -1.01296 -1.112 58 84 140 255 
5.16314 -0.973006 -1.11965 59 81 139 255 
4.97757 -0.936116 -1.12377 57 86 140 255 
4.78218 -0.900327 -1.12703 59 81 139 255 
4.60211 -0.867216 -1.1321 58 83 139 255 
4.45293 -0.837559 -1.14316 62 76 138 255 
4.26848 -0.806612 -1.13558 62 73 137 255 
4.12425 -0.779441 -1.1388 61 78 138 255 
4.00935 -0.756241 -1.14992 62 73 137 255 
3.84535 -0.721891 -1.14633 66 64 134 255 
10.5065 -2.00858 3.21326 59 82 139 255 
11.2225 -2.13547 3.30381 68 58 131 255 
11.9633 -2.272 3.39304 72 29 111 255 
11.2246 -2.13194 3.06781 64 69 136 255 
10.9504 -2.08751 2.89336 70 52 128 255 
10.6363 -2.02585 2.69559 62 74 137 255 
17.6643 -3.36748 4.29397 71 44 122 255 
12.7948 -2.44173 2.98329 72 32 113 255 
14.0496 -2.67577 3.155 72 31 112 255 
12.098 -2.30644 2.58863 72 20 103 255 
9.33022 -1.78375 1.9033 72 33 115 255 
9.36865 -1.79466 1.81966 33 142 141 255 
9.38654 -1.78768 1.74338 31 156 137 255 
9.3777 -1.78952 1.64732 31 150 139 255 
9.37799 -1.79628 1.55336 31 150 139 255 
9.3782 -1.80496 1.46482 31 152 139 255 
9.37804 -1.78776 1.38594 37 131 142 255 
9.38127 -1.7919 1.29303 31 149 139 255 
9.38316 -1.80236 1.20196 32 146 140 255 
9.39122 -1.81086 1.11508 34 141 141 255 
9.4045 -1.7928 1.03836 45 113 142 255 
9.41112 -1.80271 0.947988 31 151 139 255 
9.41139 -1.80948 0.857014 32 146 140 255 
9.40412 -1.81845 0.767288 35 137 142 255 
9.42007 -1.79747 0.692469 31 148 140 255 
9.42545 -1.80716 0.602119 31 152 139 255 
9.41695 -1.81567 0.511004 49 103 142 255 
9.4324 -1.82733 0.421165 36 135 142 255 
9.45063 -1.80672 0.346088 30 155 138 255 
9.45377 -1.81601 0.255444 32 146 140 255 
9.43942 -1.82171 0.164449 37 133 142 255 
9.44936 -1.83403 0.0756017 38 130 142 255 
9.44366 -1.80709 -0.00167813 35 136 142 255 
9.44915 -1.81854 -0.0923728 35 136 142 255 
9.45419 -1.82798 -0.181529 39 128 142 255 
9.46192 -1.83989 -0.272613 40 125 142 255 
9.46888 -1.81705 -0.350173 35 136 142 255 
9.46956 -1.8259 -0.439617 39 127 142 255 
9.47067 -1.83288 -0.530874 44 115 142 255 
9.46437 -1.84208 -0.621828 57 86 140 255 
9.47641 -1.8202 -0.700159 39 126 142 255 
9.4951 -1.83426 -0.791674 41 121 142 255 
9.56691 -1.8567 -0.890332 38 130 142 255 
9.72718 -1.89323 -0.999603 65 66 135 255 
9.2492 -1.78158 -1.02658 69 55 129 255 
8.5409 -1.65147 -1.03115 69 56 130 255 
8.03005 -1.55989 -1.0479 67 61 132 255 
7.55411 -1.47301 -1.05975 70 48 126 255 
7.18067 -1.38703 -1.06821 62 76 138 255 
6.79254 -1.31587 -1.07604 61 77 138 255 
6.42806 -1.24986 -1.08057 62 74 137 255 
6.11429 -1.19225 -1.08945 62 74 137 255 
5.88044 -1.14013 -1.09936 59 82 139 255 
5.60203 -1.08828 -1.10101 58 84 140 255 
5.40266 -1.05048 -1.11677 58 83 139 255 
5.15611 -1.00448 -1.11944 59 82 139 255 
4.97844 -0.967945 -1.12529 55 91 141 255 
4.80908 -0.935981 -1.1347 59 82 139 255 
4.5967 -0.895437 -1.1321 60 80 139 255 
4.43914 -0.8632 -1.14096 64 69 136 255 
4.28624 -0.837239 -1.14165 62 76 138 255 
4.11939 -0.804732 -1.1388 62 76 138 255 
3.97913 -0.775855 -1.1426 65 66 135 255 
3.82201 -0.741815 -1.1407 66 64 134 255 
10.6885 -2.11142 3.27282 49 103 142 255 
18.1899 -3.57706 5.36133 72 23 105 255 
10.3129 -2.0242 2.92841 53 95 141 255 
10.765 -2.11315 2.94567 72 33 115 255 
10.5974 -2.08768 2.80342 68 57 131 255 
10.4618 -2.05921 2.65452 61 78 138 255 
13.2 -2.60046 3.21258 72 31 112 255 
10.6613 -2.10245 2.48879 64 70 136 255 
13.9898 -2.75344 3.14531 72 26 108 255 
30.1634 -5.94258 6.46181 70 11 94 255 
12.4386 -2.45722 2.54042 70 51 127 255 
9.37191 -1.85497 1.82247 39 128 142 255 
9.39567 -1.84923 1.74715 35 137 142 255 
9.38975 -1.8516 1.6514 33 143 141 255 
9.38713 -1.85781 1.55673 34 139 141 255 
9.40088 -1.86921 1.47012 36 135 142 255 
9.38535 -1.8489 1.38867 40 124 142 255 
9.40024 -1.85538 1.29718 35 136 142 255 
9.40891 -1.86724 1.2067 34 139 141 255 
9.41208 -1.87485 1.1189 36 135 142 255 
9.42356 -1.85643 1.04171 45 113 142 255 
9.42331 -1.86506 0.950351 33 142 141 255 
9.43625 -1.87438 0.860309 33 144 141 255 
9.44459 -1.88646 0.77152 32 146 140 255 
9.44018 -1.86141 0.694774 34 140 141 255 
9.45432 -1.87291 0.604686 31 151 139 255 
9.436 -1.87946 0.512653 46 109 142 255 
9.45628 -1.89222 0.422741 33 145 140 255 
9.47074 -1.87087 0.347239 31 149 139 255 
9.48265 -1.88196 0.256532 31 151 139 255 
9.45846 -1.88565 0.164979 32 147 140 255 
9.46931 -1.89826 0.075853 33 145 140 255 
9.47457 -1.87334 -0.00168564 33 142 141 255 
9.47803 -1.88448 -0.0927663 31 148 140 255 
9.48692 -1.89477 -0.182378 33 142 141 255 
9.48867 -1.90559 -0.273716 33 142 141 255 
9.49382 -1.8823 -0.351516 33 142 141 255 
9.5052 -1.89333 -0.441803 32 146 140 255 
9.49645 -1.8984 -0.532962 34 139 141 255 
9.49202 -1.90798 -0.624403 48 105 142 255 
9.50713 -1.88666 -0.703271 34 139 141 255 
9.50517 -1.89678 -0.793469 35 136 142 255 
9.56998 -1.91831 -0.891697 36 134 142 255 
9.73197 -1.95621 -1.00131 66 65 134 255 
9.25077 -1.84082 -1.02799 67 62 133 255 
8.55495 -1.70871 -1.03409 70 52 128 255 
8.03783 -1.61264 -1.05019 67 61 132 255 
7.57503 -1.5254 -1.06398 70 52 128 255 
7.17493 -1.43164 -1.06865 62 73 137 255 
6.795 -1.35965 -1.07773 61 77 138 255 
6.43672 -1.29258 -1.08333 63 71 136 255 
6.13583 -1.23558 -1.09462 60 79 138 255 
5.86562 -1.17464 -1.09792 58 83 139 255 
5.60102 -1.12379 -1.10215 60 79 138 255 
5.39227 -1.08284 -1.11597 55 91 141 255 
5.14122 -1.03436 -1.11757 59 81 139 255 
4.98006 -1.00001 -1.12702 57 85 140 255 
4.79751 -0.964319 -1.13335 58 83 139 255 
4.60256 -0.925926 -1.13492 62 76 138 255 
4.43567 -0.890804 -1.14145 63 72 137 255 
4.28671 -0.864671 -1.14317 62 74 137 255 
4.12856 -0.832856 -1.14272 61 78 138 255 
3.96674 -0.798736 -1.14043 63 72 137 255 
3.82868 -0.767516 -1.14408 62 73 137 255 
10.726 -2.1873 3.28835 54 93 141 255 
18.1422 -3.68344 5.35382 71 44 122 255 
10.2927 -2.08591 2.92627 72 37 118 255 
10.5189 -2.13197 2.88188 72 33 115 255 
10.2012 -2.07473 2.70192 54 92 141 255 
10.371 -2.10752 2.63471 72 38 119 255 
10.272 -2.08918 2.50304 65 68 135 255 
10.4744 -2.13244 2.44816 64 70 136 255 
12.3027 -2.49991 2.7694 70 8 92 255 
30.1398 -6.13028 6.46469 71 16 99 255 
12.357 -2.51998 2.52686 72 35 116 255 
9.40366 -1.92129 1.8309 34 141 141 255 
9.41596 -1.91331 1.75307 33 144 141 255 
9.41297 -1.91626 1.65753 31 148 140 255 
9.41423 -1.92327 1.56315 31 154 138 255 
9.40957 -1.93104 1.47331 31 149 139 255 
9.42425 -1.91671 1.39614 31 149 139 255 
9.42946 -1.92133 1.30282 31 150 139 255 
9.43129 -1.9319 1.21107 31 150 139 255 
9.4325 -1.93917 1.12272 37 131 142 255 
9.43732 -1.91937 1.04451 38 130 142 255 
9.42729 -1.92603 0.951926 31 154 138 255 
9.42945 -1.93324 0.860754 31 149 139 255 
9.44553 -1.94699 0.772558 31 149 139 255 
9.45888 -1.92547 0.697007 31 152 139 255 
9.46123 -1.93468 0.605876 31 160 136 255 
9.45461 -1.94356 0.514303 42 118 142 255 
9.46993 -1.95546 0.42388 31 149 139 255 
9.47083 -1.93134 0.34767 31 154 138 255 
9.47386 -1.94071 0.256611 31 156 137 255 
9.45748 -1.94587 0.165167 31 154 138 255 
9.47119 -1.95917 0.0759629 31 151 139 255 
9.4923 -1.93744 -0.00169087 31 152 139 255 
9.48098 -1.94562 -0.0929103 31 152 139 255 
9.48784 -1.95557 -0.182623 32 146 140 255 
9.49051 -1.96661 -0.274111 33 142 141 255 
9.49286 -1.94272 -0.351915 31 152 139 255 
9.49928 -1.95283 -0.442077 33 145 140 255 
9.49343 -1.95844 -0.533456 34 141 141 255 
9.49382 -1.96902 -0.625304 50 101 142 255 
9.50221 -1.94636 -0.703777 32 146 140 255 
9.49628 -1.95567 -0.793713 35 137 142 255 
9.57266 -1.98002 -0.893062 36 134 142 255 
9.74998 -2.02215 -1.00442 64 70 136 255 
9.22859 -1.89535 -1.0268 63 71 136 255 
8.55792 -1.76398 -1.03574 70 52 128 255 
8.04915 -1.66636 -1.05298 68 58 131 255 
7.57329 -1.57346 -1.06507 69 53 129 255 
7.17183 -1.47684 -1.06951 62 74 137 255 
6.7933 -1.40272 -1.0788 62 73 137 255 
6.47021 -1.34066 -1.09033 61 78 138 255 
6.11463 -1.2704 -1.09221 60 80 139 255 
5.8506 -1.20902 -1.09647 58 84 140 255 
5.59499 -1.15834 -1.10234 60 80 139 255 
5.37209 -1.11312 -1.11319 58 83 139 255 
5.15202 -1.06947 -1.12132 62 76 138 255 
4.97574 -1.03095 -1.12746 57 85 140 255 
4.79532 -0.99453 -1.13425 58 84 140 255 
4.59774 -0.954347 -1.13515 60 79 138 255 
4.42822 -0.91761 -1.14096 64 69 136 255 
4.28417 -0.891548 -1.14393 61 78 138 255 
4.12337 -0.858173 -1.14272 61 77 138 255 
3.98344 -0.827563 -1.14667 61 77 138 255 
3.82108 -0.79041 -1.14323 65 68 135 255 
10.7208 -2.25485 3.29094 62 76 138 255 
10.462 -2.19104 3.09128 61 78 138 255 
10.2656 -2.14606 2.92224 49 103 142 255 
10.3837 -2.17098 2.84842 58 84 140 255 
10.1438 -2.12795 2.69011 57 86 140 255 
10.2097 -2.14006 2.59702 59 82 139 255 
10.2123 -2.14238 2.49166 56 89 140 255 
11.0306 -2.31626 2.58144 72 41 121 255 
30.2697 -6.34442 6.82248 71 17 100 255 
30.3871 -6.37498 6.52598 71 16 99 255 
12.8192 -2.69625 2.6247 71 19 101 255 
9.40612 -1.98199 1.83371 34 141 141 255 
9.42908 -1.9763 1.75774 31 150 139 255 
9.41261 -1.97641 1.65957 31 154 138 255 
9.40515 -1.98161 1.56363 31 152 139 255 
9.41205 -1.9918 1.47558 31 154 138 255 
9.42587 -1.97734 1.39815 30 157 137 255 
9.43107 -1.982 1.3047 34 141 141 255 
9.41926 -1.98974 1.21107 31 154 138 255 
9.41751 -1.99639 1.12237 33 142 141 255 
9.44677 -1.98173 1.04688 37 131 142 255 
9.42893 -1.98671 0.953305 31 152 139 255 
9.43398 -1.99457 0.862269 31 151 139 255 
9.4451 -2.0074 0.773516 31 154 138 255 
9.46056 -1.98634 0.698015 31 159 136 255 
9.45992 -1.99496 0.606564 31 161 136 255 
9.44055 -2.00112 0.514196 44 115 142 255 
9.45971 -2.01395 0.423967 31 154 138 255 
9.46663 -1.99106 0.347958 31 161 135 255 
9.4608 -1.9986 0.256585 30 157 137 255 
9.4483 -2.00448 0.165219 31 148 140 255 
9.46193 -2.01787 0.0759865 31 150 139 255 
9.47436 -1.99441 -0.00168983 31 152 139 255 
9.47375 -2.00479 -0.0929583 31 153 138 255 
9.4786 -2.01437 -0.182679 32 146 140 255 
9.48217 -2.02564 -0.274224 33 142 141 255 
9.48565 -2.00197 -0.352097 31 150 139 255 
9.48419 -2.01046 -0.44194 33 143 141 255 
9.48416 -2.01728 -0.533621 34 139 141 255 
9.48449 -2.02787 -0.625497 39 126 142 255 
9.49204 -2.00504 -0.703922 33 143 141 255 
9.4997 -2.01721 -0.795019 34 140 141 255 
9.56618 -2.03996 -0.893608 35 138 141 255 
9.77631 -2.09026 -1.00843 63 72 137 255 
9.19539 -1.9474 -1.02442 69 53 129 255 
8.55665 -1.81852 -1.03691 70 50 126 255 
8.02811 -1.71344 -1.05159 68 58 131 255 
7.56543 -1.62031 -1.06534 69 53 129 255 
7.16457 -1.52123 -1.0698 61 77 138 255 
6.79713 -1.44705 -1.0808 61 77 138 255 
6.49177 -1.38672 -1.09538 61 77 138 255 
6.09902 -1.30625 -1.09083 61 77 138 255 
5.85365 -1.24715 -1.09846 59 82 139 255 
5.56761 -1.18834 -1.09836 57 86 140 255 
5.34791 -1.14238 -1.10961 57 85 140 255 
5.14631 -1.10127 -1.12153 62 73 137 255 
4.96646 -1.06084 -1.12681 57 86 140 255 
4.79485 -1.02516 -1.1356 58 84 140 255 
4.60225 -0.984777 -1.13774 62 76 138 255 
4.41207 -0.942536 -1.13827 63 71 136 255 
4.26537 -0.914978 -1.14039 63 72 137 255 
4.10859 -0.881433 -1.14011 60 79 138 255 
3.95006 -0.845943 -1.13853 63 72 137 255 
3.81803 -0.814241 -1.1438 66 65 134 255 
10.3333 -2.23964 3.17615 52 96 141 255 
10.2831 -2.21952 3.04238 52 96 141 255 
10.1609 -2.18933 2.8962 49 104 142 255 
10.2475 -2.2082 2.81471 58 83 139 255 
10.0823 -2.17972 2.6773 67 61 132 255 
10.1765 -2.19836 2.59195 65 68 135 255 
10.1714 -2.19904 2.48492 56 88 140 255 
10.0034 -2.16474 2.34413 71 16 99 255 
13.2591 -2.86409 2.99236 71 19 101 255 
12.1076 -2.61774 2.60365 71 17 100 255 
12.9854 -2.81453 2.66222 72 22 104 255 
9.38898 -2.03862 1.83278 39 127 142 255 
9.42062 -2.03495 1.75845 31 148 140 255 
9.40897 -2.036 1.6611 31 150 139 255 
9.3986 -2.04054 1.5646 30 155 138 255 
9.41124 -2.05205 1.4774 31 151 139 255 
9.41356 -2.03514 1.39815 31 153 138 255 
9.40033 -2.03585 1.30215 42 119 142 255 
9.41851 -2.05003 1.21257 31 151 139 255 
9.40606 -2.05435 1.12249 37 131 142 255 
9.44026 -2.04091 1.04753 36 135 142 255 
9.41559 -2.04432 0.953206 31 150 139 255 
9.43227 -2.05475 0.863248 31 151 139 255 
9.45111 -2.06937 0.775034 32 146 140 255 
9.44429 -2.04351 0.697727 31 150 139 255 
9.45628 -2.05488 0.607128 31 161 135 255 
9.43005 -2.05943 0.514303 48 106 142 255 
9.454 -2.07345 0.424274 32 146 140 255 
9.45521 -2.04932 0.347994 31 151 139 255 
9.45031 -2.05704 0.256638 32 146 140 255 
9.45829 -2.06733 0.165612 33 145 140 255 
9.46011 -2.07825 0.0760729 35 138 141 255 
9.47562 -2.05547 -0.00169227 30 155 138 255 
9.473 -2.06544 -0.0930735 33 145 140 255 
9.48364 -2.07634 -0.183018 37 133 142 255 
9.4969 -2.0898 -0.275016 37 131 142 255 
9.48002 -2.06162 -0.352351 32 147 140 255 
9.4785 -2.0701 -0.442259 35 136 142 255 
9.48721 -2.07886 -0.5345 38 129 142 255 
9.50403 -2.09311 -0.627621 39 126 142 255 
9.5049 -2.06876 -0.705804 36 134 142 255 
9.51246 -2.081 -0.79714 40 124 142 255 
9.60989 -2.11101 -0.898884 34 141 141 255 
9.77884 -2.15363 -1.01004 64 70 136 255 
9.24154 -2.0165 -1.03092 69 56 130 255 
8.56764 -1.87587 -1.03962 69 53 129 255 
8.00582 -1.76011 -1.05006 67 62 133 255 
7.56018 -1.66777 -1.06602 70 52 128 255 
7.16283 -1.56685 -1.07096 62 74 137 255 
6.79488 -1.49021 -1.08188 62 74 137 255 
6.46483 -1.4225 -1.09229 57 86 140 255 
6.10243 -1.34619 -1.0929 59 82 139 255 
5.86702 -1.28768 -1.10243 58 84 140 255 
5.58706 -1.22839 -1.10367 56 88 140 255 
5.34367 -1.1758 -1.11021 59 82 139 255 
5.13946 -1.13282 -1.12153 61 78 138 255 
4.957 -1.09067 -1.12616 57 86 140 255 
4.79798 -1.05665 -1.13786 56 89 140 255 
4.59043 -1.01174 -1.13633 58 83 139 255 
4.41378 -0.971257 -1.14022 65 68 135 255 
4.2833 -0.946351 -1.14671 59 82 139 255 
4.11536 -0.909333 -1.14351 59 82 139 255 
3.95607 -0.872652 -1.14179 62 74 137 255 
3.86077 -0.848155 -1.15814 64 69 136 255 
10.2278 -2.28256 3.14796 65 68 135 255 
10.2261 -2.27299 3.0296 58 83 139 255 
10.1209 -2.24579 2.88869 51 99 141 255 
10.097 -2.2407 2.77711 53 95 141 255 
10.0621 -2.24007 2.67554 56 89 140 255 
10.1401 -2.25571 2.58615 50 101 142 255 
10.1948 -2.26965 2.49398 61 78 138 255 
17.5548 -3.91176 4.11919 72 20 103 255 
18.0617 -4.01766 4.08172 71 42 122 255 
18.0615 -4.02117 3.88922 72 20 103 255 
14.9364 -3.33348 3.06634 72 24 106 255 
9.37438 -2.09577 1.8324 40 125 142 255 
9.40891 -2.09293 1.75863 34 141 141 255 
9.41362 -2.09756 1.66416 33 143 141 255 
9.4148 -2.10463 1.56941 33 143 141 255 
9.40812 -2.11192 1.47892 37 133 142 255 
9.41539 -2.09609 1.40031 31 148 140 255 
9.42828 -2.10255 1.30778 35 138 141 255 
9.41059 -2.10886 1.21319 46 111 142 255 
9.41459 -2.11682 1.12504 50 100 142 255 
9.45279 -2.10442 1.05033 41 123 142 255 
9.42909 -2.10791 0.955864 36 134 142 255 
9.44281 -2.11781 0.865386 37 132 142 255 
9.46352 -2.13302 0.77711 39 128 142 255 
9.46175 -2.10814 0.699959 36 135 142 255 
9.45518 -2.11548 0.607879 34 139 141 255 
9.42308 -2.11857 0.514622 54 93 141 255 
9.45767 -2.13516 0.425018 38 130 142 255 
9.48147 -2.116 0.349431 35 137 142 255 
9.4658 -2.12132 0.257407 38 130 142 255 
9.47859 -2.13279 0.166194 39 128 142 255 
9.4901 -2.14596 0.0764185 41 123 142 255 
9.49602 -2.12099 -0.00169821 38 130 142 255 
9.48454 -2.129 -0.0933135 38 130 142 255 
9.49413 -2.13977 -0.183471 38 130 142 255 
9.5034 -2.15245 -0.275581 44 114 142 255 
9.5062 -2.12848 -0.353802 37 133 142 255 
9.51533 -2.1394 -0.444581 39 126 142 255 
9.51908 -2.14714 -0.537028 43 117 142 255 
9.52409 -2.15888 -0.629809 44 114 142 255 
9.51928 -2.13315 -0.70783 41 122 142 255 
9.53938 -2.1483 -0.800485 45 113 142 255 
9.59093 -2.16862 -0.898339 34 141 141 255 
9.82852 -2.22789 -1.01656 64 69 136 255 
9.23191 -2.07383 -1.03124 69 56 130 255 
8.54532 -1.926 -1.03833 71 47 125 255 
8.01615 -1.81401 -1.05286 68 59 132 255 
7.55271 -1.71479 -1.06643 68 57 131 255 
7.18107 -1.61708 -1.07515 66 63 133 255 
6.82513 -1.5408 -1.08818 60 80 139 255 
6.45695 -1.46236 -1.09245 58 84 140 255 
6.10654 -1.38645 -1.09514 59 82 139 255 
5.8523 -1.32214 -1.10117 59 82 139 255 
5.59857 -1.26698 -1.10746 55 91 141 255 
5.36503 -1.21506 -1.11617 57 85 140 255 
5.11906 -1.16131 -1.11861 60 80 139 255 
4.9664 -1.12473 -1.12984 58 83 139 255 
4.7762 -1.08263 -1.13425 56 88 140 255 
4.57845 -1.0386 -1.13492 59 81 139 255 
4.4049 -0.997679 -1.13949 63 71 136 255 
4.27269 -0.971542 -1.14545 58 83 139 255 
4.121 -0.937135 -1.14665 62 76 138 255 
3.95064 -0.896909 -1.14179 62 76 138 255 
3.83302 -0.866748 -1.15139 63 71 136 255 
10.1987 -2.34185 3.14335 49 104 142 255 
10.1568 -2.32305 3.01321 44 113 142 255 
10.1896 -2.32672 2.91231 61 77 138 255 
10.1273 -2.31272 2.7893 52 97 141 255 
10.1831 -2.33267 2.71147 58 84 140 255 
10.1364 -2.32026 2.58881 58 83 139 255 
10.1636 -2.32825 2.4898 70 51 127 255 
17.9361 -4.11241 4.21452 72 37 118 255 
18.031 -4.1271 4.08043 72 26 108 255 
14.8781 -3.40838 3.20818 71 47 125 255 
13.6571 -3.13606 2.8076 71 44 122 255 
9.38527 -2.15875 1.83709 40 125 142 255 
9.41699 -2.15545 1.76258 37 132 142 255 
9.45244 -2.16717 1.67334 34 139 141 255 
9.44692 -2.17276 1.57696 32 146 140 255 
9.45566 -2.18362 1.48847 31 149 139 255 
9.45155 -2.16509 1.40763 33 145 140 255 
9.45094 -2.16856 1.31275 34 141 141 255 
9.45549 -2.17994 1.22068 33 143 141 255 
9.44401 -2.18439 1.13013 39 128 142 255 
9.46684 -2.16859 1.05335 41 123 142 255 
9.46059 -2.17599 0.960393 32 146 140 255 
9.47331 -2.18579 0.869394 31 149 139 255 
9.48424 -2.19892 0.779904 33 145 140 255 
9.49239 -2.17619 0.7032 31 153 138 255 
9.4712 -2.18017 0.609758 31 152 139 255 
9.4819 -2.193 0.518559 46 111 142 255 
9.47261 -2.19971 0.426288 43 116 142 255 
9.50727 -2.18309 0.350869 43 116 142 255 
9.49157 -2.18835 0.258468 42 118 142 255 
9.49163 -2.197 0.166655 44 113 142 255 
9.50012 -2.20959 0.076607 41 123 142 255 
9.51401 -2.18638 -0.00170379 45 113 142 255 
9.50053 -2.19391 -0.0936014 44 114 142 255 
9.48959 -2.20001 -0.18364 44 115 142 255 
9.50364 -2.2139 -0.275977 40 125 142 255 
9.51341 -2.19148 -0.354565 46 109 142 255 
9.51565 -2.2009 -0.445219 44 113 142 255 
9.52615 -2.21024 -0.538182 41 121 142 255 
9.52913 -2.22159 -0.631032 39 127 142 255 
9.53516 -2.19824 -0.710001 46 111 142 255 
9.54252 -2.21062 -0.801873 40 125 142 255 
9.58035 -2.2281 -0.898611 36 134 142 255 
9.88152 -2.30374 -1.02349 65 68 135 255 
9.21804 -2.13021 -1.03113 68 59 132 255 
8.57687 -1.98849 -1.04362 70 48 126 255 
8.02226 -1.86721 -1.05514 66 63 133 255 
7.55748 -1.7647 -1.06861 68 59 132 255 
7.16909 -1.66066 -1.07486 63 72 137 255 
6.80977 -1.58131 -1.08726 62 73 137 255 
6.44977 -1.5024 -1.09278 59 81 139 255 
6.13533 -1.43262 -1.10186 59 81 139 255 
5.82874 -1.35446 -1.09828 61 77 138 255 
5.59356 -1.30198 -1.10802 56 88 140 255 
5.3527 -1.24685 -1.11518 56 89 140 255 
5.14708 -1.20092 -1.12632 62 76 138 255 
4.96796 -1.15718 -1.13179 55 91 141 255 
4.77611 -1.11346 -1.13583 54 92 141 255 
4.57672 -1.06778 -1.13609 58 84 140 255 
4.39775 -1.02447 -1.13924 63 71 136 255 
4.25158 -0.994216 -1.1414 62 73 137 255 
4.11705 -0.962843 -1.14717 61 78 138 255 
3.95444 -0.923322 -1.1445 62 74 137 255 
3.84072 -0.893294 -1.15532 66 64 134 255 
10.1645 -2.39976 3.13731 59 82 139 255 
10.1573 -2.38885 3.01766 54 92 141 255 
10.1001 -2.37158 2.89083 53 95 141 255 
10.1637 -2.38674 2.8033 51 99 141 255 
10.1997 -2.40243 2.71976 58 83 139 255 
10.5168 -2.47535 2.68979 72 26 108 255 
10.0611 -2.36983 2.4682 71 19 101 255 
14.8072 -3.49078 3.48426 71 42 122 255 
14.7041 -3.46069 3.33229 72 36 117 255 
13.5919 -3.20163 2.93502 72 31 112 255 
13.6194 -3.21551 2.80387 72 32 113 255 
