ply
format ascii 1.0
comment VTK generated PLY File
obj_info vtkPolyData points and polygons: vtk4.0
element vertex 1173
property float x
property float y
property float z
property uchar red
property uchar green
property uchar blue
property uchar alpha
element face 0
property list uchar int vertex_indices
end_header
-17.8262 1.39531 3.08533 51 98 141 255 
-17.8392 1.4087 2.91114 52 97 141 255 
-17.8399 1.42471 2.74498 56 89 140 255 
-17.8243 1.39179 2.59546 51 98 141 255 
-17.839 1.39944 2.42251 51 98 141 255 
-17.8021 1.41514 2.24652 53 94 141 255 
-17.8177 1.42918 2.08401 61 78 138 255 
-17.8447 1.39338 1.9413 56 88 140 255 
-17.8054 1.40618 1.76701 57 86 140 255 
-17.8113 1.419 1.59779 59 81 139 255 
-17.8019 1.43728 1.43069 63 72 137 255 
-17.809 1.39371 1.28987 58 83 139 255 
-17.7823 1.40748 1.11914 61 77 138 255 
-17.7776 1.42569 0.950284 65 66 135 255 
-17.7885 1.44244 0.782332 66 63 133 255 
-17.7667 1.39663 0.641026 67 61 132 255 
-17.7916 1.41447 0.473593 68 59 132 255 
-17.7502 1.4266 0.304611 69 56 130 255 
-17.7716 1.44731 0.140043 69 56 130 255 
-17.8028 1.40259 -0.00311681 65 66 135 255 
-17.7606 1.41824 -0.171038 69 56 130 255 
-17.7621 1.4338 -0.335936 70 52 128 255 
-17.7386 1.45085 -0.503357 71 47 125 255 
-17.8541 1.41603 -0.650477 69 53 129 255 
-17.7923 1.42702 -0.813661 69 55 129 255 
-17.753 1.43619 -0.980201 71 46 124 255 
-17.7127 1.45183 -1.14615 70 51 127 255 
-17.7582 1.41153 -1.29256 71 42 122 255 
-17.6615 1.42274 -1.45052 71 46 124 255 
-17.0265 1.38639 -1.56067 72 20 103 255 
-15.043 1.23301 -1.52249 72 28 110 255 
-13.5007 1.08022 -1.47611 72 41 121 255 
-12.2679 0.990406 -1.45891 72 40 120 255 
-11.2108 0.914812 -1.44091 71 42 122 255 
-10.3056 0.848321 -1.42382 69 53 129 255 
-9.59479 0.772752 -1.40598 68 59 132 255 
-8.94476 0.725265 -1.39568 66 64 134 255 
-8.35869 0.683544 -1.38388 66 64 134 255 
-7.83812 0.645208 -1.37543 69 53 129 255 
-7.43981 0.604412 -1.36996 63 71 136 255 
-7.02565 0.573361 -1.35998 64 69 136 255 
-6.62347 0.541644 -1.34843 66 64 134 255 
-6.28328 0.516116 -1.3435 68 58 131 255 
-5.95191 0.486667 -1.325 69 55 129 255 
-5.66262 0.464114 -1.31588 62 76 138 255 
-5.42882 0.445857 -1.31679 66 63 133 255 
-5.18661 0.424214 -1.31293 67 61 132 255 
-5.02735 0.415478 -1.31869 69 56 130 255 
-4.83318 0.399529 -1.31581 66 63 133 255 
-4.66008 0.383541 -1.31784 68 58 131 255 
-4.44195 0.361749 -1.30575 70 50 126 255 
-17.8626 1.5145 5.38507 58 84 140 255 
-17.8713 1.49979 5.18658 59 82 139 255 
-17.8811 1.49418 4.99977 59 82 139 255 
-17.882 1.49461 4.81825 58 83 139 255 
-17.8724 1.50593 4.6552 59 82 139 255 
-17.8724 1.50304 4.46518 60 80 139 255 
-17.8714 1.50593 4.28259 59 81 139 255 
-17.839 1.50666 4.10021 62 73 137 255 
-17.8367 1.49979 3.9486 61 78 138 255 
-17.8406 1.50349 3.76313 56 89 140 255 
-17.8265 1.51154 3.5846 53 95 141 255 
-17.821 1.51766 3.41184 56 88 140 255 
-17.815 1.49796 3.26185 56 88 140 255 
-17.8242 1.50525 3.08652 55 91 141 255 
-17.8234 1.51754 2.91002 50 101 142 255 
-17.819 1.53313 2.74316 54 93 141 255 
-17.8066 1.50038 2.59417 52 96 141 255 
-17.8261 1.50854 2.42197 50 102 142 255 
-17.7941 1.52443 2.24665 52 96 141 255 
-17.8017 1.53789 2.0832 60 80 139 255 
-17.817 1.50126 1.93925 58 84 140 255 
-17.7865 1.51456 1.76602 56 88 140 255 
-17.7933 1.5275 1.59699 60 80 139 255 
-17.7927 1.54648 1.43069 62 74 137 255 
-17.7882 1.50196 1.28901 60 80 139 255 
-17.7843 1.5175 1.11983 63 71 136 255 
-17.7616 1.53414 0.949912 65 68 135 255 
-17.7584 1.54974 0.781412 68 59 132 255 
-17.7598 1.50579 0.641098 66 64 134 255 
-17.7786 1.52327 0.473487 68 59 132 255 
-17.757 1.53687 0.304885 68 57 131 255 
-17.7644 1.5565 0.140059 68 59 132 255 
-17.772 1.50994 -0.00311297 66 65 134 255 
-17.7397 1.52617 -0.170923 67 62 133 255 
-17.742 1.5418 -0.335728 68 57 131 255 
-17.7254 1.55931 -0.503244 70 52 128 255 
-17.7366 1.51627 -0.646521 68 57 131 255 
-17.7594 1.53411 -0.812568 66 63 133 255 
-17.725 1.54345 -0.979157 70 51 127 255 
-17.6955 1.55979 -1.14564 69 53 129 255 
-17.7104 1.51715 -1.28974 71 47 125 255 
-17.6703 1.53263 -1.45199 71 45 123 255 
-16.976 1.48718 -1.55685 71 19 101 255 
-14.9856 1.32092 -1.51747 72 31 112 255 
-13.471 1.16108 -1.47362 72 38 119 255 
-12.2151 1.06162 -1.45337 72 40 120 255 
-11.1922 0.982455 -1.43926 71 42 122 255 
-10.2637 0.908307 -1.41877 69 56 130 255 
-9.56621 0.829558 -1.40251 70 51 127 255 
-8.94507 0.780565 -1.39645 65 66 135 255 
-8.34058 0.733609 -1.3816 67 62 133 255 
-7.8399 0.693811 -1.37646 68 59 132 255 
-7.43107 0.649622 -1.36906 63 72 137 255 
-6.9995 0.614483 -1.35562 67 61 132 255 
-6.58585 0.579269 -1.34147 65 66 135 255 
-6.24687 0.551734 -1.33641 71 45 123 255 
-5.94881 0.523178 -1.325 69 56 130 255 
-5.69751 0.502186 -1.32468 64 70 136 255 
-5.40856 0.47762 -1.31256 68 58 131 255 
-5.20999 0.458325 -1.31954 69 56 130 255 
-5.03434 0.447173 -1.32122 66 63 133 255 
-4.80949 0.427298 -1.31005 68 59 132 255 
-4.63655 0.410261 -1.31187 67 62 133 255 
-4.4798 0.392516 -1.31756 71 47 125 255 
-17.8472 1.62356 5.38335 57 85 140 255 
-17.856 1.6089 5.18491 57 85 140 255 
-17.8544 1.60232 4.99494 56 88 140 255 
-17.8552 1.60275 4.81359 59 82 139 255 
-17.8503 1.61443 4.65193 60 80 139 255 
-17.8552 1.61197 4.46325 60 80 139 255 
-17.8638 1.61574 4.28306 60 80 139 255 
-17.843 1.61732 4.10334 65 68 135 255 
-17.8418 1.61052 3.95183 59 81 139 255 
-17.8222 1.61214 3.76128 56 89 140 255 
-17.8139 1.62063 3.58401 54 92 141 255 
-17.8192 1.62769 3.41334 57 85 140 255 
-17.8074 1.60742 3.26221 55 91 141 255 
-17.8127 1.61441 3.08618 53 95 141 255 
-17.8245 1.62787 2.91178 55 91 141 255 
-17.7945 1.64107 2.74088 55 90 140 255 
-17.7872 1.60872 2.59273 50 100 142 255 
-17.7918 1.61565 2.41862 51 98 141 255 
-17.7923 1.63431 2.24765 51 98 141 255 
-17.785 1.64645 2.08239 61 78 138 255 
-17.7926 1.60921 1.93763 58 83 139 255 
-17.7798 1.62394 1.76632 57 85 140 255 
-17.7866 1.63692 1.59726 58 84 140 255 
-17.7869 1.656 1.43101 61 77 138 255 
-17.7817 1.61134 1.28922 57 85 140 255 
-17.7687 1.62605 1.11945 59 81 139 255 
-17.7528 1.64319 0.949965 66 64 134 255 
-17.7446 1.6583 0.781237 67 62 133 255 
-17.7611 1.61573 0.641493 65 66 135 255 
-17.755 1.63104 0.473116 66 64 134 255 
-17.7443 1.64552 0.304834 68 59 132 255 
-17.7246 1.66267 0.139823 66 64 134 255 
-17.7385 1.61678 -0.00310878 64 70 136 255 
-17.714 1.63352 -0.170769 67 61 132 255 
-17.7242 1.6499 -0.335578 69 55 129 255 
-17.7056 1.66711 -0.502962 69 55 129 255 
-17.714 1.62389 -0.646049 67 61 132 255 
-17.7227 1.64056 -0.811339 68 57 131 255 
-17.6993 1.65069 -0.978278 69 55 129 255 
-17.6995 1.66965 -1.14654 71 47 125 255 
-17.7008 1.62579 -1.28974 70 48 126 255 
-17.6755 1.64241 -1.45321 71 47 125 255 
-16.9398 1.58881 -1.5544 71 19 101 255 
-14.9692 1.41209 -1.51667 72 32 113 255 
-13.4755 1.24481 -1.47492 71 46 124 255 
-12.1935 1.13517 -1.45161 72 41 121 255 
-11.1829 1.05083 -1.43888 71 45 123 255 
-10.2589 0.97136 -1.41891 68 59 132 255 
-9.60331 0.892176 -1.40872 68 58 131 255 
-8.93913 0.835344 -1.3963 64 69 136 255 
-8.32609 0.783847 -1.37997 66 64 134 255 
-7.83844 0.742181 -1.37698 66 65 134 255 
-7.40148 0.692823 -1.36436 64 69 136 255 
-6.99169 0.657053 -1.35486 66 64 134 255 
-6.59583 0.620954 -1.34426 67 62 133 255 
-6.23752 0.589501 -1.33516 71 46 124 255 
-5.94063 0.559211 -1.32392 68 59 132 255 
-5.65359 0.533293 -1.3152 65 68 135 255 
-5.40262 0.510523 -1.31185 65 68 135 255 
-5.20901 0.490466 -1.32003 68 58 131 255 
-4.98045 0.473205 -1.30782 66 65 134 255 
-4.81639 0.457713 -1.31267 68 59 132 255 
-4.62244 0.437614 -1.30862 68 57 131 255 
-4.46488 0.418831 -1.3139 70 51 127 255 
-17.8388 1.73322 5.38392 56 89 140 255 
-17.8467 1.71853 5.18519 57 85 140 255 
-17.8384 1.71129 4.99333 59 82 139 255 
-17.8316 1.71099 4.80996 58 84 140 255 
-17.8294 1.7229 4.64917 58 84 140 255 
-17.814 1.71852 4.45552 61 77 138 255 
-17.8332 1.72335 4.27818 62 73 137 255 
-17.8201 1.72555 4.10043 63 72 137 255 
-17.8267 1.7195 3.95075 60 80 139 255 
-17.8247 1.72268 3.76395 56 88 140 255 
-17.7861 1.72819 3.58048 52 96 141 255 
-17.8157 1.73766 3.41465 55 90 140 255 
-17.7894 1.7159 3.26078 54 92 141 255 
-17.7858 1.72206 3.08329 54 93 141 255 
-17.8004 1.73586 2.90953 53 95 141 255 
-17.7694 1.74878 2.73861 54 92 141 255 
-17.777 1.71783 2.59273 52 97 141 255 
-17.7786 1.7245 2.41822 51 98 141 255 
-17.7632 1.74161 2.24527 53 94 141 255 
-17.7518 1.7533 2.07972 60 80 139 255 
-17.7745 1.71759 1.93677 60 80 139 255 
-17.7735 1.73339 1.76671 58 83 139 255 
-17.7782 1.74622 1.59744 58 83 139 255 
-17.7654 1.76402 1.43013 57 85 140 255 
-17.7556 1.71888 1.28807 58 83 139 255 
-17.7554 1.73475 1.11927 61 77 138 255 
-17.7494 1.75277 0.950337 67 61 132 255 
-17.746 1.76834 0.781762 68 57 131 255 
-17.7429 1.7239 0.641205 66 64 134 255 
-17.7357 1.73908 0.472877 66 64 134 255 
-17.7298 1.75397 0.304765 69 56 130 255 
-17.7061 1.7706 0.13976 69 56 130 255 
-17.7242 1.72521 -0.00310808 66 64 134 255 
-17.7047 1.74228 -0.170779 67 62 133 255 
-17.6899 1.75625 -0.335125 68 58 131 255 
-17.6841 1.77462 -0.502651 69 53 129 255 
-17.6888 1.73109 -0.645504 67 61 132 255 
-17.7064 1.74869 -0.811066 69 56 130 255 
-17.6888 1.75926 -0.978278 69 53 129 255 
-17.6909 1.77842 -1.14667 69 56 130 255 
-17.6805 1.73339 -1.28902 69 53 129 255 
-17.6849 1.7528 -1.45484 70 51 127 255 
-16.9248 1.69222 -1.55394 72 23 105 255 
-14.9563 1.50352 -1.51626 72 32 113 255 
-13.4122 1.32201 -1.46885 72 38 119 255 
-12.2091 1.21222 -1.45432 72 41 121 255 
-11.1674 1.11854 -1.43774 71 42 122 255 
-10.2586 1.03489 -1.41973 68 59 132 255 
-9.58387 0.949718 -1.4067 68 57 131 255 
-8.9181 0.888611 -1.39384 64 69 136 255 
-8.34076 0.83689 -1.38323 65 68 135 255 
-7.81316 0.788186 -1.37336 65 66 135 255 
-7.39415 0.737932 -1.36382 65 66 135 255 
-6.98557 0.699745 -1.35448 65 68 135 255 
-6.60457 0.662686 -1.34684 62 73 137 255 
-6.19 0.623353 -1.32578 71 44 122 255 
-5.92446 0.594385 -1.3211 67 61 132 255 
-5.64149 0.567096 -1.31317 65 66 135 255 
-5.40906 0.544637 -1.3142 67 62 133 255 
-5.19047 0.52087 -1.31611 67 61 132 255 
-5.00152 0.506191 -1.31414 66 64 134 255 
-4.82021 0.487938 -1.3145 68 59 132 255 
-4.59669 0.46365 -1.30211 69 55 129 255 
-4.41639 0.441636 -1.30041 69 53 129 255 
-17.8402 1.84392 5.38766 57 86 140 255 
-17.8521 1.82967 5.18991 58 84 140 255 
-17.8247 1.82042 4.99253 59 82 139 255 
-17.8284 1.82115 4.81203 58 84 140 255 
-17.8185 1.83227 4.64917 62 74 137 255 
-17.7964 1.8271 4.45383 60 80 139 255 
-17.8204 1.83254 4.27771 61 77 138 255 
-17.8111 1.83506 4.10088 63 71 136 255 
-17.8061 1.82785 3.9486 59 81 139 255 
-17.8108 1.83172 3.76334 59 82 139 255 
-17.781 1.8379 3.58165 53 95 141 255 
-17.7881 1.84522 3.41146 59 82 139 255 
-17.7834 1.82552 3.26168 55 91 141 255 
-17.7778 1.83146 3.0838 53 95 141 255 
-17.7737 1.84342 2.90696 54 93 141 255 
-17.7583 1.85777 2.73861 54 92 141 255 
-17.7759 1.82789 2.59417 52 97 141 255 
-17.7805 1.83487 2.41996 49 103 142 255 
-17.7452 1.84985 2.2444 53 94 141 255 
-17.7496 1.86312 2.08077 60 80 139 255 
-17.7547 1.8257 1.9358 60 80 139 255 
-17.7477 1.84088 1.76523 59 82 139 255 
-17.7592 1.85444 1.59672 58 84 140 255 
-17.7473 1.87226 1.42957 61 77 138 255 
-17.7417 1.82749 1.28786 58 83 139 255 
-17.7454 1.84377 1.11933 63 72 137 255 
-17.7274 1.8605 0.949752 66 64 134 255 
-17.7318 1.87688 0.781631 67 62 133 255 
-17.736 1.83315 0.641349 67 62 133 255 
-17.7207 1.84745 0.472771 68 59 132 255 
-17.6979 1.86053 0.304406 68 58 131 255 
-17.677 1.87731 0.139619 69 53 129 255 
-17.7064 1.83321 -0.00310686 69 56 130 255 
-17.7215 1.85379 -0.171047 68 57 131 255 
-17.6967 1.86665 -0.335465 69 53 129 255 
-17.6719 1.88299 -0.502622 70 51 127 255 
-17.6947 1.84135 -0.646121 68 58 131 255 
-17.6963 1.8574 -0.811111 68 59 132 255 
-17.6827 1.86829 -0.978553 69 53 129 255 
-17.6548 1.88429 -1.14506 70 48 126 255 
-17.6378 1.83854 -1.2867 69 53 129 255 
-17.649 1.85867 -1.4528 71 46 124 255 
-16.9052 1.79509 -1.55312 72 23 105 255 
-14.8964 1.58988 -1.51115 72 29 111 255 
-13.3791 1.40169 -1.46614 72 37 118 255 
-12.1481 1.28149 -1.44796 72 40 120 255 
-11.1268 1.18347 -1.43342 71 45 123 255 
-10.2157 1.09391 -1.41468 70 51 127 255 
-9.5631 1.00695 -1.40453 69 53 129 255 
-8.90364 0.942378 -1.39246 66 64 134 255 
-8.32762 0.887216 -1.38193 66 65 134 255 
-7.81307 0.836637 -1.37422 68 59 132 255 
-7.36601 0.780799 -1.35949 67 61 132 255 
-6.95674 0.739998 -1.34975 66 65 134 255 
-6.60526 0.703717 -1.34784 65 66 135 255 
-6.22106 0.665065 -1.33329 70 51 127 255 
-5.91487 0.630105 -1.3198 66 63 133 255 
-5.63596 0.601494 -1.31272 63 71 136 255 
-5.41238 0.57854 -1.31585 66 64 134 255 
-5.21417 0.555585 -1.32296 66 63 133 255 
-5.00794 0.537904 -1.31667 65 66 135 255 
-4.82192 0.51802 -1.31581 67 62 133 255 
-4.5928 0.491744 -1.30184 69 53 129 255 
-4.43173 0.470651 -1.30575 69 53 129 255 
-17.8295 1.95346 5.38795 57 85 140 255 
-17.8482 1.94 5.19213 56 89 140 255 
-17.8218 1.93069 4.99494 58 83 139 255 
-17.8121 1.92999 4.81073 57 85 140 255 
-17.8147 1.9424 4.65118 62 74 137 255 
-17.7906 1.93689 4.45528 61 77 138 255 
-17.8146 1.94249 4.27911 61 78 138 255 
-17.8073 1.94516 4.10267 64 70 136 255 
-17.8033 1.93802 3.95053 60 80 139 255 
-17.7934 1.94034 3.7621 57 86 140 255 
-17.7869 1.94889 3.58519 52 97 141 255 
-17.7881 1.95562 3.41371 55 90 140 255 
-17.7709 1.9345 3.2615 55 90 140 255 
-17.7839 1.94243 3.08686 51 99 141 255 
-17.7631 1.95255 2.90713 51 98 141 255 
-17.7603 1.96823 2.74073 55 91 141 255 
-17.7683 1.93735 2.59474 49 103 142 255 
-17.7709 1.94415 2.42023 50 101 142 255 
-17.7473 1.96023 2.24615 53 94 141 255 
-17.7438 1.97265 2.08146 61 77 138 255 
-17.756 1.93601 1.9372 59 81 139 255 
-17.7529 1.95159 1.76691 56 89 140 255 
-17.7574 1.96447 1.59762 59 82 139 255 
-17.7296 1.98046 1.42909 61 78 138 255 
-17.7331 1.93664 1.28807 59 81 139 255 
-17.7268 1.95185 1.11889 58 83 139 255 
-17.7225 1.97001 0.950125 65 68 135 255 
-17.7229 1.98597 0.781762 68 59 132 255 
-17.7214 1.94161 0.641241 66 65 134 255 
-17.704 1.9556 0.472638 67 61 132 255 
-17.6911 1.96964 0.304492 68 59 132 255 
-17.7069 1.99043 0.139949 68 59 132 255 
-17.6948 1.94182 -0.00310686 68 59 132 255 
-17.6998 1.96139 -0.170952 68 57 131 255 
-17.6829 1.97497 -0.335427 69 56 130 255 
-17.6639 1.99183 -0.502735 70 50 126 255 
-17.702 1.95197 -0.646811 68 59 132 255 
-17.6886 1.96639 -0.811293 67 61 132 255 
-17.66 1.97553 -0.977948 70 50 126 255 
-17.6618 1.99471 -1.14628 70 51 127 255 
-17.645 1.94881 -1.28808 67 61 132 255 
-17.6482 1.96814 -1.4537 72 37 118 255 
-16.875 1.89667 -1.55139 72 22 104 255 
-14.8636 1.67868 -1.50884 72 28 110 255 
-13.3377 1.48014 -1.46257 72 40 120 255 
-12.1183 1.35358 -1.44537 72 38 119 255 
-11.0996 1.24951 -1.43087 71 44 122 255 
-10.196 1.15512 -1.41291 68 57 131 255 
-9.54002 1.06375 -1.40207 70 52 128 255 
-8.89277 0.996442 -1.39169 66 63 133 255 
-8.31124 0.937081 -1.38014 66 63 133 255 
-7.78332 0.881789 -1.36991 69 56 130 255 
-7.36206 0.826091 -1.35967 67 62 133 255 
-6.94719 0.78212 -1.3488 64 69 136 255 
-6.60081 0.744233 -1.34784 65 68 135 255 
-6.21201 0.702675 -1.33225 69 53 129 255 
-5.9109 0.666386 -1.3198 66 64 134 255 
-5.62926 0.635737 -1.31205 65 66 135 255 
-5.40583 0.611411 -1.31514 66 65 134 255 
-5.21644 0.58822 -1.32443 69 55 129 255 
-5.01128 0.569386 -1.31844 67 61 132 255 
-4.8129 0.546944 -1.31424 68 58 131 255 
-4.60309 0.521432 -1.30563 71 45 123 255 
-4.43448 0.498478 -1.30744 70 51 127 255 
-17.8048 2.06139 5.38421 57 85 140 255 
-17.8254 2.04827 5.18908 56 89 140 255 
-17.803 2.03924 4.99306 59 82 139 255 
-17.7923 2.03837 4.80866 57 85 140 255 
-17.8062 2.05212 4.65218 61 77 138 255 
-17.7986 2.04834 4.46035 60 80 139 255 
-17.7869 2.04998 4.27539 61 77 138 255 
-17.794 2.05428 4.10244 64 69 136 255 
-17.792 2.04734 3.95075 57 85 140 255 
-17.7822 2.04959 3.76231 58 83 139 255 
-17.7688 2.05732 3.58401 52 96 141 255 
-17.7748 2.06462 3.41353 57 85 140 255 
-17.7744 2.0453 3.26437 52 97 141 255 
-17.7657 2.05084 3.08584 52 96 141 255 
-17.7616 2.06276 2.90889 55 91 141 255 
-17.7548 2.07797 2.74179 55 90 140 255 
-17.7659 2.04747 2.59618 49 104 142 255 
-17.7537 2.05259 2.41956 51 98 141 255 
-17.7429 2.07001 2.24715 53 94 141 255 
-17.7451 2.08311 2.08308 58 84 140 255 
-17.7616 2.04697 1.93914 58 83 139 255 
-17.7356 2.05991 1.76641 58 84 140 255 
-17.7193 2.07039 1.5953 59 82 139 255 
-17.7141 2.08886 1.42885 60 80 139 255 
-17.7189 2.04518 1.28793 57 85 140 255 
-17.7165 2.06082 1.11902 64 69 136 255 
-17.7101 2.07872 0.950125 66 64 134 255 
-17.6985 2.09327 0.781237 67 62 133 255 
-17.7052 2.04985 0.641098 66 63 133 255 
-17.6748 2.06223 0.472187 67 62 133 255 
-17.6777 2.07804 0.304475 68 58 131 255 
-17.6616 2.09515 0.139689 69 55 129 255 
-17.6726 2.0492 -0.00310512 67 61 132 255 
-17.6875 2.06996 -0.170952 65 68 135 255 
-17.6665 2.08297 -0.335351 68 57 131 255 
-17.6861 2.10431 -0.503725 70 52 128 255 
-17.6877 2.06032 -0.646738 68 59 132 255 
-17.6801 2.07535 -0.811475 66 63 133 255 
-17.6277 2.08151 -0.976849 69 55 129 255 
-17.6631 2.10469 -1.14718 70 48 126 255 
-17.6377 2.05762 -1.28844 70 51 127 255 
-17.6318 2.07592 -1.45337 69 55 129 255 
-16.8453 1.99807 -1.54976 71 19 101 255 
-14.8244 1.76644 -1.50593 72 27 109 255 
-13.356 1.56519 -1.4656 72 41 121 255 
-12.0851 1.425 -1.44243 72 38 119 255 
-11.073 1.31536 -1.42846 72 35 116 255 
-10.1965 1.2186 -1.414 69 55 129 255 
-9.50285 1.11868 -1.39759 70 52 128 255 
-8.86392 1.04832 -1.38815 67 61 132 255 
-8.30435 0.987943 -1.37997 67 62 133 255 
-7.767 0.928244 -1.36802 69 55 129 255 
-7.3588 0.87148 -1.36003 64 69 136 255 
-6.93543 0.823922 -1.34747 66 64 134 255 
-6.57471 0.782174 -1.34346 66 63 133 255 
-6.18524 0.738112 -1.32745 69 53 129 255 
-5.9096 0.702988 -1.32045 64 69 136 255 
-5.61655 0.669228 -1.31001 67 62 133 255 
-5.40294 0.644684 -1.31538 66 64 134 255 
-5.17133 0.61529 -1.31391 69 55 129 255 
-4.97311 0.59598 -1.30933 70 52 128 255 
-4.81137 0.576694 -1.31476 68 57 131 255 
-4.57017 0.546126 -1.29722 69 53 129 255 
-4.44468 0.527261 -1.31137 69 55 129 255 
-17.7861 2.1699 5.38248 57 86 140 255 
-17.7925 2.15518 5.18324 57 86 140 255 
-17.7978 2.14936 4.99521 58 83 139 255 
-17.7804 2.14762 4.80892 57 85 140 255 
-17.7827 2.16005 4.64942 61 78 138 255 
-17.7925 2.15833 4.46204 59 81 139 255 
-17.7923 2.1613 4.2798 62 76 138 255 
-17.7695 2.16201 4.09977 64 70 136 255 
-17.7704 2.15541 3.94881 58 84 140 255 
-17.7624 2.15783 3.76087 58 84 140 255 
-17.7558 2.1663 3.58401 53 94 141 255 
-17.7579 2.17316 3.41278 57 86 140 255 
-17.7458 2.15243 3.2615 53 94 141 255 
-17.7489 2.15933 3.08516 53 95 141 255 
-17.7446 2.17123 2.90825 51 98 141 255 
-17.7436 2.18711 2.7421 52 96 141 255 
-17.7511 2.15621 2.59589 50 102 142 255 
-17.7329 2.16053 2.41849 50 101 142 255 
-17.7249 2.17823 2.24652 53 95 141 255 
-17.7143 2.18976 2.081 62 76 138 255 
-17.7526 2.1564 1.93957 57 85 140 255 
-17.7217 2.16857 1.76632 59 82 139 255 
-17.6954 2.17773 1.59432 60 80 139 255 
-17.702 2.19763 1.42893 61 77 138 255 
-17.6981 2.1529 1.28735 59 81 139 255 
-17.7065 2.16985 1.1192 62 73 137 255 
-17.6901 2.18649 0.949752 68 59 132 255 
-17.6873 2.20208 0.781324 69 56 130 255 
-17.6953 2.15882 0.641205 66 63 133 255 
-17.6658 2.17113 0.472294 66 63 133 255 
-17.6765 2.18794 0.30468 67 61 132 255 
-17.6693 2.20608 0.139854 67 61 132 255 
-17.7053 2.16318 -0.00311314 66 64 134 255 
-17.6754 2.17857 -0.170961 66 64 134 255 
-16.7167 2.07506 -0.317559 70 51 127 255 
-17.658 2.21093 -0.503301 69 56 130 255 
-17.631 2.16346 -0.645141 69 56 130 255 
-17.6413 2.18061 -0.810291 68 57 131 255 
-17.6156 2.18976 -0.976904 69 53 129 255 
-17.6568 2.2139 -1.14763 70 50 126 255 
-17.6317 2.16665 -1.28894 70 50 126 255 
-17.6099 2.18297 -1.45264 70 50 126 255 
-16.807 2.09818 -1.54739 72 27 109 255 
-14.8014 1.85588 -1.50472 72 29 111 255 
-13.2859 1.63968 -1.45899 72 37 118 255 
-12.0456 1.49534 -1.43878 72 32 113 255 
-11.0716 1.38414 -1.42935 72 36 117 255 
-10.2026 1.28287 -1.41591 70 48 126 255 
-9.45948 1.17246 -1.39225 70 52 128 255 
-8.86027 1.10305 -1.38861 66 65 134 255 
-8.29715 1.03876 -1.37981 66 65 134 255 
-7.75237 0.974778 -1.36647 65 66 135 255 
-7.3377 0.914669 -1.35714 62 74 137 255 
-6.91563 0.864634 -1.34463 66 64 134 255 
-6.5552 0.820674 -1.34048 69 56 130 255 
-6.20389 0.778975 -1.33245 69 55 129 255 
-5.90615 0.739357 -1.32067 64 70 136 255 
-5.62974 0.705859 -1.31408 70 52 128 255 
-5.38731 0.676371 -1.31256 67 61 132 255 
-5.15303 0.645202 -1.31024 70 52 128 255 
-4.97319 0.626967 -1.31035 68 59 132 255 
-4.80774 0.606206 -1.31476 68 57 131 255 
-4.58011 0.575839 -1.30102 71 47 125 255 
-4.42517 0.552502 -1.30659 71 45 123 255 
-17.7744 2.27924 5.38306 57 85 140 255 
-17.7818 2.26468 5.18408 56 89 140 255 
-17.7852 2.25865 4.99548 58 83 139 255 
-17.7793 2.25826 4.81229 58 84 140 255 
-17.7864 2.27133 4.65394 61 78 138 255 
-17.7857 2.26832 4.46373 61 78 138 255 
-17.7758 2.27007 4.27911 60 80 139 255 
-17.7597 2.27149 4.10066 64 69 136 255 
-17.753 2.26391 3.94795 60 80 139 255 
-17.7576 2.2679 3.76272 58 84 140 255 
-17.7383 2.27471 3.58323 54 92 141 255 
-17.7374 2.28121 3.41146 58 84 140 255 
-17.7352 2.26165 3.26203 55 91 141 255 
-17.7363 2.26832 3.08533 55 91 141 255 
-17.729 2.27981 2.90793 54 93 141 255 
-17.7181 2.29442 2.74028 54 92 141 255 
-17.7238 2.26333 2.59388 51 98 141 255 
-17.7006 2.2669 2.41594 51 98 141 255 
-17.7092 2.28669 2.24627 52 96 141 255 
-17.7005 2.29841 2.081 59 81 139 255 
-17.7213 2.26302 1.93763 58 84 140 255 
-17.7041 2.27676 1.76592 57 85 140 255 
-17.7083 2.28972 1.59672 58 84 140 255 
-17.7 2.30776 1.42989 59 82 139 255 
-17.6925 2.26247 1.28793 57 86 140 255 
-17.6988 2.27922 1.11958 62 73 137 255 
-17.6744 2.29473 0.949646 66 65 134 255 
-17.6784 2.31121 0.781543 68 59 132 255 
-17.6886 2.26824 0.641457 65 66 135 255 
-17.6611 2.28063 0.472532 66 65 134 255 
-17.6687 2.29713 0.304782 65 66 135 255 
-17.6524 2.31407 0.139831 68 57 131 255 
-17.662 2.26795 -0.00310791 69 56 130 255 
-17.6607 2.28685 -0.170952 66 64 134 255 
-16.668 2.17294 -0.31688 72 41 121 255 
-17.5837 2.31129 -0.501576 69 53 129 255 
-16.655 2.14751 -0.609899 70 52 128 255 
-16.4883 2.14089 -0.757923 72 38 119 255 
-17.6038 2.29806 -0.977014 70 52 128 255 
-17.6033 2.31699 -1.14506 70 48 126 255 
-17.6151 2.27441 -1.28873 69 53 129 255 
-17.604 2.29201 -1.45329 71 45 123 255 
-16.7128 2.19066 -1.53993 72 22 104 255 
-14.8114 1.94952 -1.50693 72 29 111 255 
-13.3298 1.7282 -1.46495 72 37 118 255 
-12.0332 1.56883 -1.43842 72 37 118 255 
-11.0452 1.44973 -1.42706 72 38 119 255 
-10.1828 1.3439 -1.41427 70 48 126 255 
-9.42463 1.2269 -1.3882 71 45 123 255 
-8.84451 1.15625 -1.38723 67 61 132 255 
-8.25932 1.08553 -1.3746 67 62 133 255 
-7.75796 1.02387 -1.36854 65 68 135 255 
-7.3339 0.959931 -1.3575 65 66 135 255 
-6.89462 0.905007 -1.3416 67 61 132 255 
-6.5413 0.859732 -1.33869 70 48 126 255 
-6.18929 0.815748 -1.33037 69 55 129 255 
-5.88311 0.773166 -1.31656 67 62 133 255 
-5.63399 0.741534 -1.31611 66 63 133 255 
-5.41679 0.713859 -1.32078 66 63 133 255 
-5.15186 0.677187 -1.31097 70 52 128 255 
-4.98268 0.659247 -1.31389 66 63 133 255 
-4.77236 0.631516 -1.30612 69 56 130 255 
-4.57553 0.603805 -1.30075 70 52 128 255 
-4.44549 0.582762 -1.31362 70 51 127 255 
-17.7667 2.38915 5.38507 57 85 140 255 
-17.7723 2.37438 5.18547 57 86 140 255 
-17.7805 2.369 4.99816 56 88 140 255 
-17.7642 2.36718 4.81203 57 86 140 255 
-17.7607 2.37888 4.65092 63 71 136 255 
-17.7695 2.37716 4.46325 59 82 139 255 
-17.7712 2.38038 4.28143 60 79 138 255 
-17.7503 2.38107 4.10177 63 72 137 255 
-17.7474 2.37396 3.94989 59 81 139 255 
-17.7298 2.37499 3.75984 59 81 139 255 
-17.725 2.38364 3.58342 51 99 141 255 
-17.7231 2.39 3.41146 56 88 140 255 
-17.723 2.37069 3.26239 56 88 140 255 
-17.723 2.37724 3.0855 53 95 141 255 
-17.7411 2.39211 2.91226 52 96 141 255 
-17.7027 2.40296 2.74012 52 96 141 255 
-17.7233 2.37388 2.59589 49 103 142 255 
-17.6884 2.37573 2.41621 53 94 141 255 
-17.6998 2.39598 2.2469 51 99 141 255 
-17.6772 2.40577 2.07996 59 81 139 255 
-17.7071 2.37171 1.93763 57 86 140 255 
-17.7085 2.38787 1.76779 57 85 140 255 
-17.7117 2.40074 1.59833 59 82 139 255 
-17.6796 2.41551 1.42941 61 78 138 255 
-17.6931 2.37297 1.28901 61 78 138 255 
-17.6844 2.38777 1.11958 62 74 137 255 
-17.6728 2.40489 0.950337 66 65 134 255 
-17.6629 2.41951 0.7815 66 64 134 255 
-17.6645 2.3754 0.641098 66 65 134 255 
-17.6537 2.3899 0.472718 68 59 132 255 
-17.6404 2.40361 0.304543 69 56 130 255 
-17.5784 2.41417 0.13936 71 46 124 255 
-17.2186 2.3185 -0.00303234 72 35 116 255 
-17.6375 2.39397 -0.170865 67 62 133 255 
-16.6969 2.28099 -0.31769 72 35 116 255 
-17.4602 2.40414 -0.498467 72 31 112 255 
-16.5544 2.23788 -0.606705 71 45 123 255 
-17.5597 2.38966 -0.807832 70 52 128 255 
-17.5814 2.40495 -0.976575 70 52 128 255 
-17.5808 2.42387 -1.14455 71 45 123 255 
-17.6038 2.38286 -1.28894 70 50 126 255 
-17.5669 2.39688 -1.45142 72 40 120 255 
-16.6734 2.28964 -1.53757 72 24 106 255 
-14.7391 2.03208 -1.50081 72 35 116 255 
-13.3062 1.80822 -1.46354 72 32 113 255 
-11.9919 1.63834 -1.43466 72 35 116 255 
-11.0194 1.51518 -1.4249 72 33 115 255 
-10.1184 1.39862 -1.40649 71 47 125 255 
-9.44241 1.28819 -1.39196 70 51 127 255 
-8.81082 1.20687 -1.38308 67 62 133 255 
-8.23882 1.13431 -1.37232 66 63 133 255 
-7.7447 1.07051 -1.36733 68 57 131 255 
-7.33372 1.00571 -1.35859 61 78 138 255 
-6.90645 0.949702 -1.34501 66 63 133 255 
-6.53008 0.89905 -1.3375 71 44 122 255 
-6.18514 0.853844 -1.33058 72 41 121 255 
-5.85021 0.805388 -1.31027 66 63 133 255 
-5.62934 0.776089 -1.31611 67 61 132 255 
-5.37283 0.741633 -1.31115 67 61 132 255 
-5.17354 0.712357 -1.31758 68 59 132 255 
-4.96992 0.688612 -1.31161 69 55 129 255 
-4.76552 0.660389 -1.30533 71 47 125 255 
-4.57269 0.632001 -1.30102 70 52 128 255 
-4.41236 0.605981 -1.30491 70 50 126 255 
-17.7498 2.49785 5.3845 58 84 140 255 
-17.7508 2.48245 5.18352 58 84 140 255 
-17.7628 2.47766 4.99736 55 90 140 255 
-17.7541 2.4768 4.81333 57 85 140 255 
-17.7505 2.48849 4.65218 61 77 138 255 
-17.7469 2.48507 4.46132 58 84 140 255 
-17.7582 2.48965 4.28189 61 78 138 255 
-17.7267 2.48872 4.09977 63 72 137 255 
-17.7325 2.48282 3.94989 59 82 139 255 
-17.7381 2.487 3.76478 58 84 140 255 
-17.7246 2.4944 3.58637 53 94 141 255 
-17.7139 2.49952 3.41259 54 93 141 255 
-17.7178 2.48076 3.26419 52 97 141 255 
-17.712 2.48649 3.08618 53 94 141 255 
-17.73 2.50148 2.91291 53 95 141 255 
-17.6926 2.51223 2.74088 51 98 141 255 
-17.6937 2.48052 2.59373 51 99 141 255 
-17.6784 2.48491 2.41688 51 98 141 255 
-17.6857 2.50468 2.24702 51 98 141 255 
-17.6916 2.51839 2.08343 60 80 139 255 
-17.7001 2.48142 1.93849 56 88 140 255 
-17.7063 2.49829 1.76907 55 91 141 255 
-17.6917 2.50867 1.59788 57 85 140 255 
-17.6644 2.52394 1.42941 62 73 137 255 
-17.6743 2.48094 1.28872 58 84 140 255 
-17.6586 2.4947 1.11889 62 73 137 255 
-17.6558 2.513 0.950231 66 64 134 255 
-17.6497 2.52812 0.781587 66 64 134 255 
-17.6555 2.48458 0.641313 65 68 135 255 
-17.6654 2.50196 0.473434 67 61 132 255 
-17.4699 2.48966 0.301858 72 38 119 255 
-16.9011 2.4269 0.134105 72 37 118 255 
-16.7288 2.35714 -0.00294856 71 46 124 255 
-16.0958 2.28538 -0.156063 69 53 129 255 
-16.6717 2.38185 -0.317483 70 48 126 255 
-16.4696 2.3708 -0.470592 72 26 108 255 
-16.3563 2.31338 -0.599954 71 47 125 255 
-17.521 2.49398 -0.80674 70 50 126 255 
-17.5317 2.50784 -0.974651 70 48 126 255 
-17.5814 2.53397 -1.14557 70 50 126 255 
-17.5947 2.49167 -1.28938 70 48 126 255 
-17.541 2.50308 -1.45052 72 38 119 255 
-16.6305 2.3878 -1.53493 72 23 105 255 
-14.6535 2.11197 -1.49338 72 29 111 255 
-13.2072 1.87738 -1.4539 72 35 116 255 
-11.9629 1.70922 -1.43242 72 33 115 255 
-10.9952 1.58064 -1.423 72 31 112 255 
-10.0979 1.45898 -1.40486 70 50 126 255 
-9.42943 1.3454 -1.39124 70 48 126 255 
-8.79249 1.25937 -1.38139 67 62 133 255 
-8.22487 1.18385 -1.37118 67 62 133 255 
-7.73116 1.11703 -1.36612 66 63 133 255 
-7.31962 1.04958 -1.35714 62 73 137 255 
-6.8898 0.990524 -1.34293 64 70 136 255 
-6.48078 0.932818 -1.32855 71 46 124 255 
-6.17495 0.89108 -1.32954 70 51 127 255 
-5.86835 0.844607 -1.31547 64 70 136 255 
-5.59361 0.806168 -1.30889 68 57 131 255 
-5.36914 0.774725 -1.31138 68 59 132 255 
-5.14988 0.741325 -1.31269 65 66 135 255 
-4.96847 0.71951 -1.31237 67 62 133 255 
-4.77093 0.691001 -1.30795 69 56 130 255 
-4.5754 0.661009 -1.30292 70 52 128 255 
-4.4095 0.633179 -1.30519 67 61 132 255 
-17.7304 2.60616 5.38335 58 84 140 255 
-17.7485 2.59327 5.18741 58 84 140 255 
-17.7501 2.58702 4.99816 56 88 140 255 
-17.7424 2.58625 4.81436 57 85 140 255 
-17.7426 2.59848 4.65419 60 80 139 255 
-17.739 2.59504 4.46325 61 77 138 255 
-17.7339 2.5973 4.2798 61 78 138 255 
-17.713 2.59773 4.10021 62 76 138 255 
-17.7257 2.59285 3.95183 60 80 139 255 
-17.7312 2.59707 3.76663 57 86 140 255 
-17.7119 2.60354 3.58696 51 98 141 255 
-17.7002 2.60845 3.41296 57 86 140 255 
-17.7081 2.59028 3.26526 54 93 141 255 
-17.7052 2.59641 3.08771 54 93 141 255 
-17.7055 2.60893 2.91146 55 91 141 255 
-17.6817 2.62147 2.74164 54 92 141 255 
-17.6918 2.59105 2.59575 53 95 141 255 
-17.6794 2.59578 2.41916 53 95 141 255 
-17.6818 2.61489 2.24852 51 99 141 255 
-17.6788 2.62733 2.08378 59 82 139 255 
-17.6708 2.58796 1.93698 60 80 139 255 
-17.6779 2.60501 1.76779 58 84 140 255 
-17.6632 2.61528 1.59672 59 82 139 255 
-17.6585 2.63375 1.43021 62 76 138 255 
-17.6666 2.5905 1.2893 58 83 139 255 
-17.6676 2.60665 1.12046 62 76 138 255 
-17.6558 2.62364 0.951082 66 65 134 255 
-17.6299 2.63578 0.781412 65 68 135 255 
-17.6468 2.59388 0.641565 64 70 136 255 
-17.622 2.60621 0.472691 66 64 134 255 
-17.4523 2.59651 0.301824 71 47 125 255 
-16.3588 2.45157 0.129919 65 68 135 255 
-16.4746 2.4245 -0.00290632 72 40 120 255 
-16.0864 2.38484 -0.156111 70 52 128 255 
-16.2237 2.4195 -0.309227 69 53 129 255 
-17.4502 2.62134 -0.49906 72 40 120 255 
-16.938 2.50175 -0.62184 71 42 122 255 
-17.455 2.59395 -0.804417 71 44 122 255 
-17.5565 2.62141 -0.976904 71 46 124 255 
-17.5695 2.6424 -1.14583 70 52 128 255 
-17.5702 2.59826 -1.28873 72 41 121 255 
-17.5322 2.61169 -1.45109 71 42 122 255 
-16.6116 2.48921 -1.53456 72 20 103 255 
-14.6678 2.20599 -1.49619 72 36 117 255 
-13.1552 1.9524 -1.44946 72 29 111 255 
-11.9493 1.78215 -1.43207 72 36 117 255 
-10.9843 1.64793 -1.42287 72 29 111 255 
-10.0936 1.52165 -1.40554 71 46 124 255 
-9.41513 1.40236 -1.39037 71 45 123 255 
-8.78557 1.31344 -1.38154 66 63 133 255 
-8.20281 1.2321 -1.36874 67 61 132 255 
-7.72221 1.16415 -1.36578 69 55 129 255 
-7.29651 1.092 -1.35407 62 76 138 255 
-6.86611 1.03016 -1.33952 66 63 133 255 
-6.47688 0.972857 -1.32895 70 48 126 255 
-6.14035 0.924583 -1.32328 69 53 129 255 
-5.87367 0.882193 -1.31786 66 63 133 255 
-5.60494 0.842938 -1.31272 66 63 133 255 
-5.36909 0.808378 -1.31256 66 65 134 255 
-5.13373 0.771181 -1.30975 67 61 132 255 
-4.96683 0.750416 -1.31313 69 55 129 255 
-4.75897 0.719108 -1.30586 69 56 130 255 
-4.57411 0.689502 -1.30374 70 51 127 255 
-4.41598 0.661788 -1.30828 68 58 131 255 
-17.7377 2.71853 5.39054 58 83 139 255 
-17.7522 2.70516 5.19325 58 84 140 255 
-17.7501 2.69835 5.00273 55 91 141 255 
-17.7329 2.69608 4.81618 57 86 140 255 
-17.7052 2.70408 4.64866 63 72 137 255 
-17.7275 2.70456 4.46446 62 73 137 255 
-17.7119 2.70518 4.27841 60 79 138 255 
-17.6958 2.70621 4.09999 64 70 136 255 
-17.722 2.70347 3.95463 60 79 138 255 
-17.7034 2.70404 3.76416 58 84 140 255 
-17.6897 2.71128 3.58578 54 93 141 255 
-17.6984 2.71925 3.41577 57 85 140 255 
-17.6909 2.69874 3.26509 56 89 140 255 
-17.6958 2.70604 3.0889 50 100 142 255 
-17.6755 2.71542 2.90921 59 82 139 255 
-17.7014 2.7355 2.74725 53 95 141 255 
-17.703 2.70374 2.59977 53 95 141 255 
-17.672 2.70556 2.42037 53 94 141 255 
-17.6703 2.72409 2.24914 54 92 141 255 
-17.6545 2.73454 2.08285 60 80 139 255 
-17.6732 2.69919 1.93903 56 88 140 255 
-17.6537 2.71222 1.76701 56 88 140 255 
-17.6478 2.72376 1.59681 59 82 139 255 
-17.6489 2.74313 1.43077 62 73 137 255 
-17.6622 2.70066 1.29016 57 85 140 255 
-17.6424 2.71364 1.11989 61 77 138 255 
-17.6384 2.73177 0.951029 66 63 133 255 
-17.6105 2.74344 0.781281 66 63 133 255 
-17.6217 2.70075 0.641241 66 64 134 255 
-17.6008 2.71352 0.472559 65 68 135 255 
-17.6198 2.73204 0.305005 68 59 132 255 
-16.6952 2.60682 0.132715 72 41 121 255 
-16.1658 2.4805 -0.00285449 70 48 126 255 
-16.446 2.54137 -0.159749 69 55 129 255 
-16.2263 2.52177 -0.309567 69 55 129 255 
-17.1394 2.6823 -0.490636 72 26 108 255 
-16.2348 2.49978 -0.596579 72 37 118 255 
-17.3894 2.69336 -0.80214 71 46 124 255 
-17.5371 2.72862 -0.976739 72 40 120 255 
-17.5451 2.74892 -1.14532 72 41 121 255 
-17.5293 2.70223 -1.28692 71 45 123 255 
-17.5267 2.7209 -1.45199 72 35 116 255 
-16.5763 2.58802 -1.53274 71 17 100 255 
-14.5675 2.28239 -1.48736 72 29 111 255 
-13.1302 2.0311 -1.44805 72 36 117 255 
-11.9293 1.85406 -1.43101 72 36 117 255 
-10.9603 1.71316 -1.42109 72 37 118 255 
-10.0724 1.58171 -1.4039 71 46 124 255 
-9.39657 1.45859 -1.38892 70 48 126 255 
-8.76759 1.3658 -1.38001 67 61 132 255 
-8.19022 1.28165 -1.36792 66 63 133 255 
-7.72368 1.21289 -1.36733 68 57 131 255 
-7.28676 1.13629 -1.35353 64 70 136 255 
-6.85481 1.07151 -1.33857 68 59 132 255 
-6.48821 1.01531 -1.33253 70 50 126 255 
-6.10654 0.957847 -1.31724 68 59 132 255 
-5.87297 0.918972 -1.31894 65 66 135 255 
-5.59292 0.876258 -1.31114 67 62 133 255 
-5.35539 0.839952 -1.31044 66 64 134 255 
-5.16817 0.808814 -1.31978 69 56 130 255 
-4.95353 0.779525 -1.31085 69 53 129 255 
-4.76019 0.749195 -1.30743 70 51 127 255 
-4.57075 0.717704 -1.30401 70 51 127 255 
-4.42037 0.690204 -1.31081 68 59 132 255 
-17.7254 2.82807 5.39198 57 85 140 255 
-17.7267 2.81268 5.19075 57 86 140 255 
-17.7408 2.80841 5.00487 55 91 141 255 
-17.7189 2.80529 4.81696 56 89 140 255 
-17.7141 2.81677 4.65545 61 78 138 255 
-17.723 2.81526 4.4676 60 80 139 255 
-17.7036 2.81518 4.2805 61 78 138 255 
-17.6884 2.81627 4.10222 65 66 135 255 
-17.7079 2.81262 3.95527 58 83 139 255 
-17.6826 2.812 3.76334 57 85 140 255 
-17.6757 2.82023 3.58637 54 93 141 255 
-17.6795 2.82748 3.4154 57 86 140 255 
-17.6672 2.80615 3.26383 55 90 140 255 
-17.6642 2.81224 3.08635 53 94 141 255 
-17.6537 2.82304 2.90841 55 91 141 255 
-17.6706 2.84186 2.74513 54 92 141 255 
-17.6743 2.81044 2.59804 53 95 141 255 
-17.658 2.81441 2.42077 52 97 141 255 
-17.6572 2.83309 2.24964 54 93 141 255 
-17.6393 2.84313 2.08308 57 86 140 255 
-17.6681 2.80945 1.94033 59 82 139 255 
-17.6632 2.82473 1.76966 57 86 140 255 
-17.6357 2.83279 1.59726 60 79 138 255 
-17.6583 2.85566 1.43293 62 74 137 255 
-17.6492 2.80961 1.29045 61 78 138 255 
-17.6028 2.81821 1.11845 63 72 137 255 
-17.5996 2.83645 0.949859 66 64 134 255 
-17.6032 2.85305 0.781718 68 59 132 255 
-17.6018 2.80835 0.641133 66 63 133 255 
-17.6055 2.82495 0.473142 69 55 129 255 
-17.6225 2.84329 0.305347 68 57 131 255 
-16.3926 2.66271 0.130438 70 51 127 255 
-16.0663 2.56624 -0.00283965 70 50 126 255 
-16.284 2.61874 -0.158329 72 41 121 255 
-16.2717 2.63118 -0.310735 68 59 132 255 
-14.2733 2.32357 -0.40899 68 59 132 255 
-14.2901 2.29018 -0.525622 50 101 142 255 
-14.2974 2.30438 -0.660155 56 89 140 255 
-14.2635 2.30899 -0.795184 67 61 132 255 
-14.2254 2.31831 -0.929525 71 47 125 255 
-14.2666 2.28896 -1.04839 58 84 140 255 
-14.2421 2.30057 -1.18102 61 77 138 255 
-14.2698 2.31769 -1.32076 60 79 138 255 
-14.3234 2.33429 -1.46388 66 65 134 255 
-13.0968 2.10831 -1.44577 72 37 118 255 
-11.9167 1.92707 -1.43089 72 37 118 255 
-10.8761 1.76844 -1.41156 72 37 118 255 
-10.0644 1.6438 -1.40418 71 46 124 255 
-9.38256 1.51542 -1.3882 70 51 127 255 
-8.73856 1.41626 -1.37678 69 56 130 255 
-8.18221 1.33188 -1.36792 68 58 131 255 
-7.71124 1.25946 -1.36647 69 53 129 255 
-7.28062 1.18114 -1.35371 64 70 136 255 
-6.84811 1.11355 -1.33857 68 58 131 255 
-6.48863 1.0562 -1.33392 69 56 130 255 
-6.13143 1.00034 -1.32391 68 57 131 255 
-5.85662 0.953265 -1.31656 68 57 131 255 
-5.58167 0.909619 -1.30979 67 62 133 255 
-5.36164 0.874674 -1.31326 69 55 129 255 
-5.13153 0.835368 -1.31171 70 51 127 255 
-4.91619 0.804591 -1.30225 70 51 127 255 
-4.76503 0.779948 -1.31005 69 56 130 255 
-4.56816 0.746046 -1.30455 69 55 129 255 
-4.41321 0.716852 -1.30997 68 58 131 255 
-17.7021 2.93584 5.39025 61 78 138 255 
-17.7196 2.92312 5.1938 55 90 140 255 
-17.7166 2.91612 5.003 58 84 140 255 
-17.7032 2.91427 4.81748 58 84 140 255 
-17.7022 2.92636 4.65695 62 74 137 255 
-17.7217 2.92665 4.4717 57 86 140 255 
-17.7004 2.92614 4.28398 62 73 137 255 
-17.6862 2.9273 4.10579 63 71 136 255 
-17.6913 2.92138 3.95549 61 78 138 255 
-17.6882 2.92428 3.76827 58 83 139 255 
-17.6745 2.93136 3.58971 53 95 141 255 
-17.6579 2.93527 3.41465 56 89 140 255 
-17.6477 2.91419 3.26347 53 94 141 255 
-17.6486 2.9209 3.08669 55 90 140 255 
-17.6633 2.93584 2.91291 54 92 141 255 
-17.6431 2.94861 2.74361 55 91 141 255 
-17.6548 2.91852 2.59776 49 103 142 255 
-17.6639 2.92659 2.42399 51 98 141 255 
-17.6483 2.94285 2.25077 53 95 141 255 
-17.6225 2.95148 2.0832 62 76 138 255 
-17.6505 2.91781 1.94033 58 83 139 255 
-17.6554 2.93469 1.77065 56 89 140 255 
-17.6425 2.94504 1.59949 59 82 139 255 
-17.6385 2.96363 1.43277 62 76 138 255 
-17.6395 2.91915 1.29103 57 86 140 255 
-17.6236 2.93256 1.12089 61 78 138 255 
-17.6026 2.94785 0.950976 67 61 132 255 
-17.5883 2.9615 0.78185 68 59 132 255 
-17.5813 2.91581 0.641026 65 68 135 255 
-17.5918 2.93358 0.473248 65 68 135 255 
-17.584 2.94789 0.304988 69 53 129 255 
-17.2299 2.90733 0.137239 72 33 115 255 
-16.146 2.68066 -0.00285658 72 38 119 255 
-16.241 2.71415 -0.158069 71 42 122 255 
-16.0423 2.69519 -0.306664 72 36 117 255 
-14.311 2.41994 -0.410489 59 82 139 255 
-16.4228 2.73543 -0.604673 70 52 128 255 
-16.49 2.76168 -0.762158 70 50 126 255 
-17.3103 2.91133 -0.966024 71 44 122 255 
-16.4139 2.77847 -1.07362 72 31 112 255 
-16.6625 2.77836 -1.22569 72 32 113 255 
-16.6192 2.78928 -1.37953 72 22 104 255 
-16.3538 2.75926 -1.51518 72 27 109 255 
-14.503 2.45501 -1.48375 72 35 116 255 
-13.065 2.18552 -1.44372 72 31 112 255 
-11.8978 1.999 -1.43007 72 41 121 255 
-10.9237 1.84505 -1.41918 72 33 115 255 
-10.0405 1.70321 -1.40227 72 36 117 255 
-9.38187 1.57444 -1.3895 70 52 128 255 
-8.72678 1.46936 -1.37632 69 55 129 255 
-8.17096 1.38156 -1.36744 68 59 132 255 
-7.69171 1.30478 -1.3644 69 53 129 255 
-7.26062 1.22366 -1.35137 66 64 134 255 
-6.84502 1.1562 -1.33933 68 59 132 255 
-6.4656 1.09322 -1.33054 68 57 131 255 
-6.12904 1.03859 -1.32474 65 66 135 255 
-5.83045 0.985765 -1.31201 67 62 133 255 
-5.5683 0.942549 -1.30798 67 62 133 255 
-5.35809 0.907881 -1.31373 68 57 131 255 
-5.12153 0.866031 -1.31049 69 53 129 255 
-4.90926 0.834417 -1.30175 69 53 129 255 
-4.76491 0.80998 -1.31136 70 52 128 255 
-4.54926 0.771648 -1.30048 70 51 127 255 
-4.38601 0.740086 -1.30322 67 61 132 255 
-17.6885 3.04521 5.39169 58 84 140 255 
-17.7136 3.03389 5.19741 56 89 140 255 
-17.687 3.02283 4.99977 57 86 140 255 
-17.6936 3.02431 4.81981 58 83 139 255 
-17.6935 3.03656 4.65947 61 78 138 255 
-17.6833 3.03189 4.46663 59 81 139 255 
-17.683 3.03485 4.28422 61 77 138 255 
-17.6554 3.03362 4.10289 65 66 135 255 
-17.6788 3.03087 3.95678 61 78 138 255 
-17.6834 3.03507 3.77115 57 86 140 255 
-17.6484 3.03842 3.58814 54 92 141 255 
-17.6522 3.04573 3.41709 58 84 140 255 
-17.6353 3.02341 3.26455 57 86 140 255 
-17.6459 3.0318 3.08941 56 89 140 255 
-17.6595 3.04668 2.91531 54 92 141 255 
-17.6305 3.05782 2.74452 57 85 140 255 
-17.6415 3.02763 2.59848 50 100 142 255 
-17.6485 3.03543 2.42439 50 101 142 255 
-17.6143 3.04837 2.24877 55 90 140 255 
-17.6178 3.06193 2.08482 57 85 140 255 
-17.6343 3.02639 1.94054 58 84 140 255 
-17.6292 3.04161 1.76986 55 90 140 255 
-17.6271 3.05375 1.59975 58 84 140 255 
-17.6347 3.07437 1.43396 62 76 138 255 
-17.6183 3.02682 1.29081 59 82 139 255 
-17.5885 3.03775 1.11983 62 73 137 255 
-17.6127 3.06076 0.952519 65 68 135 255 
-17.6042 3.07538 0.783383 66 65 134 255 
-17.6025 3.03042 0.642464 65 66 135 255 
-17.5922 3.04471 0.473752 67 61 132 255 
-17.4503 3.03568 0.302987 71 45 123 255 
-16.2996 2.85333 0.129966 71 46 124 255 
-16.282 2.806 -0.00288363 72 35 116 255 
-15.9442 2.76523 -0.155343 70 50 126 255 
-15.9998 2.78911 -0.306174 71 47 125 255 
-16.1558 2.83395 -0.463892 72 37 118 255 
-16.2373 2.80704 -0.598466 68 57 131 255 
-16.3123 2.83492 -0.754736 66 63 133 255 
-16.4708 2.87417 -0.920141 72 41 121 255 
-16.2629 2.85566 -1.06487 72 41 121 255 
-16.1597 2.79653 -1.18994 69 56 130 255 
-16.0784 2.80006 -1.33605 72 37 118 255 
-14.7818 2.5874 -1.37098 72 26 108 255 
-14.4642 2.53982 -1.48134 72 26 108 255 
-13.0661 2.26819 -1.44534 72 28 110 255 
-11.8687 2.06906 -1.42807 72 37 118 255 
-10.9122 1.91204 -1.41918 72 37 118 255 
-10.0132 1.76186 -1.39995 72 37 118 255 
-9.36716 1.63113 -1.38878 70 51 127 255 
-8.67769 1.5159 -1.37002 69 56 130 255 
-8.15164 1.4298 -1.36565 68 57 131 255 
-7.669 1.34939 -1.36182 70 50 126 255 
-7.25879 1.26921 -1.35245 68 57 131 255 
-6.8494 1.20022 -1.3416 69 53 129 255 
-6.43464 1.12864 -1.32557 70 48 126 255 
-6.10425 1.07296 -1.32078 64 70 136 255 
-5.81275 1.0195 -1.30941 68 59 132 255 
-5.55666 0.975687 -1.30663 66 65 134 255 
-5.33902 0.938384 -1.31044 70 52 128 255 
-5.12471 0.898947 -1.31269 69 55 129 255 
-4.9212 0.867547 -1.3063 69 55 129 255 
-4.7589 0.839034 -1.31109 70 51 127 255 
-4.55297 0.801048 -1.30292 70 51 127 255 
-4.39935 0.770128 -1.30856 68 58 131 255 
-17.6911 3.15756 5.39831 57 85 140 255 
-17.689 3.14152 5.19575 57 85 140 255 
-17.6767 3.13281 5.00219 58 84 140 255 
-17.687 3.13501 4.82318 59 82 139 255 
-17.6764 3.14541 4.65997 62 74 137 255 
-17.6634 3.14016 4.46639 59 81 139 255 
-17.6804 3.1462 4.28817 62 73 137 255 
-17.6384 3.14224 4.10334 65 68 135 255 
-17.6532 3.13809 3.95527 60 80 139 255 
-17.6509 3.14112 3.76827 56 88 140 255 
-17.6237 3.14562 3.58696 53 94 141 255 
-17.6389 3.15502 3.41821 56 89 140 255 
-17.6319 3.13432 3.26742 58 84 140 255 
-17.6279 3.14019 3.08958 54 93 141 255 
-17.6211 3.15151 2.9121 55 91 141 255 
-17.6377 3.17066 2.74861 55 90 140 255 
-17.6245 3.13616 2.59876 50 102 142 255 
-17.6334 3.14435 2.42493 51 98 141 255 
-17.5923 3.15587 2.24839 52 97 141 255 
-17.5987 3.16997 2.08482 61 77 138 255 
-17.6154 3.13454 1.94054 58 83 139 255 
-17.6112 3.1499 1.76996 57 85 140 255 
-17.6129 3.16273 1.6002 57 85 140 255 
-17.5978 3.17932 1.43253 62 74 137 255 
-17.6093 3.13662 1.29153 59 82 139 255 
-17.5794 3.14737 1.12046 64 70 136 255 
-17.5857 3.16735 0.952093 66 65 134 255 
-17.5506 3.17711 0.78185 69 55 129 255 
-17.5885 3.13924 0.642643 67 62 133 255 
-17.5968 3.15683 0.474389 68 59 132 255 
-17.3822 3.13383 0.302131 70 51 127 255 
-16.8859 3.06287 0.134789 72 33 115 255 
-16.1079 2.87789 -0.00285588 72 41 121 255 
-16.2793 2.92634 -0.15878 70 50 126 255 
-14.3118 2.58542 -0.274169 58 83 139 255 
-16.3879 2.97843 -0.471072 69 53 129 255 
-16.3289 2.92618 -0.602495 69 56 130 255 
-16.3664 2.94789 -0.75806 69 55 129 255 
-16.3615 2.95865 -0.91503 69 56 130 255 
-16.2166 2.95021 -1.063 72 37 118 255 
-16.1305 2.89351 -1.18908 70 51 127 255 
-16.0433 2.89547 -1.33458 72 38 119 255 
-13.8485 2.51171 -1.28582 72 33 115 255 
-13.2384 2.40841 -1.35729 72 29 111 255 
-13.0225 2.34304 -1.44209 72 32 113 255 
-11.8196 2.13532 -1.42371 72 33 115 255 
-10.8564 1.97099 -1.41347 72 32 113 255 
-9.99933 1.82274 -1.39954 71 44 122 255 
-9.33944 1.68541 -1.38618 68 58 131 255 
-8.66725 1.56894 -1.36987 69 55 129 255 
-8.12912 1.47732 -1.36337 68 57 131 255 
-7.64314 1.39324 -1.35872 70 51 127 255 
-7.22764 1.30951 -1.34812 69 53 129 255 
-6.84384 1.24257 -1.34198 68 59 132 255 
-6.40638 1.16424 -1.32119 71 46 124 255 
-6.07831 1.1069 -1.31661 68 59 132 255 
-5.82368 1.05829 -1.31331 68 58 131 255 
-5.54481 1.00872 -1.30528 69 56 130 255 
-5.30638 0.966251 -1.30386 68 57 131 255 
-5.09811 0.926561 -1.30731 71 46 124 255 
-4.90721 0.896163 -1.30402 68 57 131 255 
-4.66536 0.852092 -1.28674 71 46 124 255 
-4.52051 0.823964 -1.29505 71 45 123 255 
-4.3936 0.796936 -1.30828 66 63 133 255 
-17.6855 3.26866 5.40262 58 84 140 255 
-17.6779 3.25156 5.19825 58 84 140 255 
-17.6609 3.24191 5.00326 58 83 139 255 
-17.6789 3.24557 4.82629 56 88 140 255 
-17.6568 3.25381 4.65997 63 72 137 255 
-17.661 3.25165 4.47074 61 77 138 255 
-17.6827 3.25867 4.29351 60 79 138 255 
-17.661 3.25819 4.11316 64 69 136 255 
-17.6413 3.24776 3.957 59 81 139 255 
-17.6227 3.24777 3.76642 59 81 139 255 
-17.6185 3.25637 3.58991 52 96 141 255 
-17.6154 3.26248 3.41746 57 85 140 255 
-17.624 3.24458 3.26957 53 95 141 255 
-17.6383 3.25384 3.09485 52 96 141 255 
-17.6082 3.26083 2.91323 56 89 140 255 
-17.6208 3.27937 2.74907 55 90 140 255 
-17.6137 3.24586 2.60006 52 97 141 255 
-17.5885 3.24781 2.42144 52 96 141 255 
-17.5853 3.26611 2.25002 53 95 141 255 
-17.6023 3.28227 2.0876 61 77 138 255 
-17.6085 3.24491 1.94194 57 85 140 255 
-17.5954 3.25862 1.77035 56 88 140 255 
-17.599 3.27183 1.60073 60 80 139 255 
-17.575 3.28669 1.43229 62 74 137 255 
-17.5867 3.24406 1.29131 59 82 139 255 
-17.5607 3.25536 1.12052 65 68 135 255 
-17.5748 3.27684 0.952572 64 69 136 255 
-17.5544 3.28916 0.782901 69 56 130 255 
-17.5768 3.24856 0.642931 66 65 134 255 
-16.5756 3.07872 0.447359 72 36 117 255 
-16.2706 3.03663 0.28313 70 52 128 255 
-16.229 3.04668 0.129691 71 44 122 255 
-16.1765 2.99268 -0.00287124 71 44 122 255 
-16.148 3.00514 -0.157676 68 57 131 255 
-14.2691 2.66823 -0.273661 61 78 138 255 
-11.479 2.15911 -0.330342 72 32 113 255 
-11.556 2.14413 -0.426864 72 32 113 255 
-11.5281 2.14954 -0.534563 69 55 129 255 
-16.2969 3.05036 -0.912448 72 38 119 255 
-16.1246 3.03581 -1.05818 72 37 118 255 
-16.1124 2.99243 -1.18908 70 50 126 255 
-15.9978 2.98874 -1.33229 72 22 104 255 
-11.8762 2.22936 -1.10395 72 23 105 255 
-11.9767 2.25488 -1.22933 72 38 119 255 
-12.4567 2.32023 -1.38098 72 38 119 255 
-11.7926 2.20524 -1.42206 72 37 118 255 
-10.8197 2.03298 -1.41029 72 37 118 255 
-9.97238 1.88112 -1.39736 72 36 117 255 
-9.29002 1.73542 -1.3804 70 52 128 255 
-8.64775 1.62028 -1.36833 70 52 128 255 
-8.11506 1.52626 -1.36255 67 62 133 255 
-7.6509 1.44321 -1.36165 70 50 126 255 
-7.20593 1.3513 -1.34559 70 51 127 255 
-6.83802 1.2849 -1.34236 70 50 126 255 
-6.40104 1.20389 -1.32159 69 56 130 255 
-6.09062 1.14779 -1.32078 68 58 131 255 
-5.82379 1.09526 -1.31482 68 58 131 255 
-5.57586 1.04975 -1.31408 68 59 132 255 
-5.32137 1.00275 -1.30903 69 55 129 255 
-5.08566 0.95657 -1.30559 69 53 129 255 
-4.91398 0.928591 -1.30731 68 58 131 255 
-4.71315 0.890739 -1.30141 69 55 129 255 
-4.50307 0.849367 -1.29153 71 44 122 255 
-4.39711 0.825473 -1.31081 67 62 133 255 
-17.6699 3.37802 5.40406 55 90 140 255 
-17.6717 3.36266 5.20241 58 84 140 255 
-17.6634 3.35452 5.00971 57 86 140 255 
-17.6539 3.35308 4.825 60 80 139 255 
-17.6508 3.3648 4.66374 62 73 137 255 
-17.655 3.36267 4.47436 62 74 137 255 
-17.6605 3.36675 4.29304 59 82 139 255 
-17.6349 3.3654 4.11182 64 69 136 255 
-17.6373 3.35905 3.96066 59 81 139 255 
-17.6236 3.35987 3.77095 59 81 139 255 
-17.6184 3.36828 3.59403 55 91 141 255 
-17.6056 3.37253 3.41952 59 82 139 255 
-17.6134 3.3545 3.27137 54 92 141 255 
-17.6238 3.36311 3.09587 52 96 141 255 
-17.6121 3.37345 2.91724 56 88 140 255 
-17.5926 3.38593 2.74786 57 86 140 255 
-17.5963 3.35443 2.60049 51 99 141 255 
-17.578 3.35753 2.42278 50 100 142 255 
-17.5883 3.37844 2.25301 53 95 141 255 
-17.5867 3.39115 2.08818 59 82 139 255 
-17.5941 3.35401 1.94259 57 86 140 255 
-17.5937 3.37008 1.77222 58 83 139 255 
-17.5815 3.38032 1.601 59 81 139 255 
-17.5751 3.39844 1.43396 62 73 137 255 
-17.5822 3.3549 1.29247 57 85 140 255 
-17.5492 3.36474 1.12108 64 69 136 255 
-17.5475 3.3833 0.9522 65 66 135 255 
-17.5554 3.40099 0.783864 67 62 133 255 
-17.5673 3.35841 0.643326 66 63 133 255 
-17.542 3.3697 0.473991 67 61 132 255 
-16.8702 3.25577 0.293905 71 46 124 255 
-16.1678 3.13801 0.129354 68 58 131 255 
-16.149 3.09019 -0.00286967 68 58 131 255 
-16.0949 3.09755 -0.15734 69 55 129 255 
