ply
format ascii 1.0
comment VTK generated PLY File
obj_info vtkPolyData points and polygons: vtk4.0
element vertex 1177
property float x
property float y
property float z
property uchar red
property uchar green
property uchar blue
property uchar alpha
element face 0
property list uchar int vertex_indices
end_header
10.0269 0.669929 -0.189446 48 105 142 255 
10.0503 0.660786 -0.284854 45 113 142 255 
9.99716 0.68203 -0.363929 63 71 136 255 
10.0378 0.675851 -0.458607 59 82 139 255 
10.0814 0.671803 -0.556041 49 104 142 255 
10.0963 0.662044 -0.652527 44 114 142 255 
10.1259 0.68904 -0.736415 56 89 140 255 
10.1045 0.676797 -0.829042 50 100 142 255 
10.2896 0.680269 -0.9421 66 64 134 255 
9.66509 0.633769 -0.977021 68 57 131 255 
8.99414 0.607303 -0.982485 69 56 130 255 
8.36268 0.558666 -0.993478 69 53 129 255 
7.87243 0.519085 -1.01067 65 66 135 255 
7.4003 0.482669 -1.02114 65 66 135 255 
7.02159 0.470425 -1.02789 61 78 138 255 
6.66599 0.442982 -1.039 61 78 138 255 
6.32561 0.415984 -1.04605 57 85 140 255 
6.03046 0.393325 -1.05689 62 73 137 255 
5.78643 0.383622 -1.06434 58 83 139 255 
5.55527 0.366249 -1.07411 57 86 140 255 
5.2964 0.348301 -1.077 59 81 139 255 
5.10326 0.333743 -1.08985 61 78 138 255 
4.90194 0.322409 -1.08998 64 70 136 255 
4.70314 0.308421 -1.0916 65 68 135 255 
4.48786 0.293557 -1.08722 70 52 128 255 
4.35871 0.286577 -1.10206 71 47 125 255 
4.17464 0.270921 -1.0936 70 52 128 255 
4.04784 0.262611 -1.10057 72 35 116 255 
3.90812 0.25495 -1.10381 71 19 101 255 
3.80634 0.251592 -1.11765 70 10 93 255 
14.1168 0.885975 4.24897 71 19 101 255 
15.945 1.01445 4.62066 70 8 92 255 
10.0008 0.639861 2.79233 66 63 133 255 
16.6298 1.06366 4.47439 69 55 129 255 
9.95169 0.629794 2.58812 56 88 140 255 
9.96033 0.631949 2.48468 61 77 138 255 
15.3974 0.974353 3.68406 72 24 106 255 
10.703 0.675217 2.4562 63 71 136 255 
10.7036 0.679252 2.36593 65 66 135 255 
10.5841 0.669671 2.22908 55 91 141 255 
10.6304 0.667106 2.13414 64 69 136 255 
15.7783 0.984353 3.01571 72 26 108 255 
15.9786 1.014 2.92118 59 81 139 255 
12.8266 0.809307 2.21763 71 14 97 255 
15.8514 0.989193 2.58374 71 16 99 255 
12.7604 0.784917 1.96087 57 85 140 255 
13.0903 0.828423 1.90414 70 50 126 255 
16.1386 1.01545 2.18921 71 47 125 255 
34.0134 2.1047 4.28698 70 11 94 255 
13.2642 0.811268 1.54934 65 68 135 255 
34.1351 2.16025 3.70964 70 7 90 255 
36.577 2.28223 3.62567 70 8 92 255 
13.7956 0.851238 1.236 70 50 126 255 
10.4612 0.634341 0.839553 46 111 142 255 
10.3653 0.654158 0.749941 69 56 130 255 
10.1892 0.633975 0.640502 65 66 135 255 
10.2752 0.628616 0.548515 61 78 138 255 
10.3692 0.625134 0.455367 48 106 142 255 
10.4287 0.654509 0.375852 69 56 130 255 
10.4593 0.647116 0.278071 62 74 137 255 
10.4959 0.640283 0.179876 50 100 142 255 
10.4998 0.629337 0.0826152 43 116 142 255 
10.4366 0.653176 -0.00182509 68 59 132 255 
10.0046 0.61548 -0.096222 72 26 108 255 
10.0467 0.609361 -0.189747 39 126 142 255 
10.0531 0.599046 -0.284826 41 121 142 255 
10.061 0.624389 -0.366106 39 128 142 255 
10.0577 0.615224 -0.459335 41 121 142 255 
10.0723 0.609149 -0.555327 41 121 142 255 
10.0862 0.599254 -0.651626 42 120 142 255 
10.0822 0.623939 -0.732942 40 124 142 255 
10.0826 0.613211 -0.826921 42 119 142 255 
10.2975 0.617359 -0.942464 69 55 129 255 
9.67774 0.574984 -0.977925 67 61 132 255 
8.97388 0.550643 -0.979885 68 59 132 255 
8.37488 0.507884 -0.994538 68 58 131 255 
7.85567 0.469587 -1.00813 66 64 134 255 
7.41697 0.438071 -1.02305 65 68 135 255 
7.02335 0.427272 -1.02775 59 81 139 255 
6.67943 0.402726 -1.04069 59 81 139 255 
6.33001 0.37728 -1.04638 57 86 140 255 
6.05046 0.35736 -1.06 61 78 138 255 
5.80046 0.348819 -1.06651 60 80 139 255 
5.54467 0.331394 -1.07165 58 83 139 255 
5.30333 0.316088 -1.07799 59 82 139 255 
5.09838 0.302019 -1.08839 65 66 135 255 
4.897 0.291919 -1.08847 66 63 133 255 
4.70883 0.279789 -1.09251 68 59 132 255 
4.49928 0.266589 -1.08957 70 52 128 255 
4.36329 0.26 -1.10279 69 56 130 255 
4.19264 0.246265 -1.0979 70 50 126 255 
4.0513 0.237882 -1.10109 72 38 119 255 
3.92882 0.232101 -1.10923 72 24 106 255 
3.7762 0.226337 -1.10837 71 14 97 255 
14.2061 0.804102 4.27428 71 47 125 255 
15.1453 0.870302 4.3873 69 5 89 255 
14.5091 0.83895 4.04958 66 64 134 255 
16.661 0.96305 4.48113 72 29 111 255 
10.8212 0.618183 2.81322 72 41 121 255 
9.9088 0.567658 2.47091 63 72 137 255 
10.5847 0.604618 2.5316 72 35 116 255 
10.9347 0.622496 2.50844 66 63 133 255 
10.8948 0.62429 2.40729 68 59 132 255 
10.588 0.604715 2.22908 50 102 142 255 
10.7165 0.60652 2.15064 54 93 141 255 
15.8075 0.888845 3.02021 71 19 101 255 
16.012 0.917515 2.92621 67 61 132 255 
34.345 1.95554 5.93584 71 17 100 255 
15.9508 0.897178 2.59899 72 28 110 255 
12.7817 0.707535 1.96345 67 61 132 255 
12.7454 0.728106 1.85328 65 66 135 255 
13.305 0.755233 1.80417 72 20 103 255 
33.9038 1.88917 4.27163 72 20 103 255 
13.2094 0.726592 1.54239 72 27 109 255 
35.9026 2.051 3.90028 69 4 87 255 
36.2783 2.04021 3.59475 70 10 93 255 
36.6232 2.03429 3.28002 70 8 92 255 
10.4788 0.5709 0.840671 41 123 142 255 
10.411 0.592927 0.752966 55 90 140 255 
10.2507 0.574684 0.644134 35 138 141 255 
10.2958 0.566489 0.54942 38 129 142 255 
10.3279 0.559068 0.453397 39 127 142 255 
10.4844 0.593444 0.377721 38 130 142 255 
10.518 0.585985 0.27953 37 131 142 255 
10.5157 0.576745 0.18015 37 132 142 255 
10.5085 0.565168 0.0826545 40 124 142 255 
10.5083 0.592957 -0.00183696 38 130 142 255 
10.0232 0.55491 -0.096366 72 31 112 255 
10.0523 0.547813 -0.189785 39 127 142 255 
10.0596 0.53751 -0.284911 40 125 142 255 
10.0646 0.562645 -0.366106 38 130 142 255 
10.0713 0.554048 -0.459791 38 130 142 255 
10.0739 0.547226 -0.555217 45 113 142 255 
10.0768 0.536665 -0.650789 42 119 142 255 
10.0838 0.561953 -0.732797 40 124 142 255 
10.0623 0.550029 -0.824963 41 121 142 255 
10.3548 0.557051 -0.947377 70 52 128 255 
9.69301 0.516227 -0.979129 64 70 136 255 
8.96816 0.495077 -0.978909 68 57 131 255 
8.38478 0.456865 -0.995362 69 53 129 255 
7.85741 0.421324 -1.008 66 64 134 255 
7.42249 0.39271 -1.02346 63 71 136 255 
7.01992 0.383846 -1.02688 58 84 140 255 
6.68473 0.361894 -1.04115 56 89 140 255 
6.34995 0.339381 -1.04931 58 84 140 255 
6.04172 0.319656 -1.0581 62 73 137 255 
5.80642 0.313433 -1.06723 60 79 138 255 
5.54464 0.297262 -1.07127 57 85 140 255 
5.31299 0.283959 -1.07958 61 78 138 255 
5.0933 0.270367 -1.08693 70 50 126 255 
4.89773 0.261814 -1.08825 65 66 135 255 
4.69684 0.250165 -1.08935 69 56 130 255 
4.52413 0.240214 -1.09521 68 58 131 255 
4.3648 0.233222 -1.10279 67 62 133 255 
4.19311 0.220484 -1.09765 70 48 126 255 
4.05943 0.213374 -1.10292 72 36 117 255 
3.95901 0.209515 -1.11737 72 23 105 255 
3.77751 0.203162 -1.10837 71 16 99 255 
16.8536 0.850247 5.06918 72 27 109 255 
13.9656 0.716563 4.04419 71 47 125 255 
14.4447 0.746329 4.03026 72 40 120 255 
9.90546 0.511599 2.66327 62 73 137 255 
10.8296 0.55202 2.81447 68 58 131 255 
10.8124 0.552885 2.69534 67 61 132 255 
10.5726 0.538868 2.52789 65 68 135 255 
10.5781 0.537101 2.42584 62 76 138 255 
10.6263 0.543512 2.34718 50 100 142 255 
10.5241 0.536301 2.21489 66 63 133 255 
15.585 0.78616 3.12665 72 33 115 255 
15.7528 0.788838 3.00878 65 68 135 255 
15.8365 0.810004 2.89318 72 41 121 255 
15.9239 0.808683 2.75121 72 20 103 255 
15.9471 0.798844 2.59755 72 33 115 255 
12.7661 0.628123 1.96042 71 13 96 255 
12.717 0.648225 1.84854 64 69 136 255 
34.0197 1.72172 4.61159 71 16 99 255 
34.542 1.7122 4.35063 70 11 94 255 
33.7261 1.64762 3.93676 72 22 104 255 
33.5802 1.71169 3.64678 70 11 94 255 
35.4771 1.77686 3.51422 70 11 94 255 
33.8634 1.67264 3.03188 71 14 97 255 
10.4991 0.50741 0.842029 38 130 142 255 
10.3278 0.524633 0.7467 60 79 138 255 
10.255 0.511826 0.644197 34 141 141 255 
10.2951 0.50311 0.549207 40 124 142 255 
10.3392 0.49607 0.453747 38 129 142 255 
10.4549 0.52744 0.376535 38 130 142 255 
10.4984 0.520299 0.27892 39 127 142 255 
10.505 0.511531 0.179911 40 125 142 255 
10.4998 0.500107 0.0825602 39 126 142 255 
10.5007 0.527916 -0.00183504 38 130 142 255 
10.0234 0.493251 -0.0963372 72 33 115 255 
10.0555 0.486123 -0.189785 41 123 142 255 
10.0657 0.475917 -0.284996 42 120 142 255 
10.0579 0.500382 -0.365743 38 130 142 255 
10.0595 0.49151 -0.459107 40 124 142 255 
10.089 0.48598 -0.555876 40 125 142 255 
10.0719 0.474449 -0.650275 42 118 142 255 
10.0751 0.499477 -0.731928 39 128 142 255 
10.0615 0.488084 -0.824636 41 123 142 255 
10.4118 0.496064 -0.95229 68 57 131 255 
9.69997 0.456929 -0.97953 68 57 131 255 
8.98592 0.440771 -0.980535 67 61 132 255 
8.39436 0.405744 -0.996186 69 55 129 255 
7.87075 0.373621 -1.0094 65 66 135 255 
7.43168 0.347483 -1.02442 62 73 137 255 
7.02412 0.340861 -1.02717 58 84 140 255 
6.69374 0.321202 -1.04223 56 89 140 255 
6.36373 0.300971 -1.05126 59 82 139 255 
6.06325 0.283499 -1.06155 64 69 136 255 
5.8102 0.277894 -1.06759 62 74 137 255 
5.54047 0.262955 -1.07014 60 79 138 255 
5.32247 0.251725 -1.08117 66 63 133 255 
5.08509 0.238652 -1.08485 68 58 131 255 
4.92655 0.233049 -1.09431 64 70 136 255 
4.69926 0.221387 -1.08957 67 62 133 255 
4.52649 0.212496 -1.09544 67 62 133 255 
4.36325 0.206298 -1.10206 66 63 133 255 
4.19825 0.194931 -1.09866 69 53 129 255 
4.06452 0.188641 -1.10397 72 41 121 255 
3.89772 0.182297 -1.09974 72 24 106 255 
3.77102 0.179615 -1.10612 72 22 104 255 
14.2073 0.629371 4.27198 71 19 101 255 
9.98138 0.45075 2.88958 61 78 138 255 
14.2229 0.647391 3.96718 71 47 125 255 
9.91131 0.450943 2.66404 64 69 136 255 
11.1123 0.498086 2.88708 69 56 130 255 
11.0192 0.495688 2.74608 61 77 138 255 
10.4689 0.469195 2.50234 71 46 124 255 
10.0875 0.450153 2.31265 61 78 138 255 
10.2909 0.463068 2.27244 66 65 134 255 
10.0325 0.449549 2.11081 54 93 141 255 
10.0678 0.44594 2.01921 65 66 135 255 
10.0823 0.442879 1.92516 65 68 135 255 
15.8412 0.712817 2.89318 68 59 132 255 
15.9472 0.711796 2.75444 72 24 106 255 
34.3153 1.50795 5.58785 72 20 103 255 
12.7282 0.547994 1.95405 71 19 101 255 
15.8537 0.710613 2.30382 72 37 118 255 
33.7386 1.5 4.57214 71 17 100 255 
35.4797 1.54051 4.46746 70 7 90 255 
33.7971 1.44328 3.94394 70 11 94 255 
33.5027 1.50169 3.63729 71 16 99 255 
35.3959 1.55512 3.50516 71 16 99 255 
33.7855 1.46104 3.02404 72 24 106 255 
10.499 0.442853 0.841789 38 130 142 255 
10.3487 0.462054 0.747997 60 79 138 255 
10.257 0.448848 0.644134 34 141 141 255 
10.291 0.439632 0.548834 42 119 142 255 
10.3181 0.431618 0.452696 38 130 142 255 
10.4749 0.464032 0.377146 35 137 142 255 
10.5024 0.455915 0.278946 38 130 142 255 
10.486 0.446129 0.179534 39 128 142 255 
10.4857 0.434968 0.0824267 45 112 142 255 
10.4998 0.463298 -0.00183434 38 129 142 255 
9.99428 0.430362 -0.09603 72 24 106 255 
10.0443 0.423824 -0.189521 38 130 142 255 
10.0625 0.4139 -0.284826 43 117 142 255 
10.0528 0.43831 -0.365453 39 127 142 255 
10.0554 0.429478 -0.458789 42 118 142 255 
10.0709 0.423186 -0.554722 44 113 142 255 
10.0656 0.412273 -0.649695 42 120 142 255 
10.069 0.437258 -0.731277 40 125 142 255 
10.0543 0.425917 -0.82382 41 122 142 255 
10.4276 0.432706 -0.953473 68 59 132 255 
9.71253 0.39781 -0.980534 65 66 135 255 
8.98846 0.385626 -0.980535 69 56 130 255 
8.40166 0.354439 -0.996774 68 58 131 255 
7.87388 0.325361 -1.00953 65 68 135 255 
7.44357 0.302278 -1.02578 62 74 137 255 
7.04288 0.298467 -1.02962 61 77 138 255 
6.71039 0.280744 -1.04453 56 88 140 255 
6.35265 0.261391 -1.04914 57 85 140 255 
6.06586 0.24633 -1.06172 61 77 138 255 
5.82162 0.242647 -1.0694 60 80 139 255 
5.56651 0.229968 -1.07487 66 64 134 255 
5.33958 0.219706 -1.08436 64 69 136 255 
5.1021 0.208083 -1.08818 63 71 136 255 
4.93471 0.203096 -1.09583 62 73 137 255 
4.72876 0.193705 -1.09612 66 64 134 255 
4.52965 0.184797 -1.09591 68 59 132 255 
4.34699 0.178805 -1.09766 66 64 134 255 
4.22643 0.170258 -1.10574 70 51 127 255 
4.04246 0.162766 -1.09768 72 41 121 255 
3.91993 0.159237 -1.10571 72 32 113 255 
3.74808 0.155479 -1.09909 72 26 108 255 
10.3167 0.393613 3.10135 64 69 136 255 
9.99932 0.390096 2.89403 55 90 140 255 
10.1377 0.399125 2.82695 70 52 128 255 
9.91968 0.390347 2.6656 72 33 115 255 
11.029 0.426564 2.86472 70 51 127 255 
11.2489 0.436879 2.80261 70 50 126 255 
9.8709 0.381722 2.3588 59 82 139 255 
9.88943 0.380528 2.26666 57 86 140 255 
10.0584 0.390779 2.22052 60 79 138 255 
10.615 0.410403 2.23278 68 59 132 255 
10.0743 0.384306 2.02 54 92 141 255 
10.1957 0.385197 1.94633 55 91 141 255 
38.1372 1.48167 6.96346 70 10 93 255 
34.5396 1.32936 5.96424 71 14 97 255 
34.244 1.29435 5.57484 71 13 96 255 
12.7807 0.471707 1.96163 71 17 100 255 
15.8519 0.613093 2.30296 72 26 108 255 
0 0 0 69 4 87 255 
12.6425 0.47123 1.5915 70 10 93 255 
26.7032 0.976233 3.11536 70 10 93 255 
33.7676 1.30601 3.66511 71 16 99 255 
33.7043 1.27365 3.33681 71 16 99 255 
34.0526 1.26331 3.0472 71 16 99 255 
10.4936 0.378137 0.84115 37 132 142 255 
10.3354 0.397933 0.746844 59 81 139 255 
10.2606 0.385942 0.644197 38 130 142 255 
10.2955 0.376553 0.548941 45 112 142 255 
10.3265 0.368513 0.452959 40 125 142 255 
10.4616 0.39914 0.376571 40 125 142 255 
10.504 0.391428 0.27892 36 134 142 255 
10.4905 0.381852 0.179569 38 129 142 255 
10.4681 0.369915 0.0822696 40 174 128 255 
10.5054 0.398978 -0.00183486 36 134 142 255 
10.0067 0.369399 -0.096126 72 26 108 255 
10.0377 0.361862 -0.189351 40 125 142 255 
10.0528 0.35173 -0.284487 42 119 142 255 
10.0523 0.376507 -0.365344 39 127 142 255 
10.0528 0.367589 -0.458561 41 123 142 255 
10.0643 0.361062 -0.554228 43 117 142 255 
10.064 0.350364 -0.649438 41 122 142 255 
10.0586 0.374985 -0.730336 40 124 142 255 
10.0548 0.364145 -0.823657 41 123 142 255 
10.43 0.368716 -0.953473 67 62 133 255 
9.72871 0.338692 -0.981939 66 65 134 255 
9.00754 0.331087 -0.982377 68 59 132 255 
8.41261 0.303203 -0.997834 69 55 129 255 
7.8797 0.277181 -1.01004 65 68 135 255 
7.4542 0.256907 -1.02701 63 71 136 255 
7.05546 0.255642 -1.03121 59 81 139 255 
6.70014 0.239141 -1.04269 58 83 139 255 
6.35709 0.22251 -1.04963 58 83 139 255 
6.05643 0.208733 -1.05982 62 73 137 255 
5.83185 0.207236 -1.07102 70 51 127 255 
5.59922 0.196912 -1.08093 65 66 135 255 
5.32026 0.186219 -1.08018 65 68 135 255 
5.1326 0.177789 -1.09443 61 77 138 255 
4.96123 0.173702 -1.10146 64 70 136 255 
4.75031 0.165398 -1.10085 64 69 136 255 
4.52876 0.156933 -1.09544 70 51 127 255 
4.35964 0.152536 -1.10059 65 66 135 255 
4.23707 0.144652 -1.10827 69 56 130 255 
4.08196 0.139275 -1.10816 71 45 123 255 
3.94776 0.13611 -1.1133 72 35 116 255 
3.79788 0.134206 -1.11343 72 27 109 255 
10.3544 0.331437 3.112 71 45 123 255 
9.98808 0.328292 2.89014 65 66 135 255 
14.0661 0.467367 3.92155 72 28 110 255 
11.1352 0.369765 2.99157 70 48 126 255 
11.0053 0.358033 2.85793 69 53 129 255 
11.2068 0.36639 2.79149 50 102 142 255 
9.89833 0.32197 2.36484 56 89 140 255 
9.99583 0.323211 2.29055 64 70 136 255 
10.0782 0.329629 2.2244 52 97 141 255 
10.3454 0.336421 2.1756 70 11 94 255 
17.2727 0.55279 3.4626 72 41 121 255 
15.5516 0.492006 2.96812 72 29 111 255 
15.8065 0.516985 2.88547 72 27 109 255 
15.4357 0.499257 2.66483 72 26 108 255 
12.7036 0.402123 2.06766 72 22 104 255 
12.7073 0.390937 1.94995 72 36 117 255 
12.8069 0.416643 1.86018 70 48 126 255 
12.758 0.410418 1.7281 71 19 101 255 
12.6055 0.392413 1.58651 63 72 137 255 
41.1471 1.25153 4.7995 69 4 87 255 
26.8065 0.872089 2.90893 70 11 94 255 
26.8265 0.84894 2.65533 70 10 93 255 
33.327 1.03166 2.98164 70 10 93 255 
10.4887 0.313534 0.840591 39 128 142 255 
10.4593 0.338444 0.755631 37 133 142 255 
10.4812 0.329852 0.65791 33 145 140 255 
10.4813 0.318963 0.558731 33 145 140 255 
10.4854 0.309776 0.459834 35 136 142 255 
10.4888 0.335741 0.377469 35 137 142 255 
10.5032 0.326876 0.27884 38 130 142 255 
10.4937 0.317507 0.179586 36 135 142 255 
10.4562 0.305268 0.0821597 39 127 142 255 
10.5047 0.334415 -0.00183434 37 131 142 255 
9.94983 0.306178 -0.0955597 72 26 108 255 
10.0387 0.300235 -0.189333 39 126 142 255 
10.0288 0.289291 -0.283752 42 119 142 255 
10.0355 0.314225 -0.364655 38 130 142 255 
10.0399 0.305443 -0.457878 41 122 142 255 
10.0513 0.298857 -0.553403 42 120 142 255 
10.06 0.288435 -0.649052 40 124 142 255 
10.0517 0.31298 -0.729685 41 123 142 255 
10.0538 0.302353 -0.823412 40 124 142 255 
10.4341 0.304769 -0.953654 67 62 133 255 
9.74751 0.279476 -0.983645 66 63 133 255 
8.98556 0.275082 -0.979776 69 55 129 255 
8.43118 0.252083 -0.999835 68 58 131 255 
7.88918 0.229057 -1.01105 66 65 134 255 
7.45861 0.211248 -1.02742 66 63 133 255 
7.06283 0.212524 -1.03208 59 81 139 255 
6.70345 0.198084 -1.043 58 83 139 255 
6.36918 0.183813 -1.05142 60 80 139 255 
6.06449 0.171763 -1.06103 69 55 129 255 
5.83793 0.171593 -1.07192 65 68 135 255 
5.60719 0.162752 -1.08226 62 74 137 255 
5.33698 0.154024 -1.08336 62 76 138 255 
5.13751 0.146404 -1.09527 61 77 138 255 
4.9583 0.143144 -1.1006 62 73 137 255 
4.75026 0.13622 -1.10063 62 76 138 255 
4.54809 0.129668 -1.09991 69 55 129 255 
4.3508 0.125503 -1.09815 66 65 134 255 
4.23788 0.118651 -1.10827 68 58 131 255 
4.07116 0.113902 -1.10502 71 42 122 255 
3.95237 0.111994 -1.11439 71 44 122 255 
3.79863 0.1109 -1.11343 72 35 116 255 
10.6166 0.274633 3.19025 64 70 136 255 
10.0514 0.268643 2.90792 69 53 129 255 
10.1023 0.273621 2.81595 68 59 132 255 
10.4132 0.281836 2.79708 72 36 117 255 
11.0538 0.291725 2.86999 62 73 137 255 
11.0681 0.293885 2.75646 59 82 139 255 
9.91665 0.261666 2.36879 66 64 134 255 
9.91285 0.259651 2.27112 66 64 134 255 
10.203 0.271052 2.25154 56 89 140 255 
15.6779 0.413546 3.29642 72 35 116 255 
15.682 0.405577 3.14316 68 59 132 255 
15.6113 0.398025 2.97899 71 17 100 255 
15.3776 0.40852 2.80667 72 28 110 255 
27.4143 0.71834 4.73197 72 20 103 255 
12.3723 0.315659 2.01339 70 51 127 255 
12.3864 0.305002 1.90038 68 59 132 255 
12.7578 0.336696 1.85271 71 17 100 255 
12.6978 0.330505 1.71965 71 45 123 255 
12.5769 0.314292 1.58264 59 82 139 255 
16.3574 0.39708 1.90764 72 35 116 255 
35.1853 0.928592 3.81747 70 10 93 255 
36.095 0.920588 3.57211 69 5 89 255 
33.3048 0.826457 2.97915 72 24 106 255 
10.4695 0.248674 0.838914 38 129 142 255 
10.4691 0.27447 0.756207 35 137 142 255 
10.47 0.265206 0.657096 34 140 141 255 
10.4631 0.25416 0.557667 37 133 142 255 
10.4891 0.24548 0.459922 38 129 142 255 
10.4707 0.270859 0.37675 35 137 142 255 
10.4171 0.260226 0.276506 37 131 142 255 
10.3715 0.250124 0.177465 39 127 142 255 
10.4669 0.241311 0.0822303 39 127 142 255 
10.4985 0.269748 -0.00183294 36 134 142 255 
9.95452 0.245195 -0.0955885 72 24 106 255 
10.0304 0.238395 -0.189144 40 124 142 255 
10.0234 0.227591 -0.283554 43 116 142 255 
10.0312 0.252492 -0.364437 39 128 142 255 
10.0336 0.243639 -0.457514 39 127 142 255 
10.042 0.236918 -0.552799 41 121 142 255 
10.0436 0.226298 -0.647893 41 122 142 255 
10.0534 0.251298 -0.729685 41 121 142 255 
10.0525 0.240587 -0.823168 40 125 142 255 
10.3939 0.239777 -0.949833 68 59 132 255 
9.74506 0.219572 -0.983244 65 66 135 255 
9.00695 0.220429 -0.981943 70 50 126 255 
8.4554 0.200888 -1.00254 66 63 133 255 
7.9063 0.181009 -1.01309 66 64 134 255 
7.46669 0.165633 -1.02837 63 72 137 255 
7.07686 0.169491 -1.03396 59 81 139 255 
6.70948 0.157064 -1.04377 61 78 138 255 
6.384 0.145043 -1.0537 68 57 131 255 
6.07823 0.134832 -1.06327 66 63 133 255 
5.84674 0.135952 -1.07337 62 73 137 255 
5.59336 0.128007 -1.07942 61 78 138 255 
5.35056 0.121563 -1.08595 63 72 137 255 
5.13733 0.114856 -1.09506 61 78 138 255 
4.96299 0.112807 -1.10146 62 74 137 255 
4.7325 0.106653 -1.09634 61 77 138 255 
4.56824 0.102194 -1.10461 68 59 132 255 
4.38444 0.0995531 -1.10646 65 66 135 255 
4.25593 0.0930261 -1.11282 65 66 135 255 
4.08047 0.0891093 -1.10737 71 45 123 255 
3.96838 0.0880819 -1.11873 72 40 120 255 
3.79348 0.0874576 -1.11174 72 33 115 255 
10.1374 0.200002 3.04583 65 68 135 255 
10.5109 0.216395 3.04044 53 95 141 255 
10.5199 0.220343 2.9319 71 13 96 255 
10.4418 0.218502 2.80434 70 52 128 255 
10.4999 0.212645 2.72579 72 41 121 255 
11.0251 0.225056 2.74535 60 80 139 255 
9.94335 0.201325 2.37483 59 82 139 255 
9.91425 0.198822 2.27112 56 88 140 255 
10.2221 0.208801 2.25542 62 74 137 255 
10.337 0.209204 2.17313 69 55 129 255 
15.6812 0.309289 3.14257 64 69 136 255 
15.5644 0.301278 2.96962 71 14 97 255 
36.3404 0.742307 6.63176 71 19 101 255 
12.1076 0.242925 2.08959 71 44 122 255 
12.521 0.242587 2.03732 72 29 111 255 
12.5115 0.231279 1.91933 72 40 120 255 
12.7804 0.25883 1.85573 72 28 110 255 
12.7056 0.252704 1.72046 68 58 131 255 
12.5082 0.235788 1.57378 68 57 131 255 
12.397 0.224839 1.44558 71 45 123 255 
16.8269 0.34078 1.82538 72 23 105 255 
34.8025 0.67397 3.44373 70 10 93 255 
33.9805 0.634623 3.03918 71 13 96 255 
10.4599 0.184236 0.838036 37 132 142 255 
10.4716 0.210247 0.756279 34 140 141 255 
10.4565 0.200671 0.656157 35 136 142 255 
10.4574 0.189828 0.557294 37 133 142 255 
10.4794 0.180926 0.45944 37 131 142 255 
10.2764 0.202743 0.369705 70 51 127 255 
10.3825 0.195625 0.275551 36 135 142 255 
10.3558 0.186175 0.177174 173 220 48 255 
10.4572 0.176897 0.0821439 38 130 142 255 
10.479 0.204914 -0.00182928 35 136 142 255 
9.95984 0.184184 -0.0956269 72 24 106 255 
10.0077 0.176423 -0.188692 46 109 142 255 
10.0006 0.165687 -0.282875 54 92 141 255 
10.0366 0.191013 -0.364582 39 127 142 255 
10.0289 0.181961 -0.45724 41 121 142 255 
10.0273 0.175018 -0.55192 49 104 142 255 
10.0218 0.164291 -0.646413 53 94 141 255 
10.0528 0.189569 -0.72954 40 125 142 255 
10.0318 0.178511 -0.821373 45 113 142 255 
10.0447 0.170062 -0.917808 70 48 126 255 
9.71638 0.159284 -0.980233 68 59 132 255 
9.03696 0.165687 -0.985085 70 50 126 255 
8.42073 0.148373 -0.998305 63 72 137 255 
7.90429 0.132444 -1.0127 66 63 133 255 
7.48639 0.120117 -1.03097 62 74 137 255 
7.09953 0.126453 -1.03714 55 90 140 255 
6.70834 0.115859 -1.04346 67 62 133 255 
6.39365 0.106016 -1.05517 66 65 134 255 
6.07894 0.0975346 -1.06327 65 66 135 255 
5.85434 0.100192 -1.07463 60 80 139 255 
5.59895 0.0937665 -1.08037 61 78 138 255 
5.34532 0.0886329 -1.08475 62 73 137 255 
5.16141 0.0837129 -1.10006 61 78 138 255 
4.96749 0.0824172 -1.10233 62 73 137 255 
4.75157 0.0779166 -1.10063 61 78 138 255 
4.57267 0.0742248 -1.10555 66 65 134 255 
4.41503 0.0731467 -1.11405 62 74 137 255 
4.2719 0.0671537 -1.11687 67 62 133 255 
4.08383 0.0641158 -1.10816 70 52 128 255 
3.9342 0.0631743 -1.10896 71 44 122 255 
3.78339 0.0640011 -1.10865 72 38 119 255 
10.2304 0.139046 3.07344 57 85 140 255 
10.5092 0.151856 3.0396 72 37 118 255 
13.1929 0.195355 3.67649 72 33 115 255 
10.7973 0.15967 2.89951 72 31 112 255 
13.5651 0.191464 3.52117 72 31 112 255 
10.9807 0.156752 2.734 59 81 139 255 
10.9481 0.154471 2.61452 70 48 126 255 
10.0196 0.139437 2.29501 62 73 137 255 
10.2827 0.146927 2.26856 68 58 131 255 
10.4056 0.146726 2.18733 66 64 134 255 
15.5936 0.211852 3.12469 71 45 123 255 
15.6995 0.207537 2.9951 68 59 132 255 
16.3602 0.233767 2.98526 72 29 111 255 
12.1887 0.169741 2.10336 68 57 131 255 
12.0772 0.159863 1.9649 62 73 137 255 
16.0679 0.198404 2.46466 71 19 101 255 
16.2975 0.23003 2.36617 72 40 120 255 
16.5475 0.227554 2.24046 72 32 113 255 
12.4022 0.157672 1.5603 72 31 112 255 
16.8437 0.202112 1.96392 72 37 118 255 
16.6517 0.235029 1.80619 71 47 125 255 
34.6627 0.458518 3.42955 71 13 96 255 
34.5574 0.433304 3.09049 70 11 94 255 
10.4399 0.119812 0.836359 62 73 137 255 
10.4657 0.145893 0.755775 37 132 142 255 
10.4266 0.136103 0.654215 46 111 142 255 
10.3875 0.124807 0.553517 58 84 140 255 
10.4134 0.115878 0.456506 64 70 136 255 
10.4543 0.142089 0.376067 34 141 141 255 
10.4395 0.132627 0.277036 39 128 142 255 
10.4497 0.123731 0.178765 47 107 142 255 
10.4031 0.112137 0.081712 66 65 134 255 
10.4791 0.140599 -0.00182911 40 124 142 255 
10.4217 0.128764 -0.100052 71 13 96 255 
10.4145 0.119678 -0.196344 70 11 94 255 
10.5072 0.109597 -0.29718 70 11 94 255 
10.1565 0.13096 -0.368901 71 16 99 255 
10.3755 0.124571 -0.472996 72 20 103 255 
10.4595 0.11837 -0.575658 71 16 99 255 
10.5276 0.107974 -0.678978 71 19 101 255 
10.2293 0.130116 -0.742277 72 22 104 255 
10.5749 0.123274 -0.865758 72 22 104 255 
10.4678 0.112983 -0.956384 68 58 131 255 
9.71419 0.0996317 -0.979932 67 62 133 255 
9.01395 0.109944 -0.982485 70 51 127 255 
8.42347 0.096724 -0.99854 69 56 130 255 
7.90198 0.0839099 -1.01232 66 64 134 255 
7.48996 0.0742082 -1.03137 63 72 137 255 
7.09918 0.0828771 -1.03699 62 74 137 255 
6.73561 0.0749918 -1.04761 66 65 134 255 
6.39122 0.066752 -1.05468 65 66 135 255 
6.08829 0.0603209 -1.06482 63 71 136 255 
5.86665 0.0643986 -1.0768 61 77 138 255 
5.60236 0.0594415 -1.08093 61 78 138 255 
5.34479 0.0558227 -1.08455 59 81 139 255 
5.17063 0.0521303 -1.10194 61 78 138 255 
4.97572 0.0520174 -1.10406 62 76 138 255 
4.76073 0.04885 -1.10266 61 77 138 255 
4.5672 0.0461072 -1.10414 62 73 137 255 
4.41248 0.0460249 -1.11331 63 72 137 255 
4.26449 0.0408664 -1.11484 66 64 134 255 
4.10635 0.039269 -1.11418 68 57 131 255 
3.94992 0.0391861 -1.1133 71 46 124 255 
3.79331 0.0408889 -1.11146 72 32 113 255 
10.7837 0.0803903 3.23944 72 20 103 255 
10.5205 0.0874573 3.04266 71 46 124 255 
16.6847 0.14467 4.64922 72 38 119 255 
10.8251 0.0936493 2.90677 72 37 118 255 
13.6009 0.108504 3.53021 72 37 118 255 
10.9611 0.0892067 2.72892 71 46 124 255 
10.9449 0.0872613 2.61359 66 63 133 255 
10.3068 0.0801851 2.36065 69 56 130 255 
10.4328 0.0850484 2.30152 72 31 112 255 
10.4239 0.0830158 2.19103 50 102 142 255 
15.4662 0.115211 3.09895 70 7 90 255 
15.7791 0.111759 3.01009 72 37 118 255 
12.6311 0.102968 2.30464 71 17 100 255 
12.2486 0.0954103 2.11357 72 36 117 255 
12.151 0.0862744 1.97678 64 69 136 255 
34.6531 0.215245 5.31515 70 11 94 255 
16.0403 0.127965 2.32867 72 29 111 255 
12.9237 0.0984136 1.7497 71 46 124 255 
16.7814 0.110366 2.1111 68 57 131 255 
16.9866 0.0995904 1.98048 70 52 128 255 
16.7801 0.133866 1.81999 71 16 99 255 
34.437 0.244207 3.40701 71 14 97 255 
34.2387 0.219202 3.06181 71 17 100 255 
34.2956 0.18314 2.74735 70 7 90 255 
36.5248 0.285018 2.63743 70 8 92 255 
34.4634 0.23838 2.16227 71 17 100 255 
34.0851 0.200374 1.81618 72 23 105 255 
34.6233 0.172821 1.51776 69 4 87 255 
10.5449 0.0786104 0.379303 43 116 142 255 
10.5311 0.0691666 0.27945 44 113 142 255 
10.5393 0.0601176 0.180287 59 82 139 255 
54.4197 0.252666 0.427425 70 7 90 255 
10.6837 0.0777833 -0.00186471 70 10 93 255 
80.3257 0.499533 -0.77111 69 5 89 255 
80.2486 0.429741 -1.51285 69 5 89 255 
0 0 -0 69 5 89 255 
27.0615 0.182874 -0.982865 70 7 90 255 
19.5124 0.114534 -0.889481 72 22 104 255 
15.699 0.0813305 -0.863982 72 32 113 255 
13.5877 0.0559817 -0.8763 72 38 119 255 
12.2386 0.0805715 -0.888026 72 31 112 255 
11.2641 0.0621872 -0.922137 71 42 122 255 
10.4743 0.0487794 -0.95693 68 57 131 255 
9.73253 0.0400984 -0.981738 66 63 133 255 
9.00948 0.0546028 -0.981943 70 48 126 255 
8.42589 0.0450474 -0.998775 68 59 132 255 
7.89143 0.0353738 -1.01093 67 62 133 255 
7.49424 0.0282642 -1.03192 68 59 132 255 
7.09362 0.0392829 -1.03613 69 56 130 255 
6.72507 0.0336071 -1.04592 65 66 135 255 
6.3777 0.0274754 -1.0524 62 76 138 255 
6.10332 0.0230185 -1.0674 63 72 137 255 
5.86103 0.0283717 -1.07571 59 82 139 255 
5.62422 0.0251616 -1.0851 55 91 141 255 
5.37149 0.0231406 -1.08992 58 84 140 255 
5.15814 0.0203527 -1.09923 62 74 137 255 
4.95251 0.0213848 -1.09886 61 77 138 255 
4.76776 0.019666 -1.10424 61 77 138 255 
4.57226 0.0181017 -1.10531 64 70 136 255 
4.40784 0.0189287 -1.11209 62 73 137 255 
4.27434 0.0147325 -1.11737 66 65 134 255 
4.11327 0.0140953 -1.11601 68 57 131 255 
3.94719 0.0149382 -1.11249 71 47 125 255 
3.8242 0.0177554 -1.12046 72 26 108 255 
10.1174 0.0133425 3.03921 65 66 135 255 
10.5247 0.0229114 3.04377 65 68 135 255 
14.1547 0.0358774 3.9441 72 23 105 255 
11.095 0.0279035 2.97912 71 42 122 255 
13.6129 0.0250698 3.53323 72 41 121 255 
13.2389 0.0265097 3.29592 72 20 103 255 
10.5115 0.0193061 2.51 70 50 126 255 
10.3276 0.0169758 2.36533 59 81 139 255 
10.4322 0.0210303 2.3013 70 11 94 255 
10.386 0.0189847 2.18301 71 47 125 255 
12.6927 0.0166677 2.54317 72 26 108 255 
16.1124 0.0152539 3.07362 70 11 94 255 
37.6602 0.0759195 6.8712 70 10 93 255 
17.1269 0.0283175 2.95525 71 45 123 255 
12.4069 0.0119624 2.01837 72 33 115 255 
12.5028 0.000942793 1.91766 71 42 122 255 
16.3021 0.0300223 2.3666 71 44 122 255 
16.4628 0.0243466 2.22879 69 55 129 255 
16.7579 0.00738472 2.1081 66 63 133 255 
16.8429 -0.00460028 1.96369 72 35 116 255 
16.9784 0.0312678 1.84145 72 33 115 255 
34.5175 0.0329767 3.41488 71 13 96 255 
34.5979 0.00920887 3.09387 71 19 101 255 
35.4574 -0.0282221 2.84038 70 11 94 255 
35.0268 0.0584014 2.52919 70 7 90 255 
34.1019 0.0266287 2.13954 72 24 106 255 
35.0153 -0.00901091 1.86572 70 7 90 255 
34.7226 -0.0397399 1.5221 71 13 96 255 
10.5392 0.0138988 0.379087 44 114 142 255 
10.5273 0.00454617 0.279344 59 81 139 255 
10.5375 -0.00455056 0.180253 72 28 110 255 
0 -0 0 69 4 87 255 
65.314 0.0747516 -0.0113994 69 5 89 255 
80.3763 0.00665822 -0.771581 69 5 89 255 
80.4627 -0.0628299 -1.51687 69 4 87 255 
0 -0 -0 69 4 87 255 
56.6826 0.0352379 -2.05865 69 4 87 255 
19.3809 -0.00515857 -0.88347 71 17 100 255 
15.6733 -0.0149737 -0.862553 72 26 108 255 
13.5259 -0.0272669 -0.87231 72 28 110 255 
12.2737 0.00549125 -0.890559 71 44 122 255 
11.3102 -0.0069577 -0.92589 71 46 124 255 
10.4953 -0.0155213 -0.95884 70 52 128 255 
9.74851 -0.0196521 -0.983344 68 59 132 255 
9.04643 -0.000682161 -0.985952 70 50 126 255 
8.4419 -0.00666634 -1.00066 69 55 129 255 
7.92027 -0.0130953 -1.01461 69 53 129 255 
7.4913 -0.017713 -1.03151 70 48 126 255 
7.08878 -0.00424049 -1.03541 69 55 129 255 
6.75381 -0.00769038 -1.05037 63 72 137 255 
6.42412 -0.0117427 -1.06005 63 71 136 255 
6.09941 -0.0144219 -1.06671 64 69 136 255 
5.85815 -0.00758763 -1.07517 61 77 138 255 
5.63213 -0.00936156 -1.08662 56 89 140 255 
5.37839 -0.00983118 -1.09132 58 83 139 255 
5.15914 -0.0112995 -1.09944 60 80 139 255 
4.96719 -0.00903027 -1.10211 62 74 137 255 
4.77656 -0.00960645 -1.10627 58 84 140 255 
4.57617 -0.00996198 -1.10625 64 69 136 255 
4.39817 -0.00809977 -1.10964 62 73 137 255 
4.27435 -0.0114946 -1.11737 64 69 136 255 
4.1181 -0.0111566 -1.11732 66 64 134 255 
3.94529 -0.00927708 -1.11195 72 38 119 255 
3.82615 -0.00571266 -1.12102 72 23 105 255 
10.1565 -0.0489259 3.051 64 69 136 255 
14.1443 -0.0559975 4.09059 72 32 113 255 
10.8458 -0.0390587 3.02209 62 74 137 255 
11.1055 -0.0402129 2.98198 65 66 135 255 
13.7038 -0.0588487 3.55684 72 31 112 255 
13.2553 -0.0547912 3.30003 72 31 112 255 
12.8107 -0.0550769 3.05906 69 53 129 255 
10.5322 -0.0473129 2.41222 58 84 140 255 
10.4965 -0.0432462 2.31552 72 28 110 255 
17.2255 -0.0742081 3.62059 72 22 104 255 
10.6394 -0.0513116 2.13178 56 89 140 255 
37.68 -0.195531 7.18795 70 8 92 255 
17.3396 -0.0714399 3.16367 72 40 120 255 
17.1336 -0.0768025 2.95644 72 36 117 255 
12.459 -0.0644356 2.02688 72 28 110 255 
12.5312 -0.0759466 1.92206 65 68 135 255 
16.3871 -0.0703715 2.37895 72 31 112 255 
16.5905 -0.077263 2.24609 68 58 131 255 
16.6733 -0.0949598 2.0975 71 46 124 255 
17.1098 -0.109659 1.99484 71 42 122 255 
17.199 -0.0738581 1.86539 72 28 110 255 
35.8903 -0.185934 3.55075 70 11 94 255 
34.676 -0.203542 3.10091 71 13 96 255 
35.2014 -0.244015 2.81994 70 11 94 255 
35.0125 -0.156457 2.52818 71 19 101 255 
34.1005 -0.182612 2.13947 72 22 104 255 
35.5329 -0.227174 1.89333 71 13 96 255 
35.0314 -0.255048 1.53567 70 8 92 255 
10.4671 -0.050422 0.376499 72 41 121 255 
34.7252 -0.198077 0.921456 71 19 101 255 
0 -0 0 68 2 86 255 
0 -0 0 68 2 86 255 
0 -0 -0 68 2 86 255 
80.3948 -0.486643 -0.771773 70 7 90 255 
0 -0 -0 68 1 84 255 
0 -0 -0 69 4 87 255 
58.4446 -0.322281 -2.12267 69 5 89 255 
19.6662 -0.125906 -0.896494 72 32 113 255 
15.5131 -0.11001 -0.853761 72 33 115 255 
13.5095 -0.110129 -0.87128 72 38 119 255 
12.3005 -0.0699722 -0.892513 69 56 130 255 
11.3428 -0.0765775 -0.928583 70 50 126 255 
10.5099 -0.0800326 -0.960205 69 55 129 255 
9.75318 -0.079508 -0.983846 66 63 133 255 
9.01246 -0.0559801 -0.982268 71 47 125 255 
8.45759 -0.0585748 -1.00254 69 53 129 255 
7.94384 -0.0618783 -1.01766 70 51 127 255 
7.47817 -0.063569 -1.02974 68 58 131 255 
7.11138 -0.0478896 -1.03873 66 64 134 255 
6.75857 -0.0491667 -1.05114 64 69 136 255 
6.43576 -0.0512544 -1.06201 62 74 137 255 
6.09625 -0.0518218 -1.0662 65 66 135 255 
5.87471 -0.0436567 -1.07824 62 76 138 255 
5.63295 -0.0439271 -1.08681 55 91 141 255 
5.39783 -0.0429883 -1.09529 59 82 139 255 
5.17462 -0.0430855 -1.10277 61 77 138 255 
4.99145 -0.0397024 -1.10753 59 81 139 255 
4.79492 -0.0390655 -1.11056 61 78 138 255 
4.56145 -0.0379195 -1.10273 61 77 138 255 
4.41743 -0.035241 -1.11454 62 76 138 255 
4.28968 -0.0378579 -1.12142 60 80 139 255 
4.1112 -0.0363648 -1.11549 68 59 132 255 
3.94997 -0.0335256 -1.1133 72 33 115 255 
3.83468 -0.0292553 -1.12355 72 22 104 255 
10.1714 -0.111412 3.05561 61 77 138 255 
10.5818 -0.106826 3.06044 62 73 137 255 
10.8569 -0.105719 3.02531 70 48 126 255 
11.0162 -0.107488 2.95812 67 61 132 255 
15.9671 -0.166546 4.14445 71 14 97 255 
15.8872 -0.163158 3.95544 72 24 106 255 
12.7119 -0.132656 3.0356 62 73 137 255 
10.3582 -0.110092 2.37248 61 77 138 255 
10.5517 -0.108222 2.3278 50 100 142 255 
10.5391 -0.110074 2.2153 72 33 115 255 
10.6242 -0.116432 2.12884 52 97 141 255 
36.4553 -0.412878 6.95466 71 13 96 255 
17.2779 -0.177207 3.15255 68 57 131 255 
12.5932 -0.133725 2.17308 72 29 111 255 
12.3489 -0.139643 2.00906 61 77 138 255 
10.3146 -0.125808 1.58216 72 41 121 255 
12.6398 -0.131841 1.83504 71 46 124 255 
16.4678 -0.177743 2.22959 70 52 128 255 
17.0028 -0.201172 2.13906 71 47 125 255 
17.074 -0.214204 1.99079 72 26 108 255 
16.8801 -0.17607 1.83088 69 5 89 255 
35.7014 -0.404032 3.53224 71 16 99 255 
35.1572 -0.422106 3.14411 71 14 97 255 
35.0308 -0.457801 2.80644 70 8 92 255 
35.0099 -0.371277 2.52811 71 14 97 255 
34.2524 -0.393611 2.14912 70 7 90 255 
34.749 -0.435399 1.85167 72 20 103 255 
35.0202 -0.469871 1.53528 70 7 90 255 
34.8803 -0.382062 1.2547 71 19 101 255 
68.3452 -0.809244 1.81368 69 5 89 255 
0 -0 0 68 2 86 255 
0 -0 0 68 2 86 255 
80.08 -0.891115 -0.0139775 69 4 87 255 
79.9504 -0.974564 -0.767549 69 4 87 255 
0 -0 -0 68 1 84 255 
0 -0 -0 69 4 87 255 
59.0291 -0.68773 -2.14401 69 5 89 255 
19.9437 -0.250068 -0.909199 72 23 105 255 
16.1501 -0.213634 -0.888874 72 36 117 255 
13.5155 -0.19312 -0.871731 72 40 120 255 
12.3347 -0.145858 -0.895046 72 33 115 255 
11.3581 -0.14638 -0.929888 69 53 129 255 
10.5421 -0.144971 -0.963207 69 56 130 255 
9.76544 -0.139536 -0.985151 66 63 133 255 
8.99803 -0.111107 -0.980751 71 47 125 255 
8.4531 -0.110417 -1.00207 71 44 122 255 
7.95918 -0.110841 -1.01969 70 52 128 255 
7.50834 -0.109902 -1.03397 68 58 131 255 
7.11986 -0.0916379 -1.04003 62 74 137 255 
6.75814 -0.0906356 -1.05114 65 66 135 255 
6.43138 -0.0906869 -1.06135 64 69 136 255 
6.11059 -0.089443 -1.06878 65 66 135 255 
5.8704 -0.079649 -1.07752 62 73 137 255 
5.61686 -0.0782705 -1.08378 56 88 140 255 
5.40334 -0.0761908 -1.09649 56 89 140 255 
5.15568 -0.0745668 -1.09881 62 76 138 255 
4.99014 -0.0703148 -1.10731 60 79 138 255 
4.79069 -0.0684301 -1.10965 60 80 139 255 
4.5864 -0.0662724 -1.10884 58 83 139 255 
4.42489 -0.0624547 -1.11649 63 71 136 255 
4.2942 -0.0642506 -1.12268 64 70 136 255 
4.13309 -0.0619225 -1.12151 68 57 131 255 
3.94006 -0.0576208 -1.11059 72 32 113 255 
3.84307 -0.0529028 -1.12608 72 20 103 255 
10.4271 -0.178206 3.13271 72 27 109 255 
10.6933 -0.173577 3.09294 55 90 140 255 
10.779 -0.17111 3.00384 66 63 133 255 
10.9739 -0.17442 2.94697 72 29 111 255 
10.9196 -0.180913 2.83457 72 33 115 255 
13.5651 -0.22256 3.37757 72 23 105 255 
12.6963 -0.21041 3.03212 72 37 118 255 
10.333 -0.173238 2.3669 59 82 139 255 
10.4464 -0.171251 2.30475 69 55 129 255 
10.5373 -0.174723 2.2151 51 99 141 255 
10.5909 -0.181065 2.12235 62 74 137 255 
17.0941 -0.298511 3.26137 71 19 101 255 
17.4063 -0.285347 3.17624 69 55 129 255 
17.4102 -0.291725 3.00456 71 19 101 255 
12.3073 -0.214705 2.00247 70 52 128 255 
10.3512 -0.189783 1.58792 55 90 140 255 
16.3978 -0.271674 2.38082 69 56 130 255 
16.4951 -0.279271 2.23348 72 35 116 255 
17.3643 -0.31202 2.18474 72 36 117 255 
17.4676 -0.326349 2.03688 71 17 100 255 
37.8528 -0.627132 4.10601 70 7 90 255 
35.6565 -0.622354 3.5281 71 19 101 255 
34.9816 -0.634692 3.1287 71 14 97 255 
35.0343 -0.672871 2.807 69 5 89 255 
35.0239 -0.58637 2.52933 71 19 101 255 
40.0301 -0.705679 2.51185 69 5 89 255 
34.6957 -0.647675 1.84901 72 20 103 255 
35.2584 -0.689469 1.54588 69 4 87 255 
34.9123 -0.596675 1.25595 71 14 97 255 
68.4588 -1.23074 1.81686 69 5 89 255 
68.5478 -1.29157 1.17278 69 5 89 255 
0 -0 0 68 2 86 255 
79.8691 -1.37894 -0.0139419 70 10 93 255 
79.9769 -1.46573 -0.767875 69 5 89 255 
0 -0 -0 68 1 84 255 
0 -0 -0 69 4 87 255 
59.3954 -1.05652 -2.15751 69 5 89 255 
19.9308 -0.37223 -0.908698 72 23 105 255 
15.8281 -0.306519 -0.871235 72 40 120 255 
13.565 -0.277085 -0.875013 72 28 110 255 
12.3595 -0.222005 -0.896927 72 41 121 255 
11.349 -0.215917 -0.929235 70 48 126 255 
10.547 -0.209772 -0.963753 70 50 126 255 
9.75247 -0.199209 -0.983946 66 64 134 255 
9.03196 -0.166958 -0.984544 71 44 122 255 
8.47907 -0.162796 -1.00525 70 51 127 255 
7.97124 -0.159934 -1.02135 68 58 131 255 
7.51149 -0.156053 -1.03451 68 59 132 255 
7.14785 -0.135868 -1.04422 65 66 135 255 
6.75746 -0.132101 -1.05114 66 63 133 255 
6.44649 -0.130467 -1.06396 65 68 135 255 
6.09811 -0.12669 -1.06671 67 62 133 255 
5.87472 -0.115764 -1.07842 61 77 138 255 
5.61431 -0.112694 -1.0834 59 82 139 255 
5.43119 -0.109919 -1.10225 55 90 140 255 
5.17468 -0.106603 -1.10298 61 77 138 255 
4.99156 -0.100972 -1.10774 60 80 139 255 
4.76778 -0.0973665 -1.10446 62 76 138 255 
4.58882 -0.0944728 -1.10954 64 69 136 255 
4.43218 -0.0897611 -1.11845 66 64 134 255 
4.27051 -0.0901083 -1.11661 64 69 136 255 
4.13071 -0.0872407 -1.12099 69 56 130 255 
3.92616 -0.0815157 -1.10679 72 31 112 255 
3.79086 -0.0754512 -1.1109 72 22 104 255 
10.9132 -0.253503 3.27915 59 82 139 255 
10.8995 -0.243827 3.15295 71 46 124 255 
10.7507 -0.236652 2.99632 60 80 139 255 
13.288 -0.292765 3.56883 72 29 111 255 
10.8593 -0.246571 2.81924 69 56 130 255 
14.0931 -0.317731 3.50948 72 26 108 255 
12.6967 -0.288353 3.03258 70 52 128 255 
10.3298 -0.236592 2.36645 61 78 138 255 
10.4471 -0.23539 2.30518 72 36 117 255 
10.4636 -0.23773 2.19987 70 48 126 255 
16.2535 -0.377645 3.2575 72 40 120 255 
17.3492 -0.409466 3.31047 71 47 125 255 
17.4317 -0.392765 3.18126 72 37 118 255 
9.85869 -0.225708 1.70157 69 53 129 255 
12.1893 -0.287472 1.98352 62 73 137 255 
10.3271 -0.252737 1.58443 57 85 140 255 
16.1178 -0.365971 2.34045 72 35 116 255 
16.8934 -0.389711 2.28768 72 33 115 255 
17.1776 -0.414112 2.16152 72 27 109 255 
17.5785 -0.436332 2.05008 72 29 111 255 
17.632 -0.400352 1.91283 71 42 122 255 
35.6739 -0.841643 3.53027 71 16 99 255 
35.6263 -0.865088 3.18677 70 8 92 255 
0 -0 0 69 4 87 255 
34.9817 -0.800394 2.52659 71 19 101 255 
35.0631 -0.833356 2.20046 70 7 90 255 
35.0106 -0.868476 1.86604 72 22 104 255 
34.9159 -0.897124 1.53107 70 11 94 255 
34.946 -0.811763 1.25732 70 7 90 255 
68.8627 -1.66073 1.82782 69 4 87 255 
0 -0 0 68 2 86 255 
79.5126 -2.07072 0.624715 69 5 89 255 
79.5582 -1.86194 -0.0138893 70 8 92 255 
79.3866 -1.94225 -0.762308 69 5 89 255 
0 -0 -0 68 2 86 255 
63.9402 -1.68747 -1.80898 69 4 87 255 
60.0712 -1.4373 -2.18234 70 7 90 255 
20.1089 -0.499002 -0.91694 71 19 101 255 
15.8349 -0.403862 -0.87173 71 42 122 255 
13.568 -0.360446 -0.875335 72 28 110 255 
12.3629 -0.297958 -0.897289 72 38 119 255 
11.3375 -0.285298 -0.92842 70 48 126 255 
10.5067 -0.273472 -0.960205 71 45 123 255 
9.75603 -0.259177 -0.984448 63 72 137 255 
9.13214 -0.22487 -0.995595 69 55 129 255 
8.4928 -0.215197 -1.00702 69 55 129 255 
7.96813 -0.20879 -1.02109 69 53 129 255 
7.51039 -0.20214 -1.03451 68 59 132 255 
7.14886 -0.179774 -1.04451 63 72 137 255 
6.7664 -0.173815 -1.05268 65 66 135 255 
6.41499 -0.169213 -1.05891 65 66 135 255 
6.08442 -0.16376 -1.06447 66 63 133 255 
5.86406 -0.151555 -1.07662 60 80 139 255 
5.62726 -0.147501 -1.08605 57 85 140 255 
5.42257 -0.143035 -1.10066 54 93 141 255 
5.17198 -0.1383 -1.10256 61 78 138 255 
5.00159 -0.131881 -1.11013 61 77 138 255 
4.7632 -0.126516 -1.10356 62 76 138 255 
4.59399 -0.122783 -1.11095 62 76 138 255 
4.4296 -0.116904 -1.11796 68 57 131 255 
4.25827 -0.115994 -1.11358 66 64 134 255 
4.14649 -0.113032 -1.12544 70 50 126 255 
3.93425 -0.105838 -1.10923 72 32 113 255 
3.76826 -0.0981354 -1.10443 71 17 100 255 
13.41 -0.393842 4.03003 72 36 117 255 
10.8027 -0.307991 3.12545 66 63 133 255 
10.8059 -0.304212 3.01216 57 86 140 255 
12.7183 -0.358301 3.41634 68 57 131 255 
10.8527 -0.313058 2.81799 72 29 111 255 
14.2713 -0.409374 3.55441 72 28 110 255 
12.6995 -0.366393 3.03374 64 69 136 255 
10.3369 -0.300225 2.36846 69 56 130 255 
15.9957 -0.458622 3.53004 71 42 122 255 
9.921 -0.286317 2.08613 68 59 132 255 
9.99593 -0.293629 2.00369 70 50 126 255 
9.91377 -0.294852 1.89199 70 48 126 255 
9.96336 -0.285665 1.81858 66 65 134 255 
10.0305 -0.291229 1.73149 54 92 141 255 
10.1017 -0.300264 1.64408 68 57 131 255 
10.3105 -0.315644 1.58216 69 53 129 255 
15.8443 -0.457043 2.30109 72 38 119 255 
17.1531 -0.501027 2.32323 70 48 126 255 
17.2491 -0.521754 2.17089 72 38 119 255 
17.6023 -0.545013 2.0532 72 40 120 255 
17.6422 -0.508906 1.91423 72 29 111 255 
17.6032 -0.523398 1.74229 72 29 111 255 
17.6315 -0.536399 1.5774 71 14 97 255 
79.0734 -2.4897 6.33745 69 5 89 255 
39.8903 -1.15763 2.88158 70 7 90 255 
40.163 -1.20118 2.52093 70 7 90 255 
35.1213 -1.08689 1.87226 72 24 106 255 
38.2289 -1.21701 1.67664 69 4 87 255 
0 -0 0 68 2 86 255 
69.9134 -2.11537 1.85602 69 4 87 255 
79.216 -2.46532 1.35572 70 10 93 255 
79.0037 -2.54264 0.620827 70 8 92 255 
79.0195 -2.33453 -0.0137975 70 8 92 255 
79.2822 -2.42654 -0.761434 70 7 90 255 
79.1947 -2.49233 -1.4937 69 5 89 255 
0 -0 -0 68 2 86 255 
60.5067 -1.81926 -2.19853 69 5 89 255 
19.9477 -0.617495 -0.909745 71 14 97 255 
16.0267 -0.507174 -0.882445 71 44 122 255 
13.5446 -0.443006 -0.873984 72 28 110 255 
12.3798 -0.374382 -0.898664 66 65 134 255 
11.3096 -0.354047 -0.926298 68 57 131 255 
10.4889 -0.337423 -0.958749 71 45 123 255 
9.77216 -0.31962 -0.986255 67 62 133 255 
9.15344 -0.281603 -0.998087 68 57 131 255 
8.51812 -0.268148 -1.01019 68 58 131 255 
7.98752 -0.25835 -1.02376 68 57 131 255 
7.50307 -0.248022 -1.03369 69 55 129 255 
7.13081 -0.223109 -1.04205 66 65 134 255 
6.76422 -0.215298 -1.05252 67 61 132 255 
6.41186 -0.208507 -1.05859 67 62 133 255 
6.10299 -0.201741 -1.06792 66 65 134 255 
5.86401 -0.187565 -1.0768 61 78 138 255 
5.6184 -0.181772 -1.08453 62 74 137 255 
5.39221 -0.175349 -1.0947 57 86 140 255 
5.18178 -0.170386 -1.10485 59 82 139 255 
4.99385 -0.162345 -1.10861 58 84 140 255 
4.77986 -0.156313 -1.10762 59 81 139 255 
4.54749 -0.149468 -1.09991 65 68 135 255 
4.41524 -0.14364 -1.11454 68 59 132 255 
4.25652 -0.142088 -1.11333 68 58 131 255 
4.11871 -0.13757 -1.11811 71 45 123 255 
3.95661 -0.130739 -1.11574 72 28 110 255 
3.758 -0.120946 -1.10162 71 17 100 255 
14.0735 -0.499773 4.23027 72 23 105 255 
10.7968 -0.374136 3.12434 71 46 124 255 
10.7913 -0.370081 3.00867 66 63 133 255 
11.047 -0.379066 2.96797 69 55 129 255 
14.2827 -0.499727 3.70933 71 42 122 255 
14.1328 -0.492205 3.52059 72 40 120 255 
12.662 -0.443085 3.02538 69 56 130 255 
12.5062 -0.440049 2.86609 71 46 124 255 
9.85788 -0.343189 2.17593 70 51 127 255 
9.86038 -0.345132 2.07378 54 93 141 255 
10.0282 -0.356176 2.01057 72 36 117 255 
10.2573 -0.368076 1.95795 66 65 134 255 
10.276 -0.357747 1.87602 57 86 140 255 
10.0768 -0.354467 1.73982 56 89 140 255 
10.1677 -0.364683 1.65516 67 62 133 255 
12.3462 -0.453805 1.89492 72 32 113 255 
10.5894 -0.370506 1.53822 63 72 137 255 
10.4956 -0.371035 1.42182 71 47 125 255 
12.8452 -0.467448 1.61696 68 57 131 255 
17.6314 -0.654224 2.05703 72 40 120 255 
17.595 -0.615617 1.90949 71 19 101 255 
17.5997 -0.631399 1.74229 71 16 99 255 
35.2328 -1.28831 3.15274 70 7 90 255 
39.867 -1.50016 3.19588 69 5 89 255 
39.9383 -1.40434 2.88561 70 7 90 255 
37.4679 -1.35073 2.35225 70 10 93 255 
35.614 -1.32092 1.89892 71 14 97 255 
35.1289 -1.33414 1.54101 70 8 92 255 
0 -0 0 68 2 86 255 
0 -0 0 69 4 87 255 
78.9327 -2.9414 1.35115 69 5 89 255 
78.9726 -3.02681 0.620717 69 5 89 255 
78.9597 -2.81777 -0.0137898 70 7 90 255 
78.7882 -2.89541 -0.756846 70 7 90 255 
78.7643 -2.96265 -1.4859 69 5 89 255 
65.8204 -2.5457 -1.86292 69 4 87 255 
0 -0 -0 69 4 87 255 
19.9336 -0.73951 -0.90929 72 20 103 255 
15.7988 -0.597019 -0.870081 72 29 111 255 
13.5117 -0.524943 -0.872053 72 33 115 255 
12.4062 -0.451388 -0.900763 71 42 122 255 
11.3172 -0.423808 -0.927114 72 38 119 255 
10.4538 -0.400517 -0.955747 71 47 125 255 
9.773 -0.37969 -0.986556 63 71 136 255 
9.15452 -0.337872 -0.998412 66 64 134 255 
8.50738 -0.320073 -1.00913 68 58 131 255 
8.00263 -0.308005 -1.02592 69 56 130 255 
7.51328 -0.294521 -1.03533 66 65 134 255 
7.12832 -0.266822 -1.04191 66 65 134 255 
6.7835 -0.257586 -1.05575 65 68 135 255 
6.43116 -0.248646 -1.06201 64 70 136 255 
6.12329 -0.240033 -1.07171 65 68 135 255 
5.88338 -0.224329 -1.08059 61 78 138 255 
5.64268 -0.217225 -1.08946 57 85 140 255 
5.39691 -0.208659 -1.09589 56 88 140 255 
5.18846 -0.202482 -1.10652 62 73 137 255 
5.00154 -0.193323 -1.11056 62 74 137 255 
4.77589 -0.185525 -1.10695 62 73 137 255 
4.5562 -0.177747 -1.10226 68 59 132 255 
4.4104 -0.170578 -1.11356 70 52 128 255 
4.24203 -0.167667 -1.10979 70 51 127 255 
4.05704 -0.160437 -1.10161 72 41 121 255 
3.95574 -0.155014 -1.11574 72 26 108 255 
3.7802 -0.144885 -1.10837 71 16 99 255 
16.1255 -0.671738 4.84823 71 13 96 255 
10.9536 -0.446877 3.17046 70 52 128 255 
10.8091 -0.437106 3.01431 70 48 126 255 
11.138 -0.450629 2.99313 50 101 142 255 
10.526 -0.432968 2.73433 64 70 136 255 
14.2701 -0.584673 3.55562 71 45 123 255 
12.6018 -0.518411 3.01168 67 61 132 255 
10.2097 -0.42198 2.34033 60 79 138 255 
10.1493 -0.415698 2.24077 71 45 123 255 
9.85318 -0.405427 2.07276 71 46 124 255 
10.0278 -0.417783 2.01096 54 93 141 255 
10.2186 -0.42948 1.95101 59 81 139 255 
10.3493 -0.423892 1.88984 56 89 140 255 
10.0124 -0.413727 1.72911 53 95 141 255 
10.2422 -0.430295 1.66768 56 88 140 255 
15.9457 -0.684107 2.44798 72 22 104 255 
16.3576 -0.672836 2.37666 72 29 111 255 
17.2704 -0.716661 2.34014 72 35 116 255 
12.7826 -0.543726 1.60947 72 36 117 255 
12.6196 -0.545819 1.47268 71 46 124 255 
17.9356 -0.737744 1.9469 71 17 100 255 
34.7575 -1.46054 3.44166 72 23 105 255 
34.7426 -1.4839 3.10964 70 10 93 255 
34.7513 -1.52125 2.78648 71 17 100 255 
36.4509 -1.5057 2.63426 69 4 87 255 
36.6662 -1.54715 2.30246 70 11 94 255 
35.8147 -1.54847 1.91009 70 8 92 255 
0 -0 0 68 2 86 255 
78.585 -3.2736 2.8291 69 4 87 255 
78.5183 -3.34058 2.08539 69 4 87 255 
0 -0 0 68 2 86 255 
65.5372 -2.91469 0.515247 69 4 87 255 
78.6672 -3.29075 -0.013742 70 7 90 255 
78.697 -3.3757 -0.756155 69 5 89 255 
72.5696 -3.17566 -1.36938 69 5 89 255 
66.214 -2.96792 -1.87454 69 4 87 255 
60.8772 -2.57846 -2.21297 70 7 90 255 
16.9296 -0.732112 -0.77245 71 14 97 255 
15.6542 -0.687768 -0.862333 72 23 105 255 
13.5172 -0.608243 -0.872632 72 27 109 255 
12.4151 -0.528011 -0.901631 72 37 118 255 
11.0824 -0.483127 -0.908104 69 53 129 255 
10.4342 -0.4639 -0.9542 70 48 126 255 
9.74464 -0.438486 -0.983946 65 68 135 255 
9.15525 -0.394165 -0.998737 64 69 136 255 
8.51617 -0.372745 -1.01043 69 53 129 255 
7.99861 -0.357014 -1.02567 68 57 131 255 
7.51727 -0.340886 -1.03615 68 59 132 255 
7.10974 -0.309823 -1.03945 65 68 135 255 
6.77587 -0.298943 -1.05483 62 74 137 255 
6.42952 -0.288102 -1.06201 66 65 134 255 
6.15319 -0.279029 -1.07722 67 62 133 255 
5.90548 -0.261469 -1.08492 62 76 138 255 
5.61182 -0.25053 -1.08378 63 72 137 255 
5.3965 -0.241814 -1.09609 60 80 139 255 
5.2047 -0.235109 -1.11027 62 74 137 255 
4.99733 -0.223877 -1.10991 63 72 137 255 
4.79218 -0.215614 -1.11101 64 70 136 255 
4.56764 -0.20627 -1.10531 69 53 129 255 
