ply
format ascii 1.0
comment VTK generated PLY File
obj_info vtkPolyData points and polygons: vtk4.0
element vertex 1168
property float x
property float y
property float z
property uchar red
property uchar green
property uchar blue
property uchar alpha
element face 0
property list uchar int vertex_indices
end_header
-11.3455 4.8692 0.211193 70 52 128 255 
-8.44006 3.63289 0.0721695 61 78 138 255 
-8.56298 3.65906 -0.00162525 58 83 139 255 
-8.53388 3.65734 -0.0891282 59 82 139 255 
-8.47448 3.64055 -0.173877 62 76 138 255 
-8.43568 3.63449 -0.259778 65 66 135 255 
-7.63576 3.26756 -0.301647 62 73 137 255 
-7.48583 3.21127 -0.371311 54 93 141 255 
-7.47915 3.21451 -0.448009 59 82 139 255 
-7.46694 3.21865 -0.52439 61 77 138 255 
-7.47349 3.19967 -0.58987 57 86 140 255 
-7.49039 3.21633 -0.66733 52 96 141 255 
-7.45863 3.21032 -0.741853 64 69 136 255 
-6.80053 2.93139 -0.746992 66 65 134 255 
-6.65063 2.85149 -0.788653 50 100 142 255 
-6.64785 2.85592 -0.85764 50 101 142 255 
-6.62765 2.85402 -0.924395 54 93 141 255 
-6.65643 2.87203 -0.998228 53 95 141 255 
-6.68193 2.86904 -1.06214 45 113 142 255 
-6.64928 2.85928 -1.12567 45 112 142 255 
-6.6284 2.85572 -1.19095 47 107 142 255 
-6.61064 2.85227 -1.25914 56 88 140 255 
-6.4574 2.77797 -1.29017 59 82 139 255 
-6.072 2.61481 -1.27549 62 74 137 255 
-5.79543 2.49685 -1.28043 58 84 140 255 
-5.51513 2.37845 -1.27993 57 86 140 255 
-5.2881 2.27821 -1.27757 63 71 136 255 
-5.06723 2.18422 -1.27798 61 77 138 255 
-4.83134 2.08349 -1.27191 66 64 134 255 
-4.61982 1.99044 -1.26914 66 63 133 255 
-4.46323 1.92745 -1.27089 69 55 129 255 
-4.31842 1.86502 -1.27627 70 48 126 255 
-4.12802 1.78104 -1.26711 67 61 132 255 
-3.98601 1.71571 -1.27145 68 59 132 255 
-17.2409 7.48909 5.64659 60 80 139 255 
-17.2081 7.45729 5.42383 62 76 138 255 
-17.2117 7.45156 5.22605 60 79 138 255 
-17.2037 7.44849 5.03375 58 84 140 255 
-17.188 7.45541 4.86271 61 78 138 255 
-17.2015 7.45801 4.66763 63 71 136 255 
-17.1621 7.44429 4.467 62 73 137 255 
-17.1611 7.44782 4.28462 65 66 135 255 
-17.1689 7.44361 4.12804 62 74 137 255 
-17.1756 7.45035 3.93509 57 85 140 255 
-17.1322 7.44199 3.74255 62 76 138 255 
-17.1542 7.45901 3.5683 57 85 140 255 
-17.1608 7.44008 3.41263 58 83 139 255 
-17.153 7.44409 3.22646 56 89 140 255 
-17.161 7.46162 3.04425 57 86 140 255 
-17.1382 7.46983 2.86747 57 85 140 255 
-17.152 7.43981 2.71413 56 89 140 255 
-17.126 7.43593 2.52769 56 88 140 255 
-17.1257 7.45695 2.34974 55 91 141 255 
-17.1138 7.46627 2.17688 69 56 130 255 
-17.0884 7.41225 2.02023 67 61 132 255 
-17.115 7.44179 1.84636 66 65 134 255 
-16.8694 7.34883 1.64544 68 59 132 255 
-16.493 7.2057 1.44179 71 46 124 255 
-8.86598 3.84753 0.697871 48 105 142 255 
-8.8801 3.86301 0.607566 45 113 142 255 
-8.88277 3.87515 0.516378 40 124 142 255 
-8.93191 3.90602 0.427339 48 106 142 255 
-8.95989 3.89199 0.351373 46 111 142 255 
-8.94624 3.8955 0.258919 72 31 112 255 
-8.35457 3.64645 0.155932 69 56 130 255 
-8.31043 3.63769 0.0712506 57 85 140 255 
-8.3331 3.62145 -0.00158581 57 85 140 255 
-8.3252 3.62853 -0.0871796 56 88 140 255 
-8.3063 3.62884 -0.17088 65 66 135 255 
-8.32075 3.64566 -0.256923 66 63 133 255 
-7.59082 3.30359 -0.300667 62 73 137 255 
-7.45133 3.25075 -0.370583 57 86 140 255 
-7.45288 3.25754 -0.447624 66 65 134 255 
-7.42694 3.25559 -0.522974 64 70 136 255 
-7.44091 3.23989 -0.588857 54 93 141 255 
-7.45773 3.25664 -0.666187 52 96 141 255 
-7.44427 3.25842 -0.742398 60 79 138 255 
-6.77877 2.97147 -0.746591 66 64 134 255 
-6.63665 2.89383 -0.789087 48 105 142 255 
-6.62293 2.89348 -0.856699 46 109 142 255 
-6.62545 2.9014 -0.926555 50 102 142 255 
-6.63596 2.91163 -0.997819 46 111 142 255 
-6.65151 2.90445 -1.06012 47 107 142 255 
-6.61622 2.8933 -1.12306 46 111 142 255 
-6.61347 2.89752 -1.19144 47 108 142 255 
-6.57858 2.88645 -1.25639 56 89 140 255 
-6.40238 2.80098 -1.28259 61 78 138 255 
-6.05314 2.65084 -1.27492 58 84 140 255 
-5.77641 2.53079 -1.27963 59 81 139 255 
-5.51028 2.41657 -1.28222 59 81 139 255 
-5.26329 2.30592 -1.27497 62 73 137 255 
-5.04035 2.2094 -1.27459 63 71 136 255 
-4.80423 2.10685 -1.26815 66 64 134 255 
-4.59776 2.01447 -1.26645 66 63 133 255 
-4.44068 1.95013 -1.26786 69 55 129 255 
-4.28657 1.88256 -1.27025 69 55 129 255 
-4.12583 1.8102 -1.26983 65 66 135 255 
-3.99299 1.74783 -1.27707 68 59 132 255 
-17.213 7.60286 5.65263 62 73 137 255 
-17.1998 7.57939 5.43578 62 73 137 255 
-17.2001 7.57216 5.23652 61 78 138 255 
-17.1842 7.56559 5.04153 58 84 140 255 
-17.172 7.57401 4.87125 57 85 140 255 
-17.1696 7.56968 4.67149 62 74 137 255 
-17.149 7.56397 4.4756 64 70 136 255 
-17.1365 7.56242 4.28997 66 65 134 255 
-17.1587 7.56457 4.13665 61 77 138 255 
-17.1484 7.56389 3.93941 57 86 140 255 
-17.1454 7.57312 3.75552 60 79 138 255 
-17.1198 7.56929 3.57074 61 77 138 255 
-17.1319 7.55278 3.41604 57 85 140 255 
-17.1169 7.55358 3.22833 60 80 139 255 
-17.1185 7.56838 3.04489 58 84 140 255 
-17.121 7.58766 2.87232 59 82 139 255 
-17.1178 7.5501 2.71599 55 91 141 255 
-17.1136 7.55569 2.53266 55 91 141 255 
-17.0915 7.56711 2.35137 57 85 140 255 
-17.1185 7.59369 2.18337 68 59 132 255 
-17.1191 7.55066 2.02928 66 63 133 255 
-8.95955 3.96126 0.969155 66 64 134 255 
-16.3568 7.24526 1.59975 68 58 131 255 
-16.3974 7.28411 1.43732 65 66 135 255 
-8.80114 3.88373 0.69463 46 110 142 255 
-8.82337 3.90289 0.605312 42 118 142 255 
-8.81866 3.91176 0.514037 38 129 142 255 
-8.83657 3.92909 0.423924 44 115 142 255 
-8.90933 3.93518 0.35033 41 122 142 255 
-8.9176 3.94829 0.258787 55 91 141 255 
-8.30005 3.68345 0.155333 58 83 139 255 
-8.27243 3.6817 0.0711171 55 91 141 255 
-8.28328 3.66039 -0.00158057 58 84 140 255 
-8.25615 3.65888 -0.08669 62 76 138 255 
-8.26469 3.67121 -0.170484 62 73 137 255 
-8.26718 3.68282 -0.255962 63 72 137 255 
-7.56767 3.34889 -0.300558 62 74 137 255 
-7.44312 3.30168 -0.371175 56 88 140 255 
-7.43184 3.30281 -0.447569 61 78 138 255 
-7.40683 3.3011 -0.522974 64 70 136 255 
-7.41724 3.28387 -0.588568 60 79 138 255 
-7.42576 3.29708 -0.665127 56 88 140 255 
-7.41231 3.29877 -0.741216 59 81 139 255 
-6.75314 3.00976 -0.745788 64 69 136 255 
-6.61605 2.93329 -0.788762 50 100 142 255 
-6.60142 2.93245 -0.856228 44 115 142 255 
-6.62837 2.95128 -0.929478 49 103 142 255 
-6.62069 2.9535 -0.998228 46 109 142 255 
-6.61457 2.93677 -1.05708 46 111 142 255 
-6.60647 2.93745 -1.12445 45 112 142 255 
-6.60368 2.94166 -1.1929 50 102 142 255 
-6.56795 2.92997 -1.25776 56 89 140 255 
-6.35812 2.82822 -1.27717 62 73 137 255 
-6.03049 2.68513 -1.27359 60 80 139 255 
-5.75629 2.56419 -1.27864 59 81 139 255 
-5.49356 2.44954 -1.28181 59 82 139 255 
-5.23299 2.33102 -1.27107 62 73 137 255 
-5.0089 2.23236 -1.27008 64 69 136 255 
-4.79742 2.13906 -1.26979 67 62 133 255 
-4.56051 2.03159 -1.2596 68 59 132 255 
-4.42068 1.9738 -1.26558 70 52 128 255 
-4.26789 1.90567 -1.26815 66 64 134 255 
-4.11464 1.83548 -1.26983 67 62 133 255 
-3.9664 1.76528 -1.27201 67 62 133 255 
-17.1739 7.71187 5.65522 60 79 138 255 
-17.167 7.69107 5.44023 59 81 139 255 
-17.1691 7.68464 5.24135 59 82 139 255 
-17.178 7.68904 5.05346 59 82 139 255 
-17.1508 7.69072 4.87853 59 82 139 255 
-17.1459 7.68521 4.67778 64 69 136 255 
-17.1529 7.69174 4.48884 64 69 136 255 
-17.1387 7.68937 4.30225 65 68 135 255 
-17.1458 7.68489 4.14484 61 78 138 255 
-17.1267 7.68018 3.94517 61 77 138 255 
-17.1201 7.68782 3.76024 64 70 136 255 
-17.1205 7.69554 3.58067 59 81 139 255 
-17.1005 7.6646 3.41909 59 81 139 255 
-17.1134 7.67783 3.23649 55 91 141 255 
-17.0997 7.68582 3.04987 57 85 140 255 
-17.1183 7.71247 2.87975 55 90 140 255 
-17.0964 7.66633 2.72002 55 91 141 255 
-17.0886 7.67029 2.53588 54 93 141 255 
-17.0755 7.68569 2.35561 56 88 140 255 
-17.0879 7.70594 2.18545 67 61 132 255 
-8.95258 4.01449 1.06413 50 101 142 255 
-8.87517 3.98923 0.962657 44 114 142 255 
-8.90028 4.00789 0.872868 70 48 126 255 
-16.3561 7.38622 1.43764 70 51 127 255 
-8.76623 3.93276 0.693766 42 118 142 255 
-8.78106 3.94877 0.60406 39 126 142 255 
-8.77811 3.95841 0.513079 37 132 142 255 
-8.80592 3.98035 0.423617 40 125 142 255 
-8.84217 3.97054 0.348641 38 130 142 255 
-8.87771 3.99596 0.258336 47 107 142 255 
-8.25815 3.72567 0.154974 58 83 139 255 
-8.23966 3.72786 0.0710307 53 95 141 255 
-8.26614 3.7136 -0.00158162 51 99 141 255 
-8.21987 3.70331 -0.0865461 62 74 137 255 
-8.22834 3.71568 -0.170201 60 79 138 255 
-8.22803 3.72605 -0.255453 60 79 138 255 
-7.49685 3.37271 -0.298562 62 76 138 255 
-7.42454 3.34811 -0.371266 53 94 141 255 
-7.41143 3.34834 -0.447569 59 81 139 255 
-7.39189 3.34896 -0.52336 64 70 136 255 
-7.41423 3.3371 -0.589943 62 73 137 255 
-7.41357 3.34627 -0.665861 58 84 140 255 
-7.38467 3.34091 -0.740488 57 85 140 255 
-6.70373 3.03718 -0.742376 66 64 134 255 
-6.59792 2.97383 -0.788762 52 97 141 255 
-6.58782 2.97494 -0.856816 50 101 142 255 
-6.60742 2.99066 -0.929096 50 101 142 255 
-6.58349 2.98548 -0.995363 52 97 141 255 
-6.59282 2.97568 -1.05651 44 114 142 255 
-6.58382 2.9759 -1.12368 47 107 142 255 
-6.58281 2.98091 -1.19242 48 105 142 255 
-6.56061 2.9751 -1.25983 54 92 141 255 
-6.33795 2.86596 -1.27663 62 73 137 255 
-5.99601 2.71399 -1.2698 60 80 139 255 
-5.7342 2.59663 -1.27724 56 89 140 255 
-5.45616 2.47311 -1.2766 57 86 140 255 
-5.21058 2.35946 -1.26912 62 74 137 255 
-5.00487 2.26747 -1.27256 64 69 136 255 
-4.79483 2.17327 -1.27261 66 64 134 255 
-4.56474 2.06714 -1.26425 66 64 134 255 
-4.40585 1.99968 -1.26482 69 55 129 255 
-4.26226 1.93462 -1.26998 62 76 138 255 
-4.10769 1.86268 -1.27118 66 64 134 255 
-3.96512 1.79393 -1.2751 68 57 131 255 
-17.1794 7.84136 5.67277 59 82 139 255 
-17.1763 7.82214 5.45828 59 82 139 255 
-17.1725 7.81298 5.25692 61 78 138 255 
-17.1912 7.82189 5.07136 59 82 139 255 
-17.1429 7.81388 4.88984 61 78 138 255 
-17.1523 7.81481 4.69251 64 70 136 255 
-17.162 7.82266 4.5037 63 72 137 255 
-17.1089 7.80248 4.30672 65 68 135 255 
-17.1268 7.80291 4.15173 62 73 137 255 
-17.1496 7.81719 3.96142 61 77 138 255 
-17.1038 7.80697 3.76711 63 71 136 255 
-17.1015 7.81351 3.58667 60 80 139 255 
-17.0774 7.78039 3.42393 58 84 140 255 
-17.0839 7.79087 3.23989 59 82 139 255 
-17.1168 7.82012 3.06143 56 88 140 255 
-17.094 7.82806 2.8837 55 91 141 255 
-17.0842 7.7871 2.72562 56 88 140 255 
-17.0764 7.79104 2.54111 53 95 141 255 
-17.0605 7.80517 2.3601 54 93 141 255 
-17.0186 7.80071 2.18267 69 53 129 255 
-8.90697 4.05986 1.06165 45 113 142 255 
-8.84147 4.03948 0.961673 46 110 142 255 
-8.88004 4.0645 0.873313 58 84 140 255 
-15.9997 7.34382 1.41025 72 33 115 255 
-8.73739 3.98441 0.693406 43 117 142 255 
-8.74032 3.99511 0.602933 40 125 142 255 
-8.74004 4.00595 0.512281 38 129 142 255 
-8.77589 4.03181 0.423354 39 127 142 255 
-8.80764 4.02015 0.348245 38 130 142 255 
-8.82302 4.03663 0.25746 49 103 142 255 
-8.23059 3.77419 0.154888 59 82 139 255 
-8.20573 3.77333 0.0709364 58 84 140 255 
-8.24683 3.76591 -0.00158232 53 95 141 255 
-8.21336 3.76117 -0.0867188 59 81 139 255 
-8.20993 3.76818 -0.170296 57 86 140 255 
-8.2032 3.77563 -0.255396 57 86 140 255 
-7.44421 3.4041 -0.297291 62 73 137 255 
-7.40749 3.39526 -0.371448 55 90 140 255 
-7.38893 3.39292 -0.447459 61 77 138 255 
-7.37845 3.39759 -0.523875 59 82 139 255 
-7.38908 3.38045 -0.589581 59 81 139 255 
-7.40014 3.39502 -0.666514 53 95 141 255 
-7.38574 3.39614 -0.742671 66 65 134 255 
-6.67774 3.07493 -0.741573 67 62 133 255 
-6.58226 3.0155 -0.789087 56 88 140 255 
-6.57306 3.01696 -0.857287 54 93 141 255 
-6.55471 3.0154 -0.924268 58 84 140 255 
-6.54166 3.01503 -0.991817 62 73 137 255 
-6.57803 3.01772 -1.05708 50 101 142 255 
-6.55736 3.01253 -1.12229 52 97 141 255 
-6.55095 3.01505 -1.18997 52 97 141 255 
-6.53686 3.01282 -1.2588 59 81 139 255 
-6.31399 2.90192 -1.27537 61 78 138 255 
-5.98192 2.75196 -1.27037 59 82 139 255 
-5.70748 2.62685 -1.27486 57 86 140 255 
-5.44799 2.50981 -1.27826 59 82 139 255 
-5.20133 2.39383 -1.27042 60 80 139 255 
-4.98113 2.29366 -1.27008 63 72 137 255 
-4.76728 2.19614 -1.26885 65 66 135 255 
-4.5599 2.09875 -1.26645 68 58 131 255 
-4.37153 2.01655 -1.2585 67 61 132 255 
-4.23366 1.95305 -1.26501 66 63 133 255 
-4.0752 1.87819 -1.26467 64 69 136 255 
-3.94444 1.81382 -1.27201 67 62 133 255 
-17.1457 7.95347 5.67766 61 77 138 255 
-17.1437 7.93465 5.46328 58 83 139 255 
-17.1496 7.92993 5.2647 62 76 138 255 
-17.1525 7.93169 5.07421 62 76 138 255 
-17.128 7.93438 4.89939 60 80 139 255 
-17.1331 7.93336 4.70048 61 77 138 255 
-17.1357 7.93804 4.50951 63 72 137 255 
-17.1156 7.93272 4.32056 64 69 136 255 
-17.1282 7.93083 4.1638 62 76 138 255 
-17.1226 7.93214 3.96636 61 78 138 255 
-17.1018 7.93323 3.77733 63 71 136 255 
-17.0916 7.93608 3.59472 58 84 140 255 
-17.0837 7.91024 3.43488 58 84 140 255 
-17.0733 7.91295 3.24704 58 83 139 255 
-17.0819 7.93124 3.06384 57 85 140 255 
-17.0564 7.9378 2.88551 56 89 140 255 
-17.0846 7.91424 2.73338 54 92 141 255 
-17.058 7.90943 2.54554 54 92 141 255 
-17.0536 7.92895 2.36584 55 91 141 255 
-16.9578 7.89911 2.18105 68 58 131 255 
-8.82867 4.08979 1.05529 48 105 142 255 
-8.80208 4.08695 0.960098 47 108 142 255 
-8.84771 4.11555 0.872601 48 105 142 255 
-8.86292 4.13408 0.783418 66 65 134 255 
-8.72002 4.0413 0.693982 41 123 142 255 
-8.72741 4.05413 0.603747 39 128 142 255 
-8.71801 4.06077 0.512441 37 133 142 255 
-8.74917 4.08474 0.423267 38 130 142 255 
-8.78008 4.07286 0.348137 37 132 142 255 
-8.78993 4.0869 0.257222 46 109 142 255 
-8.20456 3.82335 0.154837 57 85 140 255 
-8.17427 3.8198 0.0708658 60 79 138 255 
-8.21087 3.81055 -0.00157987 56 88 140 255 
-8.19919 3.81572 -0.0868148 51 98 141 255 
-8.19572 3.82272 -0.170484 55 90 140 255 
-8.16901 3.82082 -0.255057 61 77 138 255 
-7.40687 3.44213 -0.296638 58 84 140 255 
-7.37203 3.4339 -0.370719 53 95 141 255 
-7.35802 3.43355 -0.446855 60 80 139 255 
-7.35475 3.44153 -0.523682 60 80 139 255 
-7.37725 3.42993 -0.590305 55 90 140 255 
-7.38369 3.44247 -0.666922 50 102 142 255 
-7.34582 3.43254 -0.740761 63 71 136 255 
-6.65244 3.11289 -0.74087 68 59 132 255 
-6.55192 3.05038 -0.787678 54 93 141 255 
-6.55082 3.05556 -0.856816 53 94 141 255 
-6.5271 3.05136 -0.922997 59 81 139 255 
-6.51855 3.05301 -0.991135 57 86 140 255 
-6.54504 3.05134 -1.05477 45 112 142 255 
-6.54681 3.05647 -1.12368 49 103 142 255 
-6.535 3.05645 -1.19046 52 96 141 255 
-6.52628 3.05664 -1.26035 61 78 138 255 
-6.28983 2.9377 -1.2741 59 81 139 255 
-5.97025 2.7911 -1.27151 54 92 141 255 
-5.69303 2.66265 -1.27526 54 92 141 255 
-5.4192 2.53697 -1.27514 61 77 138 255 
-5.17416 2.41991 -1.26739 62 73 137 255 
-4.97667 2.32872 -1.27256 61 77 138 255 
-4.73435 2.21629 -1.26368 65 66 135 255 
-4.53552 2.12135 -1.26327 68 58 131 255 
-4.37747 2.05196 -1.26381 68 59 132 255 
-4.21636 1.97654 -1.26344 66 64 134 255 
-4.07406 1.90805 -1.26793 66 63 133 255 
-3.91759 1.83067 -1.26695 66 64 134 255 
-17.1252 8.072 5.68715 62 73 137 255 
-17.1573 8.06913 5.48329 57 86 140 255 
-17.132 8.04975 5.27436 61 77 138 255 
-17.1271 8.04787 5.08121 62 76 138 255 
-17.1141 8.05581 4.90943 57 85 140 255 
-17.1385 8.06395 4.71546 62 76 138 255 
-17.121 8.05919 4.51856 63 71 136 255 
-17.1089 8.05753 4.33128 66 65 134 255 
-17.0978 8.0445 4.16832 61 78 138 255 
-17.1002 8.04956 3.97253 60 79 138 255 
-17.0741 8.04805 3.78204 63 72 137 255 
-17.0692 8.05338 3.60034 59 82 139 255 
-17.0652 8.02916 3.44098 56 89 140 255 
-17.0887 8.04779 3.25928 55 90 140 255 
-17.0776 8.05696 3.07187 55 91 141 255 
-17.0726 8.07316 2.89658 58 84 140 255 
-17.0554 8.02819 2.73654 54 92 141 255 
-17.0459 8.03126 2.55104 56 89 140 255 
-17.0388 8.04955 2.37059 52 96 141 255 
-16.3407 7.73404 2.10775 71 44 122 255 
-8.78902 4.13711 1.05357 48 106 142 255 
-8.75164 4.12899 0.957341 44 114 142 255 
-8.86822 4.19147 0.877143 51 98 141 255 
-15.7724 7.47514 1.39819 72 27 109 255 
-8.70318 4.09856 0.69463 42 118 142 255 
-8.73306 4.12209 0.605876 38 130 142 255 
-8.70376 4.11931 0.513079 41 123 142 255 
-8.73297 4.14262 0.423705 39 127 142 255 
-8.76849 4.13304 0.348677 34 139 141 255 
-8.76469 4.14076 0.257222 48 105 142 255 
-8.17101 3.86892 0.154649 61 77 138 255 
-8.16513 3.87675 0.0709914 59 82 139 255 
-8.18553 3.86001 -0.00157952 54 93 141 255 
-8.16116 3.85911 -0.0866612 65 68 135 255 
-8.17843 3.87593 -0.170616 58 84 140 255 
-8.1409 3.86872 -0.254916 62 73 137 255 
-7.38018 3.48495 -0.29642 59 82 139 255 
-7.33005 3.46924 -0.369672 55 90 140 255 
-7.33772 3.47906 -0.44691 53 94 141 255 
-7.34431 3.49174 -0.524454 59 81 139 255 
-7.34975 3.47215 -0.589798 53 94 141 255 
-7.34351 3.47875 -0.665208 54 93 141 255 
-7.31113 3.47115 -0.739396 65 68 135 255 
-6.60715 3.14127 -0.73796 65 66 135 255 
-6.54297 3.0952 -0.78887 52 97 141 255 
-6.51849 3.08932 -0.855051 58 83 139 255 
-6.51094 3.09263 -0.923379 57 85 140 255 
-6.48986 3.08827 -0.989634 60 80 139 255 
-6.51815 3.08763 -1.05347 53 94 141 255 
-6.51811 3.09192 -1.12199 56 88 140 255 
-6.509 3.0931 -1.18916 56 88 140 255 
-6.50651 3.0962 -1.26018 60 79 138 255 
-6.27346 2.97708 -1.27447 61 77 138 255 
-5.95124 2.82684 -1.27113 55 91 141 255 
-5.67304 2.69585 -1.27446 54 92 141 255 
-5.40088 2.56892 -1.27451 60 80 139 255 
-5.16539 2.45455 -1.2689 61 78 138 255 
-4.94733 2.3521 -1.26872 59 82 139 255 
-4.73207 2.25072 -1.26674 68 59 132 255 
-4.52241 2.14914 -1.26327 68 57 131 255 
-4.34995 2.07171 -1.25951 65 68 135 255 
-4.20502 2.00278 -1.2637 65 68 135 255 
-4.06662 1.93508 -1.26928 67 61 132 255 
-3.88981 1.84686 -1.26161 67 62 133 255 
-17.1142 8.19554 5.7001 61 77 138 255 
-17.1196 8.18005 5.48718 59 81 139 255 
-17.1214 8.1734 5.28644 59 81 139 255 
-17.1036 8.16529 5.08899 61 78 138 255 
-17.1184 8.18656 4.92501 59 81 139 255 
-17.129 8.18821 4.72657 62 73 137 255 
-17.0923 8.17416 4.52414 62 76 138 255 
-17.0978 8.18087 4.3411 64 70 136 255 
-17.1027 8.17537 4.18168 61 78 138 255 
-17.0708 8.16404 3.97726 60 79 138 255 
-17.0598 8.1696 3.7899 64 70 136 255 
-17.0567 8.17579 3.60821 61 78 138 255 
-17.0555 8.15281 3.44906 56 88 140 255 
-17.0656 8.16525 3.26438 55 90 140 255 
-17.0697 8.18165 3.07942 55 90 140 255 
-17.0521 8.19188 2.90158 55 90 140 255 
-17.079 8.1677 2.74832 51 98 141 255 
-17.0025 8.1387 2.55198 60 80 139 255 
-17.0034 8.16081 2.37258 63 72 137 255 
-16.1855 7.78251 2.09385 69 56 130 255 
-8.79306 4.20511 1.05712 46 109 142 255 
-8.74139 4.18992 0.959015 47 107 142 255 
-8.87376 4.26089 0.88026 54 92 141 255 
-15.7307 7.57394 1.39859 69 53 129 255 
-8.68147 4.1536 0.694918 45 112 142 255 
-8.7229 4.18293 0.60694 40 125 142 255 
-8.71162 4.18865 0.515048 42 118 142 255 
-8.74969 4.21652 0.425763 38 130 142 255 
-8.7673 4.19842 0.349647 38 130 142 255 
-8.75804 4.20354 0.257779 53 95 141 255 
-8.13089 3.91118 0.154341 65 68 135 255 
-8.12588 3.91939 0.0708579 62 73 137 255 
-8.15357 3.90627 -0.00157795 53 95 141 255 
-8.14003 3.91042 -0.08669 61 78 138 255 
-8.1527 3.92517 -0.170578 59 82 139 255 
-8.12781 3.92382 -0.255255 60 80 139 255 
-7.34154 3.52196 -0.295731 58 84 140 255 
-7.32123 3.52021 -0.37031 55 90 140 255 
-7.31353 3.52272 -0.446745 59 81 139 255 
-7.32005 3.53543 -0.524261 49 103 142 255 
-7.32471 3.51546 -0.589508 57 86 140 255 
-7.32293 3.52418 -0.66529 51 99 141 255 
-7.28521 3.51378 -0.738941 69 55 129 255 
-6.59223 3.18391 -0.738461 68 59 132 255 
-6.52475 3.13572 -0.788978 53 95 141 255 
-6.50031 3.12969 -0.855168 54 93 141 255 
-6.48291 3.12821 -0.922108 59 82 139 255 
-6.47168 3.12847 -0.989771 56 88 140 255 
-6.49106 3.1237 -1.05217 48 105 142 255 
-6.48922 3.12714 -1.1203 53 94 141 255 
-6.48457 3.13041 -1.18818 57 86 140 255 
-6.47764 3.13135 -1.25828 61 77 138 255 
-6.24976 3.01295 -1.27338 61 78 138 255 
-5.93379 2.86331 -1.27113 52 97 141 255 
-5.63433 2.71996 -1.26949 55 91 141 255 
-5.37357 2.59648 -1.2718 59 81 139 255 
-5.14144 2.48195 -1.26674 62 74 137 255 
-4.93105 2.38157 -1.26827 56 88 140 255 
-4.71117 2.27633 -1.26486 66 63 133 255 
-4.517 2.18065 -1.26547 67 62 133 255 
-4.33629 2.09794 -1.25926 66 65 134 255 
-4.20047 2.03233 -1.26606 65 68 135 255 
-4.02867 1.94743 -1.26115 67 62 133 255 
-3.88878 1.87569 -1.26498 66 64 134 255 
-17.1015 8.31883 5.71276 61 77 138 255 
-17.1097 8.30465 5.50023 61 78 138 255 
-17.1047 8.29469 5.29691 58 84 140 255 
-17.0922 8.28905 5.10066 60 80 139 255 
-17.1018 8.30794 4.93481 57 85 140 255 
-17.1002 8.30376 4.73261 63 71 136 255 
-17.0864 8.30056 4.53598 64 69 136 255 
-17.0728 8.29798 4.34757 67 61 132 255 
-17.0715 8.28954 4.18642 62 76 138 255 
-17.067 8.2913 3.98816 62 76 138 255 
-17.0437 8.29085 3.79756 62 74 137 255 
-17.0345 8.29406 3.61421 61 77 138 255 
-17.06 8.28395 3.46019 55 91 141 255 
-17.0365 8.28015 3.26846 54 93 141 255 
-17.0582 8.30524 3.08648 55 90 140 255 
-17.0264 8.3085 2.90583 56 88 140 255 
-17.0401 8.27796 2.75019 55 90 140 255 
-17.0227 8.2771 2.56257 55 91 141 255 
-16.7835 8.18238 2.34887 70 52 128 255 
-16.0571 7.84244 2.08343 71 47 125 255 
-8.80108 4.27549 1.06122 46 110 142 255 
-8.77189 4.27092 0.965217 48 106 142 255 
-8.82775 4.30566 0.878301 50 102 142 255 
-13.8384 6.76775 1.23402 67 61 132 255 
-8.69708 4.22685 0.698231 46 111 142 255 
-8.74283 4.25866 0.610134 38 129 142 255 
-8.72165 4.25956 0.517176 42 119 142 255 
-8.76672 4.29121 0.427865 42 118 142 255 
-8.77552 4.26875 0.351013 41 121 142 255 
-8.7878 4.28436 0.259423 60 79 138 255 
-8.11842 3.9667 0.154563 58 83 139 255 
-8.09539 3.96609 0.0708029 56 88 140 255 
-8.12136 3.95229 -0.00157638 54 93 141 255 
-8.11409 3.95941 -0.0866708 60 80 139 255 
-8.11678 3.96941 -0.170333 58 83 139 255 
-8.08922 3.96657 -0.254803 62 73 137 255 
-7.30991 3.56213 -0.295331 60 79 138 255 
-7.29949 3.56507 -0.37031 60 80 139 255 
-7.27922 3.56139 -0.445976 63 72 137 255 
-7.29016 3.57632 -0.523682 55 91 141 255 
-7.3039 3.56077 -0.589581 53 95 141 255 
-7.2949 3.56598 -0.664719 51 98 141 255 
-7.25546 3.55447 -0.738122 66 64 134 255 
-6.56543 3.22079 -0.737659 62 74 137 255 
-6.50896 3.17744 -0.789412 51 98 141 255 
-6.4899 3.17388 -0.856345 54 93 141 255 
-6.46003 3.16618 -0.9216 53 94 141 255 
-6.46925 3.17641 -0.992362 52 96 141 255 
-6.48866 3.17173 -1.05492 48 105 142 255 
-6.4708 3.16733 -1.12045 49 104 142 255 
-6.46701 3.171 -1.18851 54 93 141 255 
-6.46007 3.1719 -1.25863 58 83 139 255 
-6.22144 3.04648 -1.2714 61 77 138 255 
-5.902 2.89275 -1.2681 57 86 140 255 
-5.60786 2.74973 -1.2673 55 90 140 255 
-5.34876 2.62509 -1.26972 59 81 139 255 
-5.10332 2.50228 -1.2611 62 76 138 255 
-4.92334 2.41521 -1.27008 55 90 140 255 
-4.69624 2.30477 -1.26462 64 70 136 255 
-4.50876 2.21088 -1.26694 68 59 132 255 
-4.34157 2.13346 -1.26457 66 63 133 255 
-4.18792 2.05807 -1.26606 66 64 134 255 
-3.98641 1.95727 -1.25165 68 59 132 255 
-3.86772 1.89487 -1.26189 64 69 136 255 
-17.0768 8.43676 5.72167 62 74 137 255 
-17.0894 8.42477 5.51024 60 79 138 255 
-17.0976 8.42119 5.3106 60 80 139 255 
-17.0818 8.41383 5.11285 62 74 137 255 
-17.0818 8.42814 4.94385 57 86 140 255 
-17.0933 8.43042 4.74494 61 77 138 255 
-17.0701 8.42246 4.54527 63 72 137 255 
-17.0556 8.41941 4.35628 66 63 133 255 
-17.0747 8.42092 4.19977 62 76 138 255 
-17.0658 8.42054 3.99988 60 79 138 255 
-17.0391 8.41829 3.80798 60 79 138 255 
-17.0158 8.41453 3.62114 61 77 138 255 
-17.0433 8.40544 3.46719 57 85 140 255 
-17.0331 8.40808 3.27764 56 89 140 255 
-17.0405 8.42638 3.09258 55 90 140 255 
-17.0212 8.43564 2.91371 58 83 139 255 
-17.0236 8.39944 2.75579 54 92 141 255 
-17.0062 8.39851 2.56781 53 94 141 255 
-16.7952 8.31602 2.35761 68 57 131 255 
-16.184 8.02777 2.10624 72 38 119 255 
-16.286 8.0355 1.96965 72 40 120 255 
-8.77495 4.33922 0.968466 49 104 142 255 
-15.6513 7.75301 1.5619 72 35 116 255 
-13.8287 6.86849 1.23689 52 96 141 255 
-8.70586 4.29735 0.70104 48 105 142 255 
-8.80152 4.35427 0.616082 45 112 142 255 
-8.77407 4.35204 0.521858 45 112 142 255 
-9.34676 4.64644 0.457557 60 80 139 255 
-9.29571 4.59253 0.37294 61 77 138 255 
-9.31228 4.611 0.275737 62 76 138 255 
-8.09572 4.01733 0.154598 59 82 139 255 
-8.08075 4.02059 0.0708893 57 85 140 255 
-8.10502 4.00603 -0.00157795 53 95 141 255 
-8.08337 4.00602 -0.0866037 56 88 140 255 
-8.0878 4.01692 -0.170239 57 86 140 255 
-8.06384 4.01569 -0.254774 68 59 132 255 
-7.28344 3.60469 -0.29515 55 90 140 255 
-7.28106 3.61157 -0.370492 53 95 141 255 
-7.26439 3.60954 -0.446415 59 81 139 255 
-7.26361 3.61876 -0.52336 51 98 141 255 
-7.28459 3.60685 -0.589798 50 102 142 255 
-7.27377 3.61112 -0.6648 50 101 142 255 
-7.22549 3.59493 -0.737304 63 71 136 255 
-6.52684 3.2517 -0.735551 66 64 134 255 
-6.48489 3.21511 -0.78887 50 100 142 255 
-6.47742 3.21717 -0.857287 50 102 142 255 
-6.44669 3.20886 -0.922489 52 96 141 255 
-6.45673 3.21958 -0.993454 53 94 141 255 
-6.47617 3.215 -1.05607 52 97 141 255 
-6.46806 3.21534 -1.12337 50 100 142 255 
-6.45184 3.21282 -1.18932 54 92 141 255 
-6.43696 3.20972 -1.25794 59 82 139 255 
-6.17269 3.06971 -1.26526 62 73 137 255 
-5.8648 2.91928 -1.26393 55 91 141 255 
-5.59 2.78365 -1.2671 54 92 141 255 
-5.31854 2.65088 -1.26638 59 81 139 255 
-5.0835 2.53137 -1.26002 63 71 136 255 
-4.88314 2.43277 -1.26353 57 85 140 255 
-4.67592 2.33051 -1.26298 64 69 136 255 
-4.4899 2.23591 -1.26547 66 63 133 255 
-4.3206 2.15618 -1.26229 68 57 131 255 
-4.16485 2.07855 -1.26291 66 65 134 255 
-3.995 1.992 -1.25816 64 69 136 255 
-3.85 1.91558 -1.25992 66 65 134 255 
-17.0718 8.565 5.7375 62 76 138 255 
-17.0623 8.54194 5.51829 61 78 138 255 
-17.0611 8.5337 5.31543 60 79 138 255 
-17.0747 8.54095 5.12633 59 82 139 255 
-17.0575 8.54667 4.95189 59 81 139 255 
-17.0751 8.55209 4.75436 63 71 136 255 
-17.0755 8.5558 4.5606 63 72 137 255 
-17.0498 8.54705 4.36811 65 68 135 255 
-17.041 8.53471 4.2043 63 71 136 255 
-17.0462 8.54132 4.00749 61 77 138 255 
-17.01 8.53411 3.81308 62 76 138 255 
-17.0113 8.54259 3.63126 60 80 139 255 
-17.0187 8.52352 3.47275 59 82 139 255 
-17.0358 8.53981 3.28819 56 89 140 255 
-17.0141 8.54362 3.09724 57 85 140 255 
-17.0035 8.55725 2.91963 57 86 140 255 
-17.0213 8.52856 2.76383 51 98 141 255 
-16.9854 8.51825 2.5725 54 93 141 255 
-16.727 8.41045 2.35524 70 48 126 255 
-16.1336 8.12647 2.10613 72 27 109 255 
-16.096 8.06491 1.95262 72 33 115 255 
-15.8982 7.98347 1.76002 72 41 121 255 
-15.922 8.00913 1.59379 70 48 126 255 
-15.6242 7.88016 1.40178 72 33 115 255 
-15.9507 7.99563 1.28836 71 42 122 255 
-16.4345 8.25635 1.15389 71 44 122 255 
-9.38665 4.72787 0.560008 51 99 141 255 
-9.3261 4.70775 0.457951 52 96 141 255 
-9.44064 4.73643 0.379914 49 103 142 255 
-9.24988 4.65099 0.274729 59 82 139 255 
-8.06199 4.06243 0.154427 61 77 138 255 
-8.05325 4.06875 0.0708658 55 90 140 255 
-8.06688 4.04896 -0.00157533 59 81 139 255 
-8.06221 4.05734 -0.086642 59 82 139 255 
-8.06567 4.06782 -0.170296 62 74 137 255 
-8.05421 4.07276 -0.255255 66 63 133 255 
-7.25761 3.64752 -0.295005 56 89 140 255 
-7.26322 3.65842 -0.370719 44 113 142 255 
-7.24923 3.65764 -0.446855 50 102 142 255 
-7.23148 3.65831 -0.522652 60 79 138 255 
-7.25787 3.64924 -0.589436 53 95 141 255 
-7.25148 3.65568 -0.6648 51 99 141 255 
-7.19707 3.63605 -0.736667 63 72 137 255 
-6.49434 3.2854 -0.734146 65 66 135 255 
-6.45882 3.25171 -0.788112 49 104 142 255 
-6.4416 3.24881 -0.855168 49 104 142 255 
-6.43662 3.25327 -0.923887 48 106 142 255 
-6.43774 3.25959 -0.99359 50 102 142 255 
-6.44041 3.24666 -1.05347 48 105 142 255 
-6.44203 3.25185 -1.12229 51 98 141 255 
-6.42497 3.24879 -1.18802 53 94 141 255 
-6.39517 3.23804 -1.25363 56 88 140 255 
-6.16252 3.11196 -1.26706 56 88 140 255 
-5.83188 2.94768 -1.26071 56 89 140 255 
-5.5597 2.81127 -1.26412 55 91 141 255 
-5.31003 2.68744 -1.26826 55 90 140 255 
-5.06875 2.56295 -1.26024 59 81 139 255 
-4.86117 2.45917 -1.26173 61 78 138 255 
-4.67021 2.36354 -1.26533 65 66 135 255 
-4.47004 2.26036 -1.26376 70 50 126 255 
-4.30384 2.1809 -1.26128 67 61 132 255 
-4.14255 2.09927 -1.26003 62 74 137 255 
-4.00503 2.02778 -1.26521 65 68 135 255 
-3.84417 1.94219 -1.26189 64 69 136 255 
-17.0675 8.69437 5.7539 61 77 138 255 
-17.0507 8.66737 5.53163 60 80 139 255 
-17.0745 8.67181 5.3361 61 77 138 255 
-17.0453 8.65736 5.13333 62 74 137 255 
-17.0634 8.68101 4.96898 62 76 138 255 
-17.0621 8.67693 4.76547 64 69 136 255 
-17.0556 8.67717 4.56943 61 77 138 255 
-17.0335 8.67008 4.37749 66 65 134 255 
-17.0362 8.66346 4.21614 62 74 137 255 
-17.0205 8.65951 4.01387 60 80 139 255 
-17.0298 8.67527 3.82939 58 83 139 255 
-17.0058 8.6709 3.64138 61 78 138 255 
-16.9994 8.64473 3.47957 57 85 140 255 
-17.0182 8.66206 3.29499 53 95 141 255 
-16.9939 8.66444 3.10318 56 88 140 255 
-16.9833 8.67806 2.92524 59 82 139 255 
-17.0092 8.65348 2.77044 53 95 141 255 
-16.9522 8.6322 2.57545 56 88 140 255 
-16.7396 8.54586 2.36435 66 65 134 255 
-15.6846 8.02134 2.0539 72 29 111 255 
-15.8255 8.05128 1.92577 71 42 122 255 
-15.903 8.10844 1.76602 72 40 120 255 
-13.7995 7.04792 1.38563 61 78 138 255 
-15.8293 8.10582 1.42462 71 47 125 255 
-15.7983 8.04087 1.28001 63 71 136 255 
-9.3911 4.79028 0.661416 67 62 133 255 
-9.24633 4.72854 0.553357 51 98 141 255 
-9.23036 4.73071 0.454667 52 96 141 255 
-9.29475 4.73484 0.375205 51 98 141 255 
-9.05467 4.62266 0.269768 61 78 138 255 
-8.04136 4.1141 0.154512 61 78 138 255 
-8.01745 4.11261 0.0707715 60 80 139 255 
-8.03565 4.0952 -0.00157411 58 83 139 255 
-8.03983 4.10809 -0.0866708 58 84 140 255 
-8.0459 4.11996 -0.170409 61 77 138 255 
-8.03885 4.12712 -0.255566 64 70 136 255 
-7.24133 3.69516 -0.295259 60 79 138 255 
-7.24331 3.70428 -0.370856 46 111 142 255 
-7.23021 3.70388 -0.447075 52 97 141 255 
-7.20534 3.70079 -0.522395 58 83 139 255 
-7.23179 3.69189 -0.589147 53 94 141 255 
-7.23956 3.70556 -0.665779 52 96 141 255 
-7.16399 3.67469 -0.735575 65 68 135 255 
-6.47494 3.32564 -0.734246 62 74 137 255 
-6.42812 3.28585 -0.786811 50 100 142 255 
-6.41889 3.28691 -0.854815 48 105 142 255 
-6.42801 3.29859 -0.925539 55 90 140 255 
-6.4044 3.29223 -0.991544 59 81 139 255 
-6.41508 3.28341 -1.0526 52 97 141 255 
-6.41404 3.28726 -1.12091 57 85 140 255 
-6.39964 3.28545 -1.18704 60 79 138 255 
-6.38395 3.28172 -1.25535 57 85 140 255 
-6.13455 3.14523 -1.26526 57 85 140 255 
-5.79971 2.97624 -1.25768 56 88 140 255 
-5.52927 2.83861 -1.26114 52 97 141 255 
-5.28039 2.71326 -1.26513 54 93 141 255 
-5.05466 2.5949 -1.26067 56 88 140 255 
-4.84252 2.48717 -1.26083 60 80 139 255 
-4.61153 2.3695 -1.25334 64 69 136 255 
-4.46471 2.29217 -1.26621 69 56 130 255 
-4.28866 2.20638 -1.26078 65 66 135 255 
-4.15362 2.13701 -1.26737 66 64 134 255 
-3.97881 2.04527 -1.26087 66 64 134 255 
-3.82365 1.96136 -1.25908 68 59 132 255 
-17.0436 8.81433 5.76397 61 78 138 255 
-17.0621 8.80531 5.55274 62 73 137 255 
-17.0424 8.78745 5.34281 60 79 138 255 
-17.0442 8.78879 5.14915 61 78 138 255 
-17.033 8.79754 4.97576 61 78 138 255 
-17.0405 8.79793 4.77441 65 68 135 255 
-17.0254 8.79371 4.5757 64 70 136 255 
-17.0328 8.80173 4.39111 66 65 134 255 
-17.0061 8.77992 4.22196 62 76 138 255 
-16.9992 8.7804 4.02148 60 79 138 255 
-17.0172 8.80076 3.83862 61 78 138 255 
-16.9758 8.78727 3.64644 60 80 139 255 
-16.9871 8.77008 3.48801 56 88 140 255 
-17.0102 8.78985 3.30383 53 95 141 255 
-16.9807 8.78942 3.11057 58 83 139 255 
-16.9604 8.79803 2.93054 59 81 139 255 
-16.9848 8.77267 2.77518 55 90 140 255 
-10.5283 5.44269 1.60454 71 42 122 255 
-9.99997 5.18275 1.41689 66 63 133 255 
-10.1748 5.28255 1.33661 66 63 133 255 
-15.5709 8.04238 1.90075 72 37 118 255 
-15.7089 8.1313 1.74997 65 66 135 255 
-13.7958 7.1531 1.38964 53 95 141 255 
-15.7855 8.20601 1.42518 69 55 129 255 
-16.0295 8.2828 1.30284 71 44 122 255 
-9.38014 4.85745 0.662731 53 95 141 255 
-9.05673 4.70191 0.543726 53 95 141 255 
-9.05138 4.70933 0.447266 52 96 141 255 
-9.16255 4.73853 0.371035 55 91 141 255 
-8.8726 4.59855 0.265179 57 86 140 255 
-8.02484 4.16797 0.154683 55 91 141 255 
-8.01247 4.17235 0.0709521 56 89 140 255 
-8.01925 4.14903 -0.00157586 58 84 140 255 
-8.02512 4.16287 -0.086786 53 95 141 255 
-8.03378 4.17617 -0.170691 58 83 139 255 
-8.00008 4.16944 -0.255142 64 69 136 255 
-7.22473 3.74274 -0.295513 60 80 139 255 
-7.21335 3.74498 -0.370492 51 98 141 255 
-7.21 3.74955 -0.44724 57 86 140 255 
-7.18515 3.74631 -0.522588 56 89 140 255 
-7.20014 3.7316 -0.588423 54 93 141 255 
-7.20077 3.74163 -0.664311 56 88 140 255 
-7.13601 3.71582 -0.735029 62 76 138 255 
-6.42971 3.35243 -0.731436 65 68 135 255 
-6.40872 3.32569 -0.78692 48 106 142 255 
-6.3942 3.32395 -0.854227 52 96 141 255 
-6.39533 3.33156 -0.92376 55 90 140 255 
-6.38233 3.33055 -0.991271 54 93 141 255 
-6.39306 3.3218 -1.05231 61 77 138 255 
-6.38323 3.32108 -1.11907 57 85 140 255 
-6.38461 3.32739 -1.18802 55 91 141 255 
-6.37417 3.3263 -1.25742 59 82 139 255 
-6.08199 3.16555 -1.2584 56 88 140 255 
-5.78133 3.01177 -1.25768 55 91 141 255 
-5.50305 2.86796 -1.25915 54 92 141 255 
-5.25931 2.74335 -1.26409 58 83 139 255 
-5.02566 2.6191 -1.25742 56 89 140 255 
-4.8194 2.51279 -1.2588 60 79 138 255 
-4.61672 2.40809 -1.25875 65 68 135 255 
-4.45916 2.324 -1.26865 68 58 131 255 
-4.27504 2.23265 -1.26078 64 69 136 255 
-4.1353 2.15978 -1.26579 64 70 136 255 
-3.944 2.05807 -1.25382 66 64 134 255 
-3.80813 1.98302 -1.25795 66 64 134 255 
-17.0477 8.94946 5.78382 61 77 138 255 
-17.0434 8.92856 5.56441 61 78 138 255 
-17.0181 8.90749 5.3522 62 76 138 255 
-17.025 8.91157 5.15978 60 79 138 255 
-17.025 8.92616 4.98932 59 82 139 255 
-17.0205 8.92034 4.78407 64 69 136 255 
-16.9952 8.91066 4.5822 64 70 136 255 
-16.9992 8.91694 4.39646 66 65 134 255 
-17.0185 8.91901 4.23855 63 72 137 255 
-17.0005 8.91362 4.03465 61 77 138 255 
-16.9906 8.9196 3.84491 58 84 140 255 
-16.9929 8.92873 3.66181 58 84 140 255 
-16.9809 8.89926 3.49788 58 84 140 255 
-16.9787 8.90596 3.30825 56 88 140 255 
-16.9667 8.91457 3.11795 55 90 140 255 
-16.9402 8.9199 2.93645 60 79 138 255 
-16.9675 8.89603 2.78122 52 96 141 255 
-15.7613 8.2709 2.40977 72 32 113 255 
-10.4202 5.48191 1.48116 61 78 138 255 
-10.0095 5.27496 1.31912 58 84 140 255 
-10.3898 5.44734 1.27234 71 42 122 255 
-9.90618 5.20499 1.10709 64 70 136 255 
-15.756 8.2925 1.59218 69 56 130 255 
-15.7498 8.31063 1.42654 66 64 134 255 
-15.7488 8.26054 1.28411 65 66 135 255 
-9.30775 4.89263 0.659726 50 100 142 255 
-9.01799 4.75227 0.543141 51 99 141 255 
-9.01437 4.76058 0.446871 50 101 142 255 
-9.03597 4.74356 0.367081 47 107 142 255 
-8.80352 4.6315 0.263959 48 105 142 255 
-7.98762 4.21107 0.154461 61 78 138 255 
-7.99379 4.22517 0.071015 55 90 140 255 
-7.99364 4.19816 -0.00157586 56 88 140 255 
-7.98704 4.20551 -0.0866516 53 95 141 255 
-7.99828 4.22026 -0.170484 59 82 139 255 
-7.96374 4.21284 -0.254803 63 71 136 255 
-7.20251 3.78747 -0.295549 58 84 140 255 
-7.18847 3.78823 -0.370401 51 98 141 255 
-7.18686 3.79372 -0.44724 53 94 141 255 
-7.17703 3.79827 -0.523682 57 86 140 255 
-7.17358 3.77385 -0.588134 58 84 140 255 
-7.16974 3.78156 -0.663576 55 91 141 255 
-7.06289 3.73301 -0.729843 66 64 134 255 
-6.39759 3.38577 -0.730131 63 71 136 255 
-6.39172 3.3668 -0.787353 48 106 142 255 
-6.37368 3.36312 -0.854227 51 98 141 255 
-6.37039 3.36842 -0.923124 51 99 141 255 
-6.37228 3.37522 -0.992908 56 89 140 255 
-6.37781 3.36373 -1.05318 54 92 141 255 
-6.37934 3.36895 -1.12199 56 89 140 255 
-6.36757 3.36835 -1.18867 56 89 140 255 
-6.35103 3.36396 -1.2569 65 66 135 255 
-6.0668 3.20511 -1.2593 58 84 140 255 
-5.77229 3.05223 -1.25976 53 94 141 255 
-5.50008 2.90946 -1.26253 52 97 141 255 
-5.22595 2.76687 -1.26013 59 81 139 255 
-5.01726 2.65399 -1.25937 58 84 140 255 
-4.81508 2.54823 -1.26173 60 80 139 255 
-4.60787 2.43955 -1.26039 66 64 134 255 
-4.42682 2.3418 -1.26352 70 52 128 255 
-4.25869 2.25748 -1.26002 67 61 132 255 
-4.1015 2.17426 -1.25951 66 65 134 255 
-3.9381 2.08584 -1.25599 66 65 134 255 
-3.79759 2.00724 -1.25851 68 58 131 255 
-17.0136 9.06515 5.79101 63 71 136 255 
-17.0282 9.05416 5.57747 61 77 138 255 
-17.0124 9.03796 5.36777 59 81 139 255 
-17.011 9.03761 5.17223 62 76 138 255 
-17.0203 9.05728 5.00415 60 80 139 255 
-17.022 9.05469 4.80002 60 79 138 255 
-17.0123 9.05315 4.60171 64 69 136 255 
-16.9743 9.03711 4.40428 66 63 133 255 
-16.9807 9.03243 4.24286 62 73 137 255 
-16.9818 9.03708 4.04328 61 77 138 255 
-16.9754 9.04489 3.85395 62 76 138 255 
-16.9655 9.04762 3.6678 60 79 138 255 
-16.9659 9.02454 3.50614 57 85 140 255 
-16.9542 9.02617 3.3142 53 94 141 255 
-16.9456 9.03662 3.12422 54 92 141 255 
-16.9235 9.04417 2.94312 57 85 140 255 
-16.9117 8.99951 2.78107 60 79 138 255 
-16.277 8.66932 2.4967 70 51 127 255 
-10.4257 5.56677 1.48678 57 85 140 255 
-15.5316 8.30728 2.05355 72 32 113 255 
-9.81554 5.2233 1.20592 62 74 137 255 
-10.0084 5.33732 1.12215 67 62 133 255 
-15.6609 8.36555 1.58773 69 53 129 255 
-15.6871 8.40099 1.4255 68 59 132 255 
-15.7251 8.37155 1.28634 62 73 137 255 
-9.13667 4.87448 0.649707 53 94 141 255 
-8.96929 4.79715 0.541971 46 111 142 255 
-8.99379 4.82052 0.447309 46 111 142 255 
-9.0358 4.81443 0.368267 52 96 141 255 
-8.77229 4.68402 0.26388 48 106 142 255 
-7.98719 4.27368 0.154957 55 90 140 255 
-7.95714 4.26847 0.0709207 57 85 140 255 
-7.96773 4.24712 -0.00157586 53 94 141 255 
-7.97167 4.2601 -0.0867668 51 99 141 255 
-7.96077 4.26312 -0.170239 64 69 136 255 
-7.92189 4.25312 -0.254294 63 71 136 255 
-7.17737 3.83065 -0.295477 57 86 140 255 
-7.17125 3.83557 -0.370719 51 99 141 255 
-7.16697 3.83963 -0.447459 52 96 141 255 
-7.17205 3.85215 -0.525034 55 91 141 255 
-7.17492 3.83095 -0.59016 53 94 141 255 
-7.15255 3.82878 -0.664148 53 95 141 255 
-7.01791 3.76451 -0.727569 64 70 136 255 
-6.37406 3.42355 -0.72983 65 68 135 255 
-6.3797 3.41064 -0.788437 45 112 142 255 
-6.36255 3.40732 -0.855522 47 108 142 255 
-6.35047 3.40791 -0.923251 51 99 141 255 
-6.34185 3.40909 -0.991408 53 94 141 255 
-6.3649 3.40701 -1.05448 50 101 142 255 
-6.35854 3.40803 -1.12199 53 95 141 255 
-6.33982 3.40362 -1.18737 56 89 140 255 
-6.33461 3.4052 -1.25776 61 77 138 255 
-6.04615 3.24181 -1.25912 54 93 141 255 
-5.75346 3.08759 -1.25976 54 93 141 255 
-5.48385 2.94408 -1.26293 51 99 141 255 
-5.2106 2.79981 -1.26055 56 88 140 255 
-4.97766 2.67226 -1.25352 57 85 140 255 
-4.78562 2.57036 -1.25812 60 80 139 255 
-4.59539 2.46916 -1.2611 64 70 136 255 
-4.43031 2.37855 -1.26865 68 57 131 255 
-4.23454 2.27807 -1.25698 66 63 133 255 
-4.09148 2.20122 -1.26056 66 64 134 255 
-3.94982 2.12318 -1.26386 66 63 133 255 
-3.78605 2.03096 -1.25879 66 63 133 255 
-16.9872 9.18532 5.80108 61 78 138 255 
-17.0095 9.17855 5.58969 58 83 139 255 
-17.0126 9.17235 5.38549 61 78 138 255 
-17.0045 9.16841 5.18727 62 76 138 255 
-17.0138 9.18822 5.01872 62 76 138 255 
-16.9995 9.17694 4.80944 61 78 138 255 
-16.9787 9.16938 4.60775 64 70 136 255 
-16.9811 9.17492 4.42058 66 63 133 255 
-16.9714 9.1615 4.25449 64 70 136 255 
-16.9828 9.1718 4.05686 59 82 139 255 
-16.9687 9.17546 3.86515 61 78 138 255 
-16.9486 9.17259 3.67623 61 77 138 255 
-16.9388 9.14389 3.51206 57 85 140 255 
-16.9461 9.1558 3.32355 57 86 140 255 
-16.9298 9.16204 3.1316 57 86 140 255 
-16.9181 9.17517 2.95192 56 89 140 255 
-16.6524 8.99307 2.74746 70 50 126 255 
-10.3531 5.59597 1.59327 69 56 130 255 
-10.3338 5.59944 1.47854 63 72 137 255 
-9.88026 5.36281 1.31067 72 38 119 255 
-10.0107 5.40625 1.23396 59 82 139 255 
-9.80131 5.30437 1.10256 69 55 129 255 
-10.0375 5.44116 1.02099 64 69 136 255 
-15.9725 8.68034 1.45624 71 47 125 255 
-15.7936 8.53283 1.29621 68 58 131 255 
-9.09693 4.92522 0.649018 50 102 142 255 
-8.93267 4.84829 0.541545 48 106 142 255 
-8.97282 4.88039 0.447747 46 109 142 255 
-8.99906 4.86598 0.36798 50 100 142 255 
-8.75657 4.7449 0.264277 47 108 142 255 
-7.94676 4.31497 0.154683 57 86 140 255 
-7.92026 4.31147 0.0708265 56 88 140 255 
-7.93625 4.29308 -0.00157481 57 86 140 255 
-7.9322 4.30178 -0.0866228 56 88 140 255 
-7.92216 4.3052 -0.169975 59 82 139 255 
-7.90179 4.30499 -0.254492 63 72 137 255 
-7.15725 3.87652 -0.295622 52 96 141 255 
-7.15197 3.88188 -0.370947 46 109 142 255 
-7.13889 3.88115 -0.447185 53 95 141 255 
-7.14214 3.89274 -0.524583 52 96 141 255 
-7.15041 3.87443 -0.590087 50 102 142 255 
-7.13067 3.87354 -0.664311 55 90 140 255 
-7.01393 3.81797 -0.72957 62 73 137 255 
-6.35031 3.46116 -0.729529 62 74 137 255 
-6.35953 3.4502 -0.788545 45 112 142 255 
-6.352 3.45198 -0.856934 42 120 142 255 
-6.35035 3.4582 -0.926301 43 116 142 255 
-6.34342 3.46027 -0.994954 47 108 142 255 
-6.33953 3.44364 -1.05376 46 110 142 255 
-6.33404 3.44509 -1.12137 56 88 140 255 
-6.31882 3.44246 -1.18737 56 88 140 255 
-6.31186 3.44306 -1.25742 61 78 138 255 
-6.008 3.26897 -1.25533 59 82 139 255 
-5.73009 3.12049 -1.25882 52 96 141 255 
-5.44933 2.96876 -1.25915 52 96 141 255 
-5.19676 2.83361 -1.26138 55 90 140 255 
-4.95345 2.69855 -1.25157 56 88 140 255 
-4.76634 2.59781 -1.25722 64 70 136 255 
-4.581 2.49778 -1.26133 66 63 133 255 
-4.40626 2.40059 -1.26596 65 68 135 255 
-4.22812 2.30818 -1.25926 68 59 132 255 
-4.08552 2.23044 -1.26291 64 70 136 255 
-3.94179 2.15014 -1.26549 68 59 132 255 
-3.76172 2.04773 -1.25486 69 56 130 255 
-16.9767 9.31471 5.8169 61 77 138 255 
-16.9799 9.29751 5.59858 61 78 138 255 
-16.9839 9.29182 5.39435 60 79 138 255 
-16.9903 9.29575 5.20024 60 80 139 255 
-16.9979 9.31477 5.03078 62 76 138 255 
-16.9752 9.29879 4.81862 60 79 138 255 
-16.9639 9.29629 4.61913 64 70 136 255 
-16.9476 9.29159 4.4266 68 59 132 255 
-16.9654 9.29315 4.2672 64 70 136 255 
-16.9709 9.30029 4.06756 59 81 139 255 
-16.9534 9.30205 3.87458 60 79 138 255 
-16.9281 9.29627 3.6841 59 82 139 255 
-16.9557 9.28782 3.52732 59 81 139 255 
-16.9415 9.28803 3.33376 58 83 139 255 
-16.907 9.28427 3.13786 58 83 139 255 
-16.8979 9.29882 2.95829 56 88 140 255 
-16.4017 8.98807 2.71513 70 52 128 255 
-9.82329 5.38776 1.5168 70 51 127 255 
-9.90107 5.44381 1.42138 67 61 132 255 
-10.4588 5.76019 1.39208 65 66 135 255 
-9.97476 5.46614 1.23364 60 80 139 255 
-9.96832 5.4741 1.1251 70 51 127 255 
-9.9734 5.48584 1.01787 64 69 136 255 
-16.5413 9.12137 1.51318 72 38 119 255 
-16.5972 9.09898 1.36672 72 26 108 255 
-9.1199 5.01026 0.652838 66 64 134 255 
-8.95961 4.93432 0.545003 47 108 142 255 
-8.97857 4.95515 0.449543 51 98 141 255 
-8.98042 4.92735 0.368447 49 103 142 255 
-8.71415 4.79131 0.26388 50 100 142 255 
-7.92101 4.36414 0.1547 57 85 140 255 
-7.90416 4.36579 0.0709207 54 93 141 255 
-7.92553 4.35036 -0.00157795 55 91 141 255 
-7.90127 4.34796 -0.0865749 57 86 140 255 
-7.89735 4.35469 -0.170013 54 93 141 255 
-7.88223 4.35726 -0.254718 61 77 138 255 
-7.11581 3.91074 -0.294896 51 99 141 255 
-7.12189 3.92232 -0.370628 49 104 142 255 
-7.11057 3.92247 -0.44691 54 92 141 255 
-7.11638 3.93552 -0.524454 55 91 141 255 
-7.12038 3.91487 -0.589581 55 91 141 255 
-7.10154 3.91434 -0.663821 52 96 141 255 
-6.98427 3.85757 -0.728933 60 79 138 255 
-6.32983 3.50054 -0.72963 63 72 137 255 
-6.33998 3.49011 -0.788762 45 113 142 255 
-6.32635 3.4885 -0.856345 44 114 142 255 
-6.33075 3.49806 -0.926555 46 110 142 255 
-6.32207 3.49913 -0.994954 49 104 142 255 
-6.32175 3.48438 -1.05434 50 101 142 255 
-6.31278 3.48389 -1.12137 53 95 141 255 
-6.30967 3.48785 -1.18965 52 97 141 255 
-6.28803 3.48029 -1.2569 58 84 140 255 
-5.96544 3.29342 -1.25064 59 81 139 255 
-5.6756 3.13612 -1.25105 58 84 140 255 
-5.41043 2.99077 -1.25438 50 102 142 255 
-5.18355 2.86781 -1.26242 56 88 140 255 
-4.93595 2.72842 -1.25136 56 89 140 255 
-4.73752 2.61993 -1.25383 63 72 137 255 
-4.54348 2.5136 -1.25522 66 63 133 255 
-4.38127 2.42195 -1.26303 64 69 136 255 
-4.20626 2.32986 -1.25698 62 74 137 255 
-4.04559 2.24097 -1.2548 65 66 135 255 
-3.89062 2.15331 -1.25328 67 62 133 255 
-3.73984 2.06567 -1.25177 71 47 125 255 
-16.9627 9.44293 5.83186 63 72 137 255 
-16.9787 9.43277 5.6172 63 72 137 255 
-16.9737 9.42204 5.40938 61 77 138 255 
-16.9861 9.42935 5.21658 59 81 139 255 
-16.9784 9.44006 5.04208 61 78 138 255 
-16.9585 9.4254 4.83021 60 79 138 255 
-16.9363 9.41675 4.62726 64 70 136 255 
-16.9533 9.43047 4.44312 66 64 134 255 
-16.926 9.40703 4.27172 62 74 137 255 
-16.9306 9.41375 4.07167 62 76 138 255 
-16.9302 9.42498 3.88243 61 78 138 255 
-16.9188 9.42674 3.6946 61 77 138 255 
-16.9405 9.4151 3.53611 55 90 140 255 
-16.9255 9.4148 3.34192 55 91 141 255 
-16.8919 9.41138 3.14573 59 81 139 255 
-16.8931 9.43172 2.96753 62 73 137 255 
-16.6749 9.27128 2.76972 70 52 128 255 
-10.3988 5.78669 1.61112 58 83 139 255 
-9.53475 5.31885 1.37345 58 84 140 255 
-9.77035 5.45942 1.30488 60 79 138 255 
-10.2113 5.67749 1.26717 67 61 132 255 
-10.2023 5.68435 1.15543 62 76 138 255 
-9.86127 5.50325 1.00985 53 94 141 255 
-16.1649 9.0436 1.48379 72 40 120 255 
-16.066 8.93641 1.32747 72 27 109 255 
-9.10903 5.0773 0.654278 50 101 142 255 
-9.01372 5.03645 0.550165 51 99 141 255 
-9.0186 5.04968 0.45309 51 99 141 255 
-9.0059 5.01347 0.370747 49 104 142 255 
-8.68109 4.84274 0.263773 48 105 142 255 
-7.88187 4.40583 0.154461 59 82 139 255 
-7.86588 4.40785 0.0708186 62 76 138 255 
-7.89432 4.39647 -0.00157708 55 90 140 255 
-7.88667 4.40318 -0.0867092 52 97 141 255 
-7.87572 4.406 -0.170126 53 94 141 255 
-7.86755 4.41239 -0.255114 60 80 139 255 
-7.09866 3.95822 -0.295186 53 95 141 255 
-7.09508 3.96448 -0.370492 48 105 142 255 
-7.09421 3.97042 -0.447404 52 97 141 255 
-7.09383 3.98009 -0.524583 54 92 141 255 
-7.09448 3.95751 -0.589436 55 90 140 255 
-7.06521 3.95103 -0.662679 51 98 141 255 
-6.92571 3.88088 -0.725294 63 72 137 255 
-6.30042 3.53494 -0.728726 64 69 136 255 
-6.31411 3.52652 -0.78822 46 109 142 255 
-6.30916 3.52967 -0.856934 45 113 142 255 
-6.31003 3.53732 -0.926682 46 110 142 255 
-6.29703 3.53592 -0.994409 49 104 142 255 
-6.30716 3.52697 -1.05549 46 111 142 255 
-6.30336 3.52932 -1.12352 56 89 140 255 
-6.29934 3.53277 -1.19176 48 105 142 255 
-6.26398 3.51736 -1.25639 59 81 139 255 
-5.94083 3.32756 -1.24973 57 85 140 255 
-5.66396 3.17521 -1.25275 59 82 139 255 
-5.38086 3.01768 -1.25179 53 94 141 255 
-5.15477 2.89334 -1.25971 56 88 140 255 
-4.93018 2.76486 -1.25417 54 92 141 255 
-4.73155 2.65467 -1.25654 65 66 135 255 
-4.50932 2.53097 -1.25005 65 66 135 255 
-4.36125 2.44594 -1.26156 63 71 136 255 
-4.17418 2.34567 -1.25167 65 66 135 255 
-4.04775 2.27474 -1.25977 64 69 136 255 
-3.85803 2.1663 -1.24704 67 61 132 255 
-3.7271 2.08858 -1.25177 68 57 131 255 
-16.9703 9.58404 5.85459 62 76 138 255 
-16.9691 9.56413 5.63331 61 77 138 255 
-16.966 9.55437 5.42548 62 74 137 255 
-16.9549 9.54857 5.22488 61 78 138 255 
-16.9413 9.55595 5.04836 59 81 139 255 
-16.9418 9.55263 4.84205 62 76 138 255 
-16.9485 9.56016 4.64654 64 70 136 255 
-16.9537 9.56737 4.45853 66 63 133 255 
-16.9283 9.54476 4.28702 62 73 137 255 
-16.9151 9.5415 4.08195 60 79 138 255 
-16.9259 9.55906 3.89481 60 79 138 255 
-16.9009 9.55309 3.7034 61 78 138 255 
-16.9116 9.5353 3.54222 58 83 139 255 
-16.8957 9.53446 3.34753 56 88 140 255 
-16.8975 9.55079 3.15761 57 85 140 255 
-16.8582 9.54835 2.97163 62 74 137 255 
-10.1004 5.69727 1.68347 70 50 126 255 
-15.9653 9.01307 2.48208 72 40 120 255 
-9.72299 5.50235 1.4054 61 77 138 255 
-9.68223 5.48841 1.29758 66 64 134 255 
-9.80476 5.5305 1.22091 64 69 136 255 
-10.0208 5.66408 1.13879 62 73 137 255 
-10.0232 5.67455 1.02998 69 55 129 255 
-15.4909 8.79181 1.42686 68 58 131 255 
-15.6921 8.85493 1.30104 70 52 128 255 
-9.18717 5.195 0.662168 50 101 142 255 
-9.07647 5.14484 0.555911 46 109 142 255 
-9.09256 5.16463 0.458389 53 95 141 255 
-9.07678 5.12613 0.374953 48 105 142 255 
-8.65905 4.90035 0.264012 48 105 142 255 
-7.85642 4.45509 0.154495 54 92 141 255 
-7.84043 4.45702 0.0708343 51 98 141 255 
-7.86372 4.44286 -0.00157638 52 96 141 255 
-7.87603 4.46086 -0.0868916 50 101 142 255 
-7.85114 4.45572 -0.170183 56 89 140 255 
-7.84033 4.46058 -0.255114 62 73 137 255 
-7.08294 4.00662 -0.295549 49 104 142 255 
-7.0767 4.01139 -0.370811 49 103 142 255 
-7.07405 4.01633 -0.447679 54 92 141 255 
-7.06581 4.02157 -0.524326 51 99 141 255 
-7.0718 4.00195 -0.589581 52 96 141 255 
-7.05817 4.00414 -0.664311 48 105 142 255 
-6.88186 3.91198 -0.723202 62 74 137 255 
-6.26478 3.56565 -0.727121 62 73 137 255 
-6.28889 3.56324 -0.787786 49 103 142 255 
-6.29688 3.57371 -0.858229 44 113 142 255 
