ply
format ascii 1.0
comment VTK generated PLY File
obj_info vtkPolyData points and polygons: vtk4.0
element vertex 1171
property float x
property float y
property float z
property uchar red
property uchar green
property uchar blue
property uchar alpha
element face 0
property list uchar int vertex_indices
end_header
-18.6673 -3.75229 3.47401 64 70 136 255 
-18.6841 -3.74861 3.28819 62 76 138 255 
-18.6683 -3.73208 3.09708 62 73 137 255 
-18.6267 -3.70654 2.91296 63 71 136 255 
-18.658 -3.74704 2.76268 60 80 139 255 
-18.6281 -3.73401 2.5721 62 73 137 255 
-18.6617 -3.7206 2.3938 62 76 138 255 
-18.6002 -3.69453 2.21093 65 68 135 255 
-18.6257 -3.74055 2.06044 64 70 136 255 
-18.6306 -3.72437 1.87963 61 77 138 255 
-18.6292 -3.71074 1.69862 62 76 138 255 
-18.6136 -3.68707 1.52004 62 73 137 255 
-18.6263 -3.7373 1.37176 64 70 136 255 
-18.6307 -3.721 1.19196 60 80 139 255 
-18.6829 -3.71127 1.01493 52 96 141 255 
-0 -0 0 68 2 86 255 
-18.6376 -3.7328 0.683694 70 51 127 255 
-39.9122 -7.95696 1.07992 70 11 94 255 
-31.7873 -6.30862 0.554355 69 4 87 255 
-49.2092 -9.71197 0.393952 69 4 87 255 
-0 -0 -0 68 1 84 255 
-0 -0 -0 68 1 84 255 
-0 -0 -0 68 2 86 255 
-18.6617 -3.67633 -0.537932 70 10 93 255 
-18.6644 -3.72465 -0.691236 71 16 99 255 
-18.6097 -3.69655 -0.864891 70 11 94 255 
-18.5652 -3.67442 -1.04153 70 8 92 255 
-18.5782 -3.65653 -1.22113 70 10 93 255 
-18.5961 -3.70765 -1.37586 72 28 110 255 
-18.051 -3.57903 -1.50649 72 31 112 255 
-17.886 -3.53026 -1.66557 71 19 101 255 
-15.8636 -3.12224 -1.63088 72 26 108 255 
-14.2081 -2.82505 -1.57882 72 29 111 255 
-12.6938 -2.51453 -1.53389 71 45 123 255 
-11.6214 -2.29167 -1.51741 71 44 122 255 
-10.6695 -2.09607 -1.49721 71 44 122 255 
-9.80018 -1.94328 -1.45931 71 46 124 255 
-9.12647 -1.80457 -1.44686 66 64 134 255 
-8.48011 -1.67069 -1.42621 66 65 134 255 
-7.9491 -1.56164 -1.41677 66 64 134 255 
-7.51576 -1.48486 -1.40606 66 63 133 255 
-7.06997 -1.39409 -1.39029 63 72 137 255 
-6.66544 -1.31318 -1.37846 64 69 136 255 
-6.37983 -1.25451 -1.3856 61 77 138 255 
-6.05645 -1.19326 -1.36963 66 65 134 255 
-5.76965 -1.1356 -1.36191 66 65 134 255 
-5.50878 -1.0833 -1.3572 63 72 137 255 
-5.2466 -1.03357 -1.34914 67 61 132 255 
-5.05462 -0.991304 -1.34651 66 65 134 255 
-4.85752 -0.952548 -1.34304 67 61 132 255 
-4.68824 -0.921093 -1.3466 66 64 134 255 
-4.49565 -0.887264 -1.34258 68 57 131 255 
-18.8408 -3.65342 5.76512 72 20 103 255 
-18.8412 -3.67027 5.55135 72 24 106 255 
-18.9301 -3.69461 5.37421 71 16 99 255 
-18.8568 -3.67991 5.15875 72 20 103 255 
-18.8753 -3.67034 4.99083 72 20 103 255 
-18.8787 -3.67416 4.78818 72 20 103 255 
-18.8462 -3.66459 4.58453 71 19 101 255 
-18.8237 -3.65643 4.39178 70 7 90 255 
-18.8055 -3.66017 4.22627 70 8 92 255 
-18.8398 -3.66317 4.03403 70 8 92 255 
-18.9234 -3.66932 3.8622 70 7 90 255 
-18.7247 -3.62366 3.6382 69 55 129 255 
-18.6755 -3.63486 3.47132 63 71 136 255 
-18.6748 -3.6277 3.28257 62 76 138 255 
-18.6521 -3.60996 3.09066 61 78 138 255 
-18.6345 -3.58938 2.91068 63 71 136 255 
-18.6126 -3.61926 2.75263 63 71 136 255 
-18.5933 -3.6085 2.56418 62 73 137 255 
-18.619 -3.59343 2.38544 62 74 137 255 
-18.6108 -3.57808 2.20954 66 65 134 255 
-18.6268 -3.62202 2.05807 62 74 137 255 
-18.6287 -3.60526 1.87717 60 79 138 255 
-18.6155 -3.58938 1.69532 63 72 137 255 
-18.5908 -3.56415 1.51637 63 71 136 255 
-18.5843 -3.61038 1.36701 62 76 138 255 
-18.5924 -3.59487 1.18808 60 80 139 255 
-18.6642 -3.58864 1.0127 51 99 141 255 
-0 -0 0 68 2 86 255 
-18.6307 -3.61267 0.682615 72 38 119 255 
-39.8474 -7.69013 1.07687 70 11 94 255 
-18.5815 -3.56939 0.323665 71 16 99 255 
-49.5743 -9.46837 0.396402 69 4 87 255 
-0 -0 -0 68 1 84 255 
-23.5254 -4.53164 -0.229986 70 8 92 255 
-23.2532 -4.45838 -0.44635 71 14 97 255 
-18.6299 -3.55146 -0.536377 71 13 96 255 
-18.581 -3.58959 -0.687316 71 14 97 255 
-18.6105 -3.57815 -0.863889 70 11 94 255 
-18.5551 -3.55424 -1.03971 70 10 93 255 
-18.5739 -3.53742 -1.21939 70 11 94 255 
-18.5911 -3.58819 -1.37383 72 26 108 255 
-18.0472 -3.46332 -1.50437 72 36 117 255 
-17.924 -3.42362 -1.66712 72 20 103 255 
-15.8668 -3.02186 -1.62927 72 24 106 255 
-14.1685 -2.72692 -1.57254 72 31 112 255 
-12.7138 -2.43753 -1.53448 71 46 124 255 
-11.6158 -2.2166 -1.51486 71 42 122 255 
-10.6802 -2.0302 -1.49693 70 50 126 255 
-9.79928 -1.88069 -1.45743 70 51 127 255 
-9.13251 -1.7476 -1.44609 67 62 133 255 
-8.48536 -1.6177 -1.4254 67 62 133 255 
-7.97595 -1.51615 -1.41987 62 76 138 255 
-7.5286 -1.43946 -1.40679 68 57 131 255 
-7.07454 -1.34995 -1.38953 63 71 136 255 
-6.69262 -1.27592 -1.38244 63 71 136 255 
-6.38452 -1.21479 -1.38498 62 76 138 255 
-6.05023 -1.15352 -1.36659 64 69 136 255 
-5.76407 -1.0978 -1.35898 64 70 136 255 
-5.49145 -1.04494 -1.35133 64 69 136 255 
-5.24427 -0.999726 -1.34694 67 62 133 255 
-5.04825 -0.957925 -1.34322 66 64 134 255 
-4.86802 -0.923625 -1.34435 66 63 133 255 
-4.69191 -0.89195 -1.34605 68 58 131 255 
-4.48781 -0.857142 -1.33865 69 56 130 255 
-18.8253 -3.53068 5.75361 71 17 100 255 
-18.8473 -3.55157 5.54663 72 22 104 255 
-18.8558 -3.56016 5.34684 71 17 100 255 
-18.8609 -3.56073 5.15382 71 16 99 255 
-18.9004 -3.555 4.99159 71 17 100 255 
-18.8246 -3.54389 4.76885 71 16 99 255 
-18.8569 -3.54673 4.58174 72 20 103 255 
-18.8218 -3.53636 4.3862 70 10 93 255 
-18.7499 -3.53008 4.20882 70 10 93 255 
-18.7475 -3.52598 4.00955 70 10 93 255 
-18.7866 -3.52332 3.82978 70 8 92 255 
-18.7263 -3.50491 3.63426 66 64 134 255 
-18.6655 -3.51419 3.4654 64 70 136 255 
-18.6444 -3.50322 3.27339 59 81 139 255 
-18.6215 -3.48564 3.08199 61 78 138 255 
-18.6193 -3.46809 2.90492 60 79 138 255 
-18.5927 -3.49712 2.74645 62 76 138 255 
-18.5966 -3.49087 2.56163 61 78 138 255 
-18.6075 -3.47293 2.3812 63 72 137 255 
-18.6148 -3.46055 2.20746 64 70 136 255 
-18.6018 -3.49884 2.0529 64 70 136 255 
-18.6026 -3.48191 1.87235 60 79 138 255 
-18.6009 -3.46834 1.69203 63 71 136 255 
-18.5829 -3.44456 1.51397 64 69 136 255 
-18.5894 -3.49315 1.36578 60 79 138 255 
-18.5719 -3.47283 1.18539 59 81 139 255 
-18.6475 -3.46694 1.01062 51 98 141 255 
-0 -0 0 68 1 84 255 
-18.624 -3.49294 0.681573 72 28 110 255 
-39.7062 -7.41045 1.07181 70 11 94 255 
-18.5952 -3.45385 0.323528 72 40 120 255 
-49.9894 -9.2301 0.399261 70 7 90 255 
-0 -0 -0 68 2 86 255 
-23.5508 -4.38684 -0.229967 70 7 90 255 
-23.289 -4.31726 -0.44652 71 14 97 255 
-18.557 -3.41969 -0.533664 71 14 97 255 
-18.5899 -3.47312 -0.686844 71 13 96 255 
-18.5702 -3.45239 -0.86102 71 14 97 255 
-18.5589 -3.43705 -1.03872 70 11 94 255 
-18.554 -3.4158 -1.21669 70 8 92 255 
-18.5059 -3.4541 -1.36594 72 28 110 255 
-18.077 -3.35416 -1.5051 72 32 113 255 
-17.9965 -3.32316 -1.67194 71 16 99 255 
-15.8518 -2.91832 -1.62586 72 22 104 255 
-14.184 -2.63975 -1.57243 72 37 118 255 
-12.7158 -2.35712 -1.53295 71 44 122 255 
-11.6935 -2.15717 -1.52325 71 42 122 255 
-10.6427 -1.9555 -1.48998 70 50 126 255 
-9.81453 -1.82125 -1.45801 70 52 128 255 
-9.14501 -1.6919 -1.4464 67 61 132 255 
-8.49707 -1.56596 -1.42572 65 68 135 255 
-7.97348 -1.46505 -1.41781 67 62 133 255 
-7.53825 -1.39341 -1.40697 65 68 135 255 
-7.09138 -1.30812 -1.39123 62 73 137 255 
-6.71671 -1.23785 -1.38582 62 73 137 255 
-6.38993 -1.17524 -1.38456 64 70 136 255 
-6.06872 -1.1185 -1.36919 64 70 136 255 
-5.77453 -1.06312 -1.35988 62 74 137 255 
-5.48151 -1.00823 -1.34733 66 63 133 255 
-5.24554 -0.96665 -1.34571 66 63 133 255 
-5.06641 -0.929201 -1.34651 67 62 133 255 
-4.87075 -0.893216 -1.34356 69 56 130 255 
-4.6812 -0.860187 -1.34144 67 61 132 255 
-4.47883 -0.826976 -1.33443 69 56 130 255 
-18.8466 -3.4151 5.75361 72 20 103 255 
-18.8461 -3.43173 5.53996 71 19 101 255 
-18.8603 -3.44128 5.342 72 22 104 255 
-18.8606 -3.44095 5.14786 71 19 101 255 
-18.8875 -3.43273 4.98254 72 24 106 255 
-18.8059 -3.42102 4.75871 71 17 100 255 
-18.797 -3.41617 4.562 72 27 109 255 
-18.8067 -3.41419 4.37771 70 8 92 255 
-18.7308 -3.40762 4.19977 70 10 93 255 
-18.7505 -3.40755 4.00564 70 10 93 255 
-18.7007 -3.38857 3.80798 70 10 93 255 
-18.7059 -3.38242 3.6262 66 64 134 255 
-18.6296 -3.38921 3.45481 61 77 138 255 
-18.6258 -3.38154 3.26642 62 74 137 255 
-18.6367 -3.37026 3.08102 62 76 138 255 
-18.6042 -3.3473 2.89931 64 70 136 255 
-18.5923 -3.37908 2.74329 62 74 137 255 
-18.5923 -3.3721 2.55815 62 76 138 255 
-18.5982 -3.35323 2.37733 62 74 137 255 
-18.5858 -3.33731 2.20155 64 70 136 255 
-18.5916 -3.37895 2.04945 61 78 138 255 
-18.5952 -3.36257 1.86949 60 79 138 255 
-18.5846 -3.34743 1.68864 62 76 138 255 
-18.5458 -3.32011 1.50926 64 69 136 255 
-18.5624 -3.3703 1.36225 61 78 138 255 
-18.5713 -3.35491 1.18401 60 79 138 255 
-18.6586 -3.35069 1.01009 50 101 142 255 
-0 -0 0 68 2 86 255 
-18.5635 -3.36381 0.678589 71 19 101 255 
-39.4941 -7.12039 1.06488 70 11 94 255 
-18.5954 -3.33598 0.323169 72 35 116 255 
-50.4104 -8.98832 0.402175 69 4 87 255 
-0 -0 -0 68 1 84 255 
-24.0438 -4.32618 -0.234517 70 7 90 255 
-23.9262 -4.2837 -0.458224 71 13 96 255 
-18.5688 -3.30419 -0.533409 71 13 96 255 
-18.5705 -3.35171 -0.685356 71 13 96 255 
-18.5782 -3.33608 -0.860428 71 14 97 255 
-18.5599 -3.31959 -1.03762 70 11 94 255 
-18.553 -3.29805 -1.21527 71 13 96 255 
-18.516 -3.33854 -1.36515 72 32 113 255 
-18.0727 -3.23878 -1.50306 72 32 113 255 
-17.9548 -3.20166 -1.66621 72 24 106 255 
-15.8518 -2.81787 -1.62405 72 26 108 255 
-14.1941 -2.55161 -1.57178 72 36 117 255 
-12.733 -2.27957 -1.5333 71 45 123 255 
-11.687 -2.0819 -1.52071 72 41 121 255 
-10.6409 -1.88774 -1.48807 71 47 125 255 
-9.82942 -1.76169 -1.45859 70 48 126 255 
-9.11923 -1.62932 -1.44071 68 57 131 255 
-8.50166 -1.51293 -1.42491 65 66 135 255 
-7.98717 -1.41696 -1.41867 66 64 134 255 
-7.54569 -1.34696 -1.40679 66 64 134 255 
-7.0925 -1.26338 -1.38991 62 74 137 255 
-6.73286 -1.19816 -1.38761 62 76 138 255 
-6.39221 -1.13515 -1.38352 62 73 137 255 
-6.07066 -1.08038 -1.36811 63 72 137 255 
-5.77999 -1.0275 -1.35965 64 69 136 255 
-5.49046 -0.975092 -1.34804 67 62 133 255 
-5.26187 -0.936315 -1.3484 65 68 135 255 
-5.06058 -0.896072 -1.34348 65 66 135 255 
-4.85998 -0.860452 -1.33911 69 55 129 255 
-4.63711 -0.822704 -1.32734 69 53 129 255 
-4.49232 -0.800995 -1.33696 69 56 130 255 
-18.8426 -3.29511 5.74613 72 20 103 255 
-18.7769 -3.30023 5.51357 71 19 101 255 
-18.8459 -3.31931 5.33207 72 20 103 255 
-18.8414 -3.31813 5.13696 72 20 103 255 
-18.7995 -3.29771 4.9539 71 17 100 255 
-18.8007 -3.30103 4.75218 72 24 106 255 
-18.7505 -3.28901 4.54574 72 40 120 255 
-18.7639 -3.28763 4.36298 70 8 92 255 
-18.7812 -3.29786 4.20645 70 11 94 255 
-18.7575 -3.29007 4.00276 70 10 93 255 
-18.7617 -3.28086 3.81623 71 13 96 255 
-18.6053 -3.24648 3.60278 67 62 133 255 
-18.5997 -3.26599 3.44547 62 74 137 255 
-18.586 -3.25664 3.25588 60 80 139 255 
-18.6123 -3.24804 3.07364 62 74 137 255 
-18.5825 -3.22582 2.89279 62 73 137 255 
-18.5835 -3.25981 2.73898 61 78 138 255 
-18.5902 -3.25403 2.55506 61 78 138 255 
-18.5529 -3.22766 2.36896 62 74 137 255 
-18.5629 -3.21575 2.19645 62 76 138 255 
-18.5738 -3.25811 2.04524 62 76 138 255 
-18.587 -3.24345 1.86664 59 82 139 255 
-18.5871 -3.23027 1.68704 61 78 138 255 
-18.5442 -3.20252 1.50751 62 76 138 255 
-18.5621 -3.25272 1.36074 60 80 139 255 
-18.563 -3.23592 1.1822 57 85 140 255 
-18.6444 -3.23017 1.00823 50 101 142 255 
-0 -0 0 68 1 84 255 
-18.5415 -3.24244 0.677044 70 8 92 255 
-39.2997 -6.83663 1.05849 70 7 90 255 
-0 -0 0 68 2 86 255 
-50.6804 -8.71596 0.403895 69 5 89 255 
-0 -0 -0 68 1 84 255 
-24.8965 -4.32207 -0.242571 69 4 87 255 
-23.9787 -4.14141 -0.458733 69 4 87 255 
-18.5582 -3.18495 -0.532533 71 13 96 255 
-18.5464 -3.22999 -0.683723 71 14 97 255 
-18.5708 -3.21725 -0.859153 71 13 96 255 
-18.5455 -3.1997 -1.0357 71 13 96 255 
-18.5296 -3.17673 -1.21244 70 11 94 255 
-18.4958 -3.21785 -1.36218 72 31 112 255 
-17.9871 -3.10966 -1.49433 72 35 116 255 
-17.9309 -3.08401 -1.66221 72 20 103 255 
-15.7403 -2.69853 -1.61091 72 24 106 255 
-14.2163 -2.46566 -1.57254 72 36 117 255 
-12.7556 -2.20292 -1.53436 72 35 116 255 
-11.6507 -2.00175 -1.51436 72 37 118 255 
-10.6542 -1.82274 -1.48834 71 44 122 255 
-9.84979 -1.70303 -1.46003 71 46 124 255 
-9.13879 -1.57501 -1.44225 66 63 133 255 
-8.50203 -1.45924 -1.42344 66 64 134 255 
-8.00833 -1.37008 -1.42091 65 66 135 255 
-7.56642 -1.30281 -1.40913 64 70 136 255 
-7.10206 -1.22017 -1.39029 61 77 138 255 
-6.71594 -1.15268 -1.38264 64 69 136 255 
-6.41544 -1.09872 -1.38706 64 69 136 255 
-6.08006 -1.04361 -1.36876 65 68 135 255 
-5.81211 -0.99646 -1.36575 61 77 138 255 
-5.48484 -0.939416 -1.34522 65 66 135 255 
-5.28758 -0.907455 -1.35354 68 58 131 255 
-5.04882 -0.862073 -1.33893 63 71 136 255 
-4.87468 -0.83224 -1.34173 69 56 130 255 
-4.65345 -0.796184 -1.33059 70 52 128 255 
-4.50094 -0.774066 -1.33808 70 50 126 255 
-18.7851 -3.16638 5.72254 70 50 126 255 
-18.7788 -3.1819 5.50829 72 33 115 255 
-18.7491 -3.18377 5.29906 72 24 106 255 
-18.7938 -3.19098 5.11855 71 19 101 255 
-18.7125 -3.16422 4.92576 72 26 108 255 
-18.7384 -3.17168 4.73141 72 27 109 255 
-18.7368 -3.16822 4.53761 69 55 129 255 
-18.7693 -3.17 4.35963 70 10 93 255 
-18.7298 -3.1705 4.19051 70 11 94 255 
-18.7503 -3.17035 3.997 70 10 93 255 
-18.7051 -3.1528 3.80071 70 10 93 255 
-18.6045 -3.12883 3.59885 66 64 134 255 
-18.6029 -3.14901 3.44242 60 80 139 255 
-18.5988 -3.14139 3.25469 60 79 138 255 
-18.5988 -3.12821 3.06818 61 78 138 255 
-18.5698 -3.10636 2.88779 64 69 136 255 
-18.5807 -3.14192 2.73568 60 80 139 255 
-18.5609 -3.13166 2.54835 59 81 139 255 
-18.5567 -3.11113 2.36697 62 74 137 255 
-18.5607 -3.09819 2.19391 63 72 137 255 
-18.5719 -3.14044 2.04287 62 76 138 255 
-18.5516 -3.1201 1.86112 62 73 137 255 
-18.5614 -3.10859 1.68294 62 76 138 255 
-18.5389 -3.08459 1.50551 64 69 136 255 
-18.5325 -3.13046 1.35714 62 74 137 255 
-18.5599 -3.11816 1.18076 61 77 138 255 
-18.6343 -3.11078 1.00663 52 96 141 255 
-0 -0 0 68 2 86 255 
-18.5127 -3.12047 0.675282 70 8 92 255 
-18.6304 -3.12331 0.50126 70 11 94 255 
-18.4919 -3.08368 0.320689 72 23 105 255 
-18.4973 -3.06441 0.147261 72 37 118 255 
-0 -0 -0 68 2 86 255 
-25.3486 -4.2405 -0.246718 70 7 90 255 
-18.4766 -3.07451 -0.353107 70 11 94 255 
-18.5458 -3.0658 -0.531628 72 29 111 255 
-18.5294 -3.11001 -0.68238 71 14 97 255 
-18.5567 -3.09765 -0.857605 71 13 96 255 
-18.5284 -3.07979 -1.03367 71 17 100 255 
-18.4976 -3.05452 -1.2091 72 20 103 255 
-18.4493 -3.09325 -1.35733 72 29 111 255 
-17.996 -2.9976 -1.49352 72 33 115 255 
-17.9181 -2.96872 -1.6593 72 22 104 255 
-15.7762 -2.60514 -1.61291 72 22 104 255 
-14.2263 -2.37757 -1.572 72 27 109 255 
-12.7757 -2.12576 -1.53518 72 38 119 255 
-11.6657 -1.93071 -1.51474 72 40 120 255 
-10.6603 -1.75653 -1.48766 70 48 126 255 
-9.86396 -1.64321 -1.46061 70 50 126 255 
-9.12586 -1.51519 -1.43871 66 64 134 255 
-8.48259 -1.40238 -1.41872 65 68 135 255 
-8.0127 -1.32028 -1.42022 68 57 131 255 
-7.5568 -1.25346 -1.40588 61 78 138 255 
-7.10554 -1.17593 -1.38953 63 72 137 255 
-6.74996 -1.11593 -1.38821 68 58 131 255 
-6.42399 -1.05965 -1.38748 62 76 138 255 
-6.09309 -1.0074 -1.37027 63 72 137 255 
-5.7912 -0.956334 -1.35943 65 68 135 255 
-5.50105 -0.907484 -1.3478 64 69 136 255 
-5.27296 -0.871673 -1.3484 64 69 136 255 
-5.03778 -0.828409 -1.33463 61 77 138 255 
-4.85589 -0.798399 -1.33518 66 64 134 255 
-4.66015 -0.767929 -1.33113 71 44 122 255 
-4.52454 -0.749571 -1.34371 69 55 129 255 
-18.8193 -3.05351 5.72714 72 22 104 255 
-18.7345 -3.05626 5.48968 72 26 108 255 
-18.7493 -3.06556 5.29369 72 37 118 255 
-18.7901 -3.07186 5.11233 71 42 122 255 
-18.7679 -3.05525 4.93531 72 27 109 255 
-18.7383 -3.05353 4.72657 72 31 112 255 
-18.7386 -3.05038 4.53343 62 73 137 255 
-18.7345 -3.04601 4.34713 72 36 117 255 
-18.7123 -3.04955 4.18232 71 42 122 255 
-18.7009 -3.04407 3.9824 71 42 122 255 
-18.6806 -3.0309 3.79187 71 44 122 255 
-18.5827 -3.00803 3.59098 64 69 136 255 
-18.5879 -3.02927 3.43614 61 78 138 255 
-18.5847 -3.02183 3.24891 60 79 138 255 
-18.5904 -3.00961 3.06368 62 74 137 255 
-18.568 -2.98906 2.8846 61 78 138 255 
-18.5664 -3.02245 2.73079 60 79 138 255 
-18.5739 -3.01676 2.54755 61 78 138 255 
-18.5519 -2.99342 2.36397 64 70 136 255 
-18.5412 -2.9781 2.18939 62 74 137 255 
-18.5643 -3.02211 2.03996 62 73 137 255 
-18.5468 -3.00239 1.85876 61 78 138 255 
-18.5575 -2.991 1.68089 64 70 136 255 
-18.526 -2.96574 1.50296 63 71 136 255 
-18.5494 -3.01636 1.357 61 77 138 255 
-18.5442 -2.99864 1.17856 59 82 139 255 
-18.5663 -2.98244 1.00195 59 81 139 255 
-0 -0 0 68 2 86 255 
-18.6085 -3.01931 0.678086 50 102 142 255 
-18.6146 -3.00337 0.500331 52 96 141 255 
-18.5806 -2.98141 0.321903 53 94 141 255 
-18.5799 -2.96109 0.147771 52 97 141 255 
-18.5499 -3.00649 -0.00327982 53 94 141 255 
-18.571 -2.98968 -0.18057 55 91 141 255 
-18.587 -2.97578 -0.35486 56 89 140 255 
-18.5652 -2.95211 -0.531656 58 83 139 255 
-18.5511 -2.99673 -0.682489 53 94 141 255 
-18.5497 -2.97961 -0.856421 55 91 141 255 
-18.5528 -2.96699 -1.034 56 88 140 255 
-18.514 -2.94065 -1.20897 58 84 140 255 
-18.4167 -2.97173 -1.35357 72 32 113 255 
-18.0072 -2.88602 -1.49294 72 29 111 255 
-17.9291 -2.85762 -1.65866 72 24 106 255 
-15.8116 -2.51141 -1.61492 72 29 111 255 
-14.2269 -2.28802 -1.57048 72 29 111 255 
-12.7973 -2.04874 -1.53624 72 37 118 255 
-11.6577 -1.85597 -1.5122 71 42 122 255 
-10.6689 -1.69078 -1.48738 71 42 122 255 
-9.86506 -1.58125 -1.45931 71 45 123 255 
-9.15255 -1.46197 -1.44148 64 69 136 255 
-8.46083 -1.3455 -1.41367 66 65 134 255 
-8.00898 -1.26924 -1.41815 67 61 132 255 
-7.55464 -1.20552 -1.40408 63 72 137 255 
-7.09904 -1.13014 -1.38688 65 68 135 255 
-6.72474 -1.06941 -1.38164 62 74 137 255 
-6.41395 -1.01761 -1.38393 63 72 137 255 
-6.10784 -0.971371 -1.37222 63 72 137 255 
-5.7681 -0.916197 -1.35266 66 64 134 255 
-5.50076 -0.872799 -1.34639 67 62 133 255 
-5.2581 -0.836105 -1.34327 68 59 132 255 
-5.08482 -0.804132 -1.34575 63 71 136 255 
-4.86165 -0.76874 -1.33545 66 63 133 255 
-4.67999 -0.741731 -1.33547 70 51 127 255 
-4.52905 -0.721795 -1.34371 70 52 128 255 
-18.7231 -2.92012 5.69233 71 17 100 255 
-18.824 -2.95241 5.51051 72 22 104 255 
-18.7516 -2.94792 5.28913 72 24 106 255 
-18.7905 -2.95366 5.1074 72 20 103 255 
-18.8293 -2.94677 4.94662 72 22 104 255 
-18.7845 -2.94285 4.73358 72 26 108 255 
-18.7339 -2.93174 4.52785 57 86 140 255 
-18.6912 -2.92137 4.33284 70 8 92 255 
-18.7394 -2.93603 4.18426 70 10 93 255 
-18.7037 -2.92685 3.97911 70 7 90 255 
-0 -0 0 68 2 86 255 
-18.5532 -2.88655 3.58179 66 65 134 255 
-18.5808 -2.9112 3.43147 63 71 136 255 
-18.5669 -2.90211 3.24262 61 78 138 255 
-18.5734 -2.89002 3.0579 62 76 138 255 
-18.5548 -2.87023 2.87975 62 76 138 255 
-18.5592 -2.90449 2.72706 59 81 139 255 
-18.551 -2.89631 2.54191 60 80 139 255 
-18.52 -2.87178 2.35761 62 73 137 255 
-18.5296 -2.85973 2.18592 63 72 137 255 
-18.5413 -2.90169 2.03543 62 74 137 255 
-18.5344 -2.88379 1.85571 60 79 138 255 
-18.542 -2.87189 1.67787 62 76 138 255 
-18.5123 -2.84716 1.5004 62 73 137 255 
-18.5311 -2.89679 1.35433 62 74 137 255 
-18.509 -2.87652 1.17518 57 86 140 255 
-18.5655 -2.86557 1.00094 65 68 135 255 
-0 -0 0 68 2 86 255 
-18.5299 -2.88998 0.674563 72 26 108 255 
-40.146 -6.22483 1.07801 70 8 92 255 
-18.558 -2.8611 0.321202 69 4 87 255 
-52.2052 -7.9918 0.414804 69 4 87 255 
-18.5088 -2.88338 -0.00326935 72 33 115 255 
-18.4942 -2.861 -0.179648 71 17 100 255 
-18.5149 -2.84784 -0.353144 70 7 90 255 
-18.5385 -2.83135 -0.530384 71 19 101 255 
-18.5139 -2.87426 -0.680456 71 46 124 255 
-18.4818 -2.85248 -0.852459 72 32 113 255 
-18.5144 -2.84446 -1.03087 72 22 104 255 
-18.4814 -2.81932 -1.20569 71 14 97 255 
-18.4455 -2.86035 -1.35436 72 28 110 255 
-18.0019 -2.77198 -1.49107 72 35 116 255 
-17.9276 -2.74469 -1.65693 72 31 112 255 
-15.8276 -2.4145 -1.61502 72 24 106 255 
-14.2141 -2.19658 -1.56756 72 29 111 255 
-12.7979 -1.96837 -1.53483 72 38 119 255 
-11.6699 -1.78456 -1.51232 71 42 122 255 
-10.6723 -1.62424 -1.48643 71 44 122 255 
-9.87654 -1.52099 -1.4596 71 47 125 255 
-9.15744 -1.40518 -1.44086 63 71 136 255 
-8.46503 -1.29296 -1.41302 66 64 134 255 
-8.01077 -1.21918 -1.41712 68 59 132 255 
-7.56676 -1.15988 -1.40498 61 77 138 255 
-7.1272 -1.08983 -1.39104 61 78 138 255 
-6.73408 -1.02857 -1.38224 60 79 138 255 
-6.40654 -0.97617 -1.38102 64 69 136 255 
-6.1021 -0.932107 -1.36963 63 71 136 255 
-5.77361 -0.880788 -1.35266 64 70 136 255 
-5.50409 -0.838738 -1.34592 65 68 135 255 
-5.26026 -0.803387 -1.34253 66 63 133 255 
-5.08105 -0.77161 -1.34348 62 76 138 255 
-4.87295 -0.739909 -1.33728 68 58 131 255 
-4.69301 -0.714305 -1.33792 69 55 129 255 
-4.51253 -0.690797 -1.33752 70 52 128 255 
-18.7199 -2.80207 5.686 72 20 103 255 
-18.7478 -2.82269 5.48301 72 23 105 255 
-18.7322 -2.8272 5.27866 72 22 104 255 
-18.772 -2.83283 5.09755 71 19 101 255 
-18.8059 -2.825 4.93581 71 19 101 255 
-18.7878 -2.82537 4.72996 72 22 104 255 
-18.7159 -2.81139 4.51926 55 91 141 255 
-18.6635 -2.79983 4.32235 70 7 90 255 
-18.6624 -2.80676 4.16315 70 7 90 255 
-18.6904 -2.80738 3.97253 70 8 92 255 
-18.5215 -2.77226 3.75238 69 4 87 255 
-18.5298 -2.76656 3.57392 63 72 137 255 
-18.5517 -2.79011 3.42286 62 74 137 255 
-18.5483 -2.78272 3.23632 60 80 139 255 
-18.5478 -2.76959 3.05084 62 74 137 255 
-18.5368 -2.75111 2.8743 62 74 137 255 
-18.5209 -2.78218 2.71887 59 81 139 255 
-18.5361 -2.77759 2.53749 62 76 138 255 
-18.5333 -2.7575 2.35711 60 80 139 255 
-18.5085 -2.74031 2.1814 64 69 136 255 
-18.5263 -2.78299 2.03187 64 69 136 255 
-18.5429 -2.76869 1.85482 62 74 137 255 
-18.4982 -2.74899 1.67234 63 72 137 255 
-18.5107 -2.73075 1.49888 62 76 138 255 
-18.4953 -2.77504 1.35044 63 71 136 255 
-18.5095 -2.7604 1.17412 60 80 139 255 
-18.5363 -2.74473 0.998437 70 50 126 255 
-0 -0 0 68 2 86 255 
-0 -0 0 68 1 84 255 
-40.4662 -6.02045 1.0856 70 11 94 255 
-0 -0 0 68 2 86 255 
-0 -0 0 68 2 86 255 
-0 -0 -0 68 1 84 255 
-0 -0 -0 68 1 84 255 
-0 -0 -0 68 1 84 255 
-18.4527 -2.70248 -0.527444 70 11 94 255 
-18.5074 -2.75708 -0.679585 70 11 94 255 
-18.4959 -2.73858 -0.852322 70 11 94 255 
-18.4891 -2.72454 -1.0285 70 10 93 255 
-18.4845 -2.70384 -1.20478 70 11 94 255 
-18.4489 -2.74507 -1.35335 72 31 112 255 
-18.0058 -2.65958 -1.49001 72 33 115 255 
-17.9303 -2.63261 -1.65566 72 23 105 255 
-15.7949 -2.31042 -1.6102 72 24 106 255 
-14.1536 -2.09839 -1.55943 72 33 115 255 
-12.793 -1.88734 -1.53283 72 37 118 255 
-11.6629 -1.71033 -1.51004 72 37 118 255 
-10.6556 -1.55486 -1.48275 71 42 122 255 
-9.00274 -1.32993 -1.32923 72 37 118 255 
-9.15025 -1.34666 -1.4384 66 64 134 255 
-8.50404 -1.24557 -1.41823 63 72 137 255 
-8.01323 -1.16929 -1.41626 68 59 132 255 
-7.57276 -1.11329 -1.4048 63 71 136 255 
-7.15998 -1.04992 -1.39616 60 79 138 255 
-6.74511 -0.987946 -1.38323 59 81 139 255 
-6.40273 -0.935428 -1.37893 65 66 135 255 
-6.09515 -0.892808 -1.36681 64 70 136 255 
-5.80204 -0.848729 -1.35807 64 70 136 255 
-5.5149 -0.805793 -1.34733 65 66 135 255 
-5.2507 -0.768988 -1.33886 64 69 136 255 
-5.09622 -0.741952 -1.34626 60 79 138 255 
-4.87263 -0.7093 -1.33597 67 61 132 255 
-4.68778 -0.684105 -1.3352 69 56 130 255 
-4.54896 -0.667835 -1.34708 69 55 129 255 
-18.7206 -2.68484 5.68111 71 19 101 255 
-18.7248 -2.70184 5.47134 72 20 103 255 
-18.7187 -2.70779 5.27007 72 20 103 255 
-18.7747 -2.71552 5.09366 71 19 101 255 
-18.751 -2.69921 4.91697 72 22 104 255 
-18.7529 -2.70256 4.71691 71 19 101 255 
-18.677 -2.68846 4.50579 60 80 139 255 
-18.662 -2.68263 4.3181 70 8 92 255 
-18.6619 -2.68969 4.15927 70 8 92 255 
-18.6743 -2.6879 3.96553 70 8 92 255 
-18.7439 -2.68807 3.79403 69 5 89 255 
-18.525 -2.64975 3.5698 65 68 135 255 
-18.5451 -2.67286 3.41855 56 88 140 255 
-18.5357 -2.66465 3.23122 60 80 139 255 
-18.5293 -2.6507 3.04506 60 79 138 255 
-18.5308 -2.63411 2.87081 62 74 137 255 
-18.5317 -2.66764 2.718 58 83 139 255 
-18.5067 -2.65718 2.53118 62 74 137 255 
-18.5234 -2.63995 2.35374 60 80 139 255 
-18.5024 -2.62349 2.17874 64 69 136 255 
-18.5125 -2.66487 2.02853 63 71 136 255 
-18.4995 -2.64626 1.84882 60 80 139 255 
-18.5098 -2.63473 1.6719 61 77 138 255 
-18.4649 -2.60834 1.49385 62 74 137 255 
-18.4962 -2.65923 1.34929 60 79 138 255 
-18.4846 -2.64085 1.17149 56 89 140 255 
-18.5291 -2.62757 0.99716 72 33 115 255 
-0 -0 0 68 2 86 255 
-33.7833 -4.84507 1.22759 69 5 89 255 
-40.7636 -5.80928 1.0926 69 4 87 255 
-18.5422 -2.62614 0.320347 70 51 127 255 
-53.142 -7.469 0.421487 69 4 87 255 
-0 -0 -0 68 1 84 255 
-0 -0 -0 68 1 84 255 
-0 -0 -0 68 2 86 255 
-18.4877 -2.59184 -0.527981 70 11 94 255 
-18.4656 -2.63514 -0.677444 71 13 96 255 
-18.4995 -2.62322 -0.85173 70 11 94 255 
-18.5123 -2.61202 -1.02889 71 13 96 255 
-18.4157 -2.57847 -1.19925 70 10 93 255 
-18.4525 -2.62998 -1.35241 72 36 117 255 
-17.9911 -2.54472 -1.48748 72 35 116 255 
-17.9067 -2.517 -1.65202 72 29 111 255 
-15.7911 -2.21098 -1.6084 72 26 108 255 
-14.1396 -2.00773 -1.5565 72 37 118 255 
-12.7699 -1.80395 -1.52871 71 42 122 255 
-11.63 -1.63267 -1.50444 72 40 120 255 
-10.6462 -1.48685 -1.48015 72 40 120 255 
-8.84417 -1.2511 -1.30466 67 62 133 255 
-8.77577 -1.23659 -1.37832 72 26 108 255 
-8.51348 -1.19364 -1.41856 65 66 135 255 
-7.99294 -1.11629 -1.41143 66 63 133 255 
-7.52977 -1.05981 -1.39559 64 69 136 255 
-7.13128 -1.00106 -1.38934 63 72 137 255 
-6.75687 -0.947356 -1.38443 61 77 138 255 
-6.40254 -0.895312 -1.37768 67 62 133 255 
-6.09664 -0.85485 -1.36594 64 69 136 255 
-5.81582 -0.814328 -1.36011 65 68 135 255 
-5.51589 -0.7714 -1.34639 66 63 133 255 
-5.25244 -0.736352 -1.33813 67 62 133 255 
-5.07672 -0.70733 -1.33994 62 74 137 255 
-4.87115 -0.67859 -1.3344 66 65 134 255 
-4.70143 -0.65666 -1.33792 65 68 135 255 
-4.52922 -0.636571 -1.34005 69 53 129 255 
-18.7339 -2.56953 5.68025 72 20 103 255 
-18.7163 -2.58348 5.46412 71 17 100 255 
-18.7416 -2.59381 5.27195 71 19 101 255 
-18.7766 -2.59828 5.08977 71 19 101 255 
-18.7471 -2.58133 4.9117 71 17 100 255 
-18.7317 -2.58228 4.70749 72 22 104 255 
-18.6479 -2.56757 4.49487 67 61 132 255 
-18.6617 -2.56581 4.31431 70 11 94 255 
-18.649 -2.57113 4.15281 70 7 90 255 
-18.6691 -2.57033 3.96101 70 10 93 255 
-0 -0 0 68 2 86 255 
-18.5107 -2.53191 3.56399 62 73 137 255 
-18.5465 -2.557 3.41586 61 78 138 255 
-18.542 -2.54953 3.22952 60 80 139 255 
-18.512 -2.53241 3.0396 60 80 139 255 
-18.5261 -2.51757 2.86762 64 69 136 255 
-18.5281 -2.55118 2.71513 58 84 140 255 
-18.5148 -2.5425 2.53011 61 77 138 255 
-18.5048 -2.52156 2.34937 60 79 138 255 
-18.4787 -2.50457 2.1741 62 74 137 255 
-18.4901 -2.54594 2.02432 63 72 137 255 
-18.5055 -2.53135 1.84783 60 79 138 255 
-18.5039 -2.51815 1.66994 60 80 139 255 
-18.4826 -2.49525 1.49401 61 77 138 255 
-18.4953 -2.54338 1.34806 57 85 140 255 
-18.4886 -2.52576 1.17074 55 90 140 255 
-18.5478 -2.51423 0.99732 72 26 108 255 
-0 -0 0 68 1 84 255 
-33.9223 -4.65276 1.23158 70 11 94 255 
-33.9572 -4.62687 0.909387 70 11 94 255 
-18.5134 -2.50628 0.319577 68 57 131 255 
-53.5793 -7.19549 0.424598 69 4 87 255 
-0 -0 -0 68 1 84 255 
-0 -0 -0 68 1 84 255 
-0 -0 -0 68 1 84 255 
-18.4845 -2.47583 -0.527444 70 10 93 255 
-18.4597 -2.51881 -0.676645 71 14 97 255 
-18.4985 -2.50738 -0.850956 71 13 96 255 
-18.4924 -2.49358 -1.02691 70 10 93 255 
-18.4282 -2.46503 -1.19906 70 11 94 255 
-18.3873 -2.50567 -1.34648 72 33 115 255 
-17.961 -2.42814 -1.48373 72 35 116 255 
-17.8754 -2.40085 -1.64774 72 28 110 255 
-15.7668 -2.10903 -1.60458 72 28 110 255 
-14.1477 -1.9204 -1.55607 71 42 122 255 
-12.7266 -1.71825 -1.52224 72 40 120 255 
-11.6034 -1.5564 -1.49974 72 38 119 255 
-8.68145 -1.15818 -1.20598 72 32 113 255 
-8.8154 -1.1919 -1.29931 69 56 130 255 
-8.7636 -1.18008 -1.37524 72 37 118 255 
-8.5314 -1.14282 -1.42035 62 74 137 255 
-7.9967 -1.06683 -1.41092 65 68 135 255 
-7.54296 -1.01451 -1.39686 66 63 133 255 
-7.12269 -0.955323 -1.3865 62 76 138 255 
-6.77519 -0.907571 -1.38701 58 84 140 255 
-6.39337 -0.854067 -1.37456 67 62 133 255 
-6.11629 -0.81937 -1.36919 65 66 135 255 
-5.80912 -0.777078 -1.3574 65 68 135 255 
-5.4974 -0.734452 -1.34075 67 62 133 255 
-5.29145 -0.708743 -1.34694 64 70 136 255 
-5.07713 -0.675656 -1.33893 62 76 138 255 
-4.86566 -0.647415 -1.33178 66 64 134 255 
-4.69964 -0.627037 -1.33629 65 66 135 255 
-4.51972 -0.60698 -1.33612 70 51 127 255 
-18.7559 -2.4554 5.68226 71 19 101 255 
-18.7604 -2.47236 5.47245 71 17 100 255 
-18.7524 -2.47813 5.27061 72 22 104 255 
-18.7329 -2.47518 5.07369 72 22 104 255 
-18.7453 -2.46398 4.90717 71 17 100 255 
-18.6558 -2.45526 4.68454 72 22 104 255 
-18.6295 -2.44867 4.48674 72 38 119 255 
-18.6529 -2.44808 4.30873 70 10 93 255 
-18.7041 -2.46188 4.16164 70 8 92 255 
-18.6108 -2.44604 3.94537 70 7 90 255 
-0 -0 0 68 2 86 255 
-18.5162 -2.41701 3.56212 63 72 137 255 
-18.5228 -2.43802 3.40868 60 80 139 255 
-18.5387 -2.43327 3.22629 58 83 139 255 
-18.4968 -2.41481 3.03462 59 81 139 255 
-18.4951 -2.39787 2.8605 63 71 136 255 
-18.4885 -2.43023 2.70709 60 79 138 255 
-18.4868 -2.42318 2.5242 62 74 137 255 
-18.4894 -2.404 2.3455 59 82 139 255 
-18.4908 -2.39076 2.17376 62 76 138 255 
-18.4827 -2.42946 2.02184 63 72 137 255 
-18.4615 -2.41003 1.84193 61 78 138 255 
-18.4953 -2.40149 1.6678 61 77 138 255 
-18.455 -2.37633 1.49058 64 70 136 255 
-18.4691 -2.4244 1.34504 60 80 139 255 
-18.4612 -2.40672 1.16805 58 84 140 255 
-18.652 -2.41191 1.00211 71 16 99 255 
-18.4308 -2.36668 0.814564 70 10 93 255 
-33.9789 -4.4483 1.23263 70 11 94 255 
-33.978 -4.41753 0.909202 70 10 93 255 
-18.5007 -2.38905 0.319098 72 28 110 255 
-54.0867 -6.92604 0.428273 69 5 89 255 
-0 -0 -0 68 1 84 255 
-0 -0 -0 68 1 84 255 
-0 -0 -0 68 2 86 255 
-18.4904 -2.36123 -0.52719 71 13 96 255 
-18.5154 -2.41079 -0.678133 71 17 100 255 
-18.4967 -2.39165 -0.850182 71 16 99 255 
-18.5064 -2.37994 -1.02685 71 13 96 255 
-18.4193 -2.34888 -1.19751 70 11 94 255 
-18.3914 -2.39139 -1.34568 71 42 122 255 
-17.9321 -2.31228 -1.48014 72 33 115 255 
-8.54335 -1.09414 -0.786888 72 22 104 255 
-15.7548 -2.0091 -1.60207 71 19 101 255 
-14.0823 -1.8236 -1.54762 72 38 119 255 
-8.619 -1.10986 -1.03009 72 40 120 255 
-8.62863 -1.10353 -1.11436 71 47 125 255 
-8.64122 -1.09889 -1.19943 69 53 129 255 
-8.71852 -1.12438 -1.28399 68 59 132 255 
-8.75696 -1.12452 -1.37309 67 61 132 255 
-8.5128 -1.08721 -1.41612 62 73 137 255 
-8.01776 -1.01961 -1.4135 65 66 135 255 
-7.54611 -0.967831 -1.39632 65 66 135 255 
-7.14498 -0.913718 -1.38972 60 79 138 255 
-6.76021 -0.863375 -1.38284 60 80 139 255 
-6.39364 -0.814204 -1.37351 68 58 131 255 
-6.10958 -0.780341 -1.36659 66 64 134 255 
-5.80798 -0.74068 -1.35604 65 68 135 255 
-5.49312 -0.699601 -1.33864 68 58 131 255 
-5.28608 -0.675034 -1.34449 63 72 137 255 
-5.07158 -0.643273 -1.3364 64 69 136 255 
-4.88486 -0.619491 -1.33597 64 69 136 255 
-4.69481 -0.597096 -1.33385 68 58 131 255 
-4.51384 -0.578017 -1.3333 70 51 127 255 
-18.7165 -2.33352 5.66586 71 19 101 255 
-18.7237 -2.35074 5.45745 72 24 106 255 
-18.7491 -2.36074 5.26551 72 22 104 255 
-18.6998 -2.35416 5.06072 71 17 100 255 
-18.6784 -2.3387 4.88582 72 24 106 255 
-18.6666 -2.34027 4.68357 72 22 104 255 
-18.6172 -2.33093 4.48024 72 22 104 255 
-18.6463 -2.33093 4.30382 70 8 92 255 
-18.6413 -2.33735 4.14441 70 11 94 255 
-18.6051 -2.32925 3.94106 70 11 94 255 
-0 -0 0 68 2 86 255 
-18.4966 -2.29911 3.55556 64 70 136 255 
-18.513 -2.32126 3.40419 64 70 136 255 
-18.4878 -2.31129 3.2149 60 79 138 255 
-18.4976 -2.29957 3.03237 62 76 138 255 
-18.4869 -2.28156 2.85701 61 78 138 255 
-18.4854 -2.31452 2.7045 61 78 138 255 
-18.4954 -2.30896 2.5234 58 83 139 255 
-18.4831 -2.28795 2.34288 59 81 139 255 
-18.4854 -2.27483 2.17144 60 79 138 255 
-18.4815 -2.31403 2.02012 61 77 138 255 
-18.4611 -2.29487 1.84045 59 81 139 255 
-18.4613 -2.28197 1.66344 61 77 138 255 
-18.4653 -2.26256 1.49026 62 73 137 255 
-18.445 -2.3062 1.34223 64 70 136 255 
-18.4538 -2.29069 1.16667 58 83 139 255 
-18.7537 -2.30815 1.00679 70 11 94 255 
-18.447 -2.25379 0.814651 69 5 89 255 
-33.956 -4.23354 1.23083 70 11 94 255 
-8.60726 -1.06538 0.230139 53 94 141 255 
-34.0567 -4.18557 0.586954 69 4 87 255 
-36.2846 -4.42029 0.287091 69 5 89 255 
-0 -0 -0 68 2 86 255 
-8.43262 -1.04077 -0.0815641 66 63 133 255 
-8.47409 -1.03846 -0.160947 53 94 141 255 
-8.47033 -1.02888 -0.241318 68 58 131 255 
-18.517 -2.29554 -0.677662 71 14 97 255 
-8.41769 -1.03595 -0.386612 72 38 119 255 
-8.47189 -1.03669 -0.469714 67 62 133 255 
-8.33943 -1.01151 -0.541767 72 35 116 255 
-8.40557 -1.04055 -0.614548 71 47 125 255 
-8.53026 -1.04678 -0.703556 68 57 131 255 
-8.53804 -1.04025 -0.785796 66 65 134 255 
-8.54766 -1.03676 -0.86853 68 58 131 255 
-8.61539 -1.06195 -0.946081 69 56 130 255 
-8.63846 -1.05853 -1.03162 67 62 133 255 
-8.63918 -1.05104 -1.11486 67 62 133 255 
-8.63993 -1.0449 -1.19834 69 53 129 255 
-8.70954 -1.06893 -1.28168 68 57 131 255 
-8.81764 -1.07736 -1.38154 69 56 130 255 
-8.50952 -1.03376 -1.41449 65 66 135 255 
-8.02582 -0.97063 -1.41384 65 66 135 255 
-7.55972 -0.922464 -1.39776 65 68 135 255 
-7.13583 -0.868082 -1.38688 62 74 137 255 
-6.76246 -0.821524 -1.38224 63 71 136 255 
-6.39463 -0.774488 -1.37268 67 62 133 255 
-6.09875 -0.740955 -1.36313 67 62 133 255 
-5.80081 -0.703621 -1.35334 68 58 131 255 
-5.48863 -0.664831 -1.33652 68 59 132 255 
-5.29398 -0.643054 -1.34547 65 66 135 255 
-5.05622 -0.609826 -1.33134 66 65 134 255 
-4.87994 -0.588466 -1.33361 65 66 135 255 
-4.69361 -0.5677 -1.33249 68 59 132 255 
-4.49253 -0.547293 -1.32599 70 51 127 255 
-18.7124 -2.21649 5.6604 72 22 104 255 
-18.672 -2.22796 5.43828 72 23 105 255 
-18.7355 -2.24233 5.25772 72 20 103 255 
-18.6822 -2.23559 5.05217 72 20 103 255 
-18.6847 -2.22313 4.88381 71 19 101 255 
-18.7028 -2.22833 4.68913 72 23 105 255 
-18.6195 -2.21527 4.47745 71 14 97 255 
-18.6496 -2.21521 4.30136 70 7 90 255 
-18.5671 -2.21241 4.12481 70 10 93 255 
-18.654 -2.21921 3.94846 70 10 93 255 
-18.6922 -2.214 3.77143 69 4 87 255 
-18.483 -2.18235 3.55031 63 72 137 255 
-18.4957 -2.2039 3.39845 59 81 139 255 
-18.4664 -2.19362 3.20878 61 77 138 255 
-18.4878 -2.18325 3.02852 60 79 138 255 
-18.4662 -2.16406 2.85171 60 80 139 255 
-18.4874 -2.19965 2.70278 60 79 138 255 
-18.4767 -2.19158 2.51897 58 83 139 255 
-18.4505 -2.16905 2.33701 60 79 138 255 
-18.4418 -2.15468 2.16472 62 73 137 255 
-18.444 -2.19448 2.01451 59 82 139 255 
-18.4412 -2.17758 1.8371 59 81 139 255 
-18.4363 -2.16412 1.65996 62 76 138 255 
-18.458 -2.1468 1.48858 62 73 137 255 
-18.4509 -2.19204 1.34165 60 79 138 255 
-18.4507 -2.17543 1.1656 58 83 139 255 
-18.829 -2.20022 1.01009 70 11 94 255 
-18.4575 -2.14021 0.81452 72 20 103 255 
-18.4421 -2.18447 0.667985 71 46 124 255 
-8.59676 -1.01056 0.229688 68 58 131 255 
-8.57556 -1.00056 0.147688 64 69 136 255 
-8.55079 -0.988474 0.0676064 72 29 111 255 
-8.44116 -0.99837 -0.00148353 46 110 142 255 
-8.41601 -0.986336 -0.0813433 44 115 142 255 
-8.36609 -0.973162 -0.158779 41 122 142 255 
-8.35136 -0.96247 -0.237755 50 102 142 255 
-8.35275 -0.983485 -0.305458 55 90 140 255 
-8.35542 -0.976279 -0.38347 51 99 141 255 
-8.37594 -0.972825 -0.464054 47 108 142 255 
-8.39802 -0.966365 -0.545178 56 88 140 255 
-8.36821 -0.983827 -0.611364 61 78 138 255 
-8.48208 -0.988077 -0.699068 67 62 133 255 
-8.53239 -0.98647 -0.784704 65 66 135 255 
-8.56869 -0.986003 -0.870036 67 62 133 255 
-8.6099 -1.00768 -0.94478 67 62 133 255 
-8.6369 -1.00459 -1.03068 62 74 137 255 
-8.64153 -0.997559 -1.11436 68 57 131 255 
-10.6244 -1.2188 -1.47252 72 29 111 255 
-9.67029 -1.12666 -1.42202 71 44 122 255 
-9.1264 -1.05829 -1.42888 67 61 132 255 
-8.50884 -0.980738 -1.41335 66 65 134 255 
-7.98759 -0.916315 -1.40609 67 62 133 255 
-7.53984 -0.873119 -1.39307 64 70 136 255 
-7.15175 -0.825519 -1.38896 63 72 137 255 
-6.76251 -0.779454 -1.38125 62 73 137 255 
-6.39052 -0.734232 -1.3708 66 64 134 255 
-6.09542 -0.702626 -1.36139 69 56 130 255 
-5.78566 -0.665787 -1.34882 66 63 133 255 
-5.49357 -0.631252 -1.33676 68 59 132 255 
-5.27856 -0.608339 -1.34058 63 71 136 255 
-5.05314 -0.57802 -1.32957 66 63 133 255 
-4.87771 -0.557854 -1.33204 64 70 136 255 
-4.68744 -0.537792 -1.32978 69 53 129 255 
-4.50725 -0.521039 -1.32937 70 52 128 255 
-18.6828 -2.09683 5.64745 71 17 100 255 
-18.7053 -2.11561 5.44412 72 20 103 255 
-18.658 -2.11701 5.23222 71 19 101 255 
-18.6908 -2.12037 5.05087 71 19 101 255 
-18.7019 -2.10887 4.88481 72 22 104 255 
-18.6882 -2.11037 4.68212 72 20 103 255 
-18.6192 -2.09946 4.4742 70 10 93 255 
-18.6135 -2.09517 4.28997 70 7 90 255 
-18.5658 -2.0968 4.12158 70 11 94 255 
-18.6322 -2.10076 3.94106 70 10 93 255 
-18.5213 -2.0786 3.7343 69 5 89 255 
-18.4775 -2.06683 3.54675 66 65 134 255 
-18.4815 -2.08728 3.39342 60 79 138 255 
-18.454 -2.0774 3.20436 60 80 139 255 
-18.4655 -2.06581 3.02274 60 80 139 255 
-18.4605 -2.04864 2.84883 61 78 138 255 
-18.4711 -2.08285 2.69847 59 81 139 255 
-18.478 -2.07684 2.51736 58 84 140 255 
-18.4428 -2.05349 2.33439 60 80 139 255 
-18.4339 -2.03919 2.16229 62 76 138 255 
-18.4413 -2.07949 2.01278 61 77 138 255 
-18.4364 -2.06239 1.83533 61 77 138 255 
-18.4324 -2.04909 1.65845 61 77 138 255 
-18.4263 -2.02859 1.48499 62 73 137 255 
-18.4025 -2.07187 1.33719 60 80 139 255 
-18.4319 -2.05863 1.1636 59 82 139 255 
-18.4699 -2.04347 0.990137 64 70 136 255 
-18.4445 -2.02408 0.813381 70 52 128 255 
-8.61232 -0.966588 0.311724 45 113 142 255 
-8.56703 -0.953811 0.228733 51 98 141 255 
-8.59049 -0.948912 0.147842 50 102 142 255 
-8.53483 -0.933597 0.0674336 62 73 137 255 
-8.44415 -0.946223 -0.00148301 37 132 142 255 
-8.42091 -0.934567 -0.0813337 37 132 142 255 
-8.37389 -0.922029 -0.158817 41 121 142 255 
-8.34518 -0.909909 -0.237416 52 97 141 255 
-8.35267 -0.931551 -0.30524 46 110 142 255 
-8.36721 -0.925652 -0.383743 49 104 142 255 
-8.45817 -0.929814 -0.468285 43 117 142 255 
-8.46133 -0.921081 -0.548911 52 97 141 255 
-8.43159 -0.938864 -0.615561 65 66 135 255 
-8.48897 -0.936123 -0.69915 66 63 133 255 
-8.52938 -0.933123 -0.783885 65 68 135 255 
-8.59634 -0.935777 -0.872244 70 48 126 255 
-8.61691 -0.954939 -0.944889 68 58 131 255 
-12.685 -1.3966 -1.5127 72 28 110 255 
-11.6154 -1.26869 -1.49682 72 37 118 255 
-10.6573 -1.15637 -1.47606 71 42 122 255 
-9.79111 -1.07988 -1.43879 69 55 129 255 
-9.13468 -1.00249 -1.42918 66 64 134 255 
-8.52058 -0.929152 -1.41432 67 62 133 255 
-7.98914 -0.866861 -1.4054 67 61 132 255 
-7.55776 -0.828232 -1.39541 63 72 137 255 
-7.14887 -0.780768 -1.38745 64 70 136 255 
-6.76522 -0.737733 -1.38085 59 81 139 255 
-6.40463 -0.696063 -1.37289 67 61 132 255 
-6.06759 -0.661719 -1.35425 68 57 131 255 
-5.77705 -0.628904 -1.34589 67 62 133 255 
-5.55242 -0.603519 -1.35015 68 58 131 255 
-5.27255 -0.574888 -1.33813 66 64 134 255 
-5.07486 -0.548981 -1.33437 66 63 133 255 
-4.87528 -0.527292 -1.33047 64 69 136 255 
-4.67917 -0.507775 -1.32652 69 56 130 255 
-4.51418 -0.493791 -1.33049 69 56 130 255 
-18.681 -1.98064 5.64313 72 23 105 255 
-18.7046 -1.99937 5.44023 72 20 103 255 
-18.6773 -2.00321 5.2341 72 24 106 255 
-18.7035 -2.00565 5.05087 72 20 103 255 
-18.6702 -1.98936 4.87326 71 19 101 255 
-18.6766 -1.99309 4.67608 72 20 103 255 
-18.6182 -1.98373 4.47095 71 13 96 255 
-18.6318 -1.98154 4.29131 70 11 94 255 
-18.5579 -1.98067 4.11705 70 11 94 255 
-18.5981 -1.98142 3.93118 70 8 92 255 
-0 -0 0 68 2 86 255 
-18.4762 -1.95197 3.54413 63 72 137 255 
-18.4489 -1.96904 3.38516 61 77 138 255 
-18.4498 -1.96236 3.20147 59 82 139 255 
-18.4661 -1.95123 3.02081 60 79 138 255 
-18.4589 -1.93388 2.8467 63 71 136 255 
-18.4392 -1.96475 2.692 58 84 140 255 
-18.452 -1.95934 2.51213 58 83 139 255 
-18.4304 -1.9377 2.33127 59 81 139 255 
-18.4194 -1.92326 2.15917 63 71 136 255 
-18.427 -1.96345 2.00987 62 73 137 255 
-18.429 -1.94714 1.83336 61 78 138 255 
-18.411 -1.93241 1.65542 61 77 138 255 
-18.4235 -1.91395 1.48379 62 74 137 255 
-18.405 -1.95786 1.33647 63 72 137 255 
-18.4085 -1.94173 1.16135 58 83 139 255 
-18.9777 -1.98185 1.01669 72 31 112 255 
-31.0789 -3.21771 1.36965 70 8 92 255 
-8.60517 -0.912356 0.311257 52 97 141 255 
-8.58863 -0.902899 0.229157 30 155 138 255 
-8.57427 -0.893903 0.147465 58 83 139 255 
-8.53343 -0.880492 0.0673786 52 97 141 255 
-8.46869 -0.896393 -0.00148632 38 129 142 255 
-8.44737 -0.885068 -0.0815353 38 130 142 255 
-8.44503 -0.87745 -0.160061 42 119 142 255 
-8.47888 -0.871877 -0.241063 41 123 142 255 
-8.48047 -0.893157 -0.309704 42 120 142 255 
-8.49196 -0.886744 -0.389208 41 122 142 255 
-8.4806 -0.87965 -0.46922 41 122 142 255 
-8.43903 -0.866292 -0.547109 59 81 139 255 
-8.42925 -0.886277 -0.614982 65 68 135 255 
-8.4896 -0.883502 -0.698742 67 62 133 255 
-8.53395 -0.880668 -0.783794 71 47 125 255 
-15.5856 -1.59991 -1.5804 72 28 110 255 
-14.1377 -1.479 -1.54924 72 37 118 255 
-12.6835 -1.31772 -1.51152 72 36 117 255 
-11.5944 -1.19445 -1.49314 72 36 117 255 
-10.6622 -1.09075 -1.47579 70 51 127 255 
-9.81625 -1.02173 -1.44153 67 61 132 255 
-9.1328 -0.945607 -1.42795 66 65 134 255 
-8.56048 -0.880386 -1.42002 66 63 133 255 
-7.99627 -0.818025 -1.40575 65 68 135 255 
-7.57053 -0.782652 -1.39686 61 77 138 255 
-7.12618 -0.734072 -1.38214 63 72 137 255 
-6.77156 -0.696409 -1.38125 60 80 139 255 
-6.39321 -0.655157 -1.36955 67 61 132 255 
-6.06959 -0.624277 -1.35381 66 63 133 255 
-5.77498 -0.592848 -1.34454 65 68 135 255 
-5.54732 -0.568547 -1.34804 66 63 133 255 
-5.26826 -0.541732 -1.33617 64 69 136 255 
-5.09546 -0.519598 -1.33893 68 58 131 255 
-4.88419 -0.497955 -1.33204 60 79 138 255 
-4.67166 -0.477977 -1.32354 69 55 129 255 
-4.52762 -0.467167 -1.33359 69 55 129 255 
-18.6499 -1.86169 5.63019 71 17 100 255 
-18.6142 -1.87426 5.4105 72 22 104 255 
-18.6202 -1.8816 5.21478 72 26 108 255 
-18.6789 -1.88716 5.04101 71 19 101 255 
-18.6243 -1.86897 4.85818 72 20 103 255 
-18.6277 -1.87234 4.66086 71 19 101 255 
-18.5991 -1.86635 4.46352 70 11 94 255 
-18.6164 -1.86446 4.28506 70 11 94 255 
-18.5561 -1.86539 4.11404 70 10 93 255 
-18.5631 -1.86258 3.92131 70 8 92 255 
-18.5278 -1.8494 3.73077 69 4 87 255 
-18.4497 -1.83477 3.53682 64 70 136 255 
-18.4382 -1.85354 3.38104 61 78 138 255 
-18.4438 -1.84735 3.19841 59 81 139 255 
-18.4591 -1.83603 3.01776 60 79 138 255 
-18.4567 -1.81923 2.84458 62 74 137 255 
-18.4332 -1.8498 2.68942 58 83 139 255 
-18.4173 -1.84145 2.50582 60 80 139 255 
-18.4123 -1.82164 2.32753 61 77 138 255 
-18.418 -1.80894 2.15766 63 71 136 255 
-18.412 -1.84767 2.00696 62 73 137 255 
-18.3881 -1.82881 1.82814 62 76 138 255 
-18.4017 -1.81735 1.65355 62 76 138 255 
-18.418 -1.79922 1.48243 63 71 136 255 
-18.4017 -1.8434 1.33539 60 80 139 255 
-18.3833 -1.82509 1.15903 58 83 139 255 
-18.9627 -1.86274 1.01525 70 8 92 255 
-0 -0 0 68 2 86 255 
-8.60166 -0.858645 0.310933 65 68 135 255 
-8.596 -0.85038 0.22921 47 107 142 255 
-8.50198 -0.833664 0.146131 72 28 110 255 
-8.56355 -0.830529 0.067575 42 119 142 255 
-8.48995 -0.845999 -0.00148911 41 122 142 255 
-8.47851 -0.83577 -0.0817849 39 126 142 255 
-8.47613 -0.828143 -0.160551 44 114 142 255 
-8.49999 -0.821373 -0.241515 43 116 142 255 
-8.5037 -0.842879 -0.310357 41 122 142 255 
-8.54198 -0.839016 -0.391257 41 123 142 255 
-8.49776 -0.82876 -0.469879 44 113 142 255 
-8.4571 -0.815741 -0.547945 61 77 138 255 
-8.45438 -0.836503 -0.616429 67 62 133 255 
-8.51867 -0.833724 -0.7007 64 70 136 255 
-8.54811 -0.829153 -0.784613 69 53 129 255 
-15.5684 -1.50167 -1.57769 72 24 106 255 
-14.1316 -1.39077 -1.54762 72 41 121 255 
-12.6953 -1.24025 -1.51199 72 38 119 255 
-11.6242 -1.12548 -1.49606 72 37 118 255 
-10.6608 -1.02455 -1.4747 72 41 121 255 
-9.81544 -0.960808 -1.44052 69 56 130 255 
-9.14433 -0.890126 -1.42888 65 68 135 255 
-8.58339 -0.829552 -1.42295 67 62 133 255 
-8.00702 -0.769511 -1.40678 67 62 133 255 
-7.57225 -0.7359 -1.39632 63 71 136 255 
-7.13739 -0.690995 -1.38347 64 70 136 255 
-6.77278 -0.654563 -1.38065 60 80 139 255 
-6.41755 -0.617885 -1.37393 68 59 132 255 
-6.05873 -0.585614 -1.35056 66 64 134 255 
-5.76785 -0.556373 -1.34205 67 62 133 255 
-5.53232 -0.532728 -1.34357 65 68 135 255 
-5.26859 -0.509116 -1.33544 66 65 134 255 
-5.02825 -0.48159 -1.32046 67 61 132 255 
-4.89291 -0.468529 -1.33361 64 70 136 255 
-4.6793 -0.449763 -1.32489 68 59 132 255 
-4.5304 -0.439377 -1.33359 68 58 131 255 
-18.6067 -1.74214 5.61379 72 28 110 255 
-18.6072 -1.7583 5.40522 72 24 106 255 
-18.5921 -1.76358 5.20377 72 22 104 255 
-18.6363 -1.7674 5.02649 71 19 101 255 
-18.592 -1.75057 4.84688 72 20 103 255 
-18.5963 -1.75399 4.65023 72 24 106 255 
-18.6053 -1.75173 4.46236 70 10 93 255 
-18.6178 -1.74929 4.28283 70 10 93 255 
-18.5652 -1.75132 4.11361 70 11 94 255 
-18.5957 -1.75066 3.92583 70 7 90 255 
-18.5564 -1.73733 3.7343 70 8 92 255 
-18.4254 -1.71825 3.53008 62 76 138 255 
-18.4218 -1.73778 3.37601 61 77 138 255 
-18.443 -1.73304 3.19637 62 74 137 255 
-18.4464 -1.72053 3.0139 59 81 139 255 
-18.4478 -1.70413 2.84155 59 82 139 255 
-18.4058 -1.73304 2.68381 57 85 140 255 
-18.4145 -1.72712 2.50395 59 82 139 255 
-18.4251 -1.70882 2.32778 61 78 138 255 
-18.408 -1.69398 2.15523 61 78 138 255 
-18.3992 -1.73242 2.00437 62 76 138 255 
-18.3811 -1.71428 1.82637 62 76 138 255 
-18.3887 -1.70221 1.65141 61 77 138 255 
-18.4099 -1.68445 1.48092 62 76 138 255 
-18.3859 -1.72793 1.33344 61 78 138 255 
-18.3842 -1.71134 1.1584 57 85 140 255 
-19.0066 -1.74937 1.01701 70 10 93 255 
-31.7985 -2.89829 1.39969 69 4 87 255 
-33.8679 -3.17104 1.22353 70 11 94 255 
-8.5473 -0.792636 0.227778 72 33 115 255 
-33.743 -3.09977 0.579634 70 10 93 255 
-8.57944 -0.778963 0.0676614 64 69 136 255 
-8.56269 -0.800218 -0.00150098 42 118 142 255 
-8.53327 -0.78833 -0.0822648 42 120 142 255 
-8.55672 -0.783044 -0.161983 42 119 142 255 
-8.54768 -0.773075 -0.242731 44 113 142 255 
-8.54751 -0.794292 -0.311773 42 120 142 255 
-8.56089 -0.787869 -0.391894 46 109 142 255 
-8.54047 -0.780054 -0.471967 43 117 142 255 
-8.49077 -0.766435 -0.549812 64 70 136 255 
-8.4822 -0.786731 -0.618094 64 69 136 255 
-8.54049 -0.782986 -0.702087 61 77 138 255 
-8.54412 -0.775877 -0.783794 64 69 136 255 
-8.52986 -0.769964 -0.863914 66 64 134 255 
-14.129 -1.30303 -1.54643 72 32 113 255 
-12.7115 -1.16315 -1.51305 72 40 120 255 
-11.6358 -1.05458 -1.49669 72 40 120 255 
-10.6669 -0.959121 -1.4747 71 42 122 255 
-9.80243 -0.898847 -1.43777 70 50 126 255 
-9.15553 -0.834539 -1.4298 69 56 130 255 
-8.57456 -0.775625 -1.42067 66 63 133 255 
-8.03121 -0.722131 -1.41023 62 73 137 255 
-7.53842 -0.685948 -1.38928 59 81 139 255 
-7.14639 -0.647631 -1.38441 64 69 136 255 
-6.74642 -0.610257 -1.37448 62 76 138 255 
-6.42122 -0.578496 -1.37393 68 59 132 255 
-6.06805 -0.548955 -1.35186 66 63 133 255 
-5.77309 -0.521147 -1.34251 68 59 132 255 
-5.52967 -0.498249 -1.34216 66 64 134 255 
-5.26389 -0.47608 -1.33348 65 68 135 255 
-5.02822 -0.450469 -1.3197 68 59 132 255 
-4.90146 -0.439015 -1.33518 62 73 137 255 
-4.70498 -0.423112 -1.33141 67 61 132 255 
-4.53588 -0.411831 -1.33443 68 59 132 255 
-18.5874 -1.62535 5.60487 72 29 111 255 
-18.5928 -1.6419 5.398 70 48 126 255 
-18.5795 -1.64743 5.19733 69 56 130 255 
-18.616 -1.65029 5.01819 66 65 134 255 
-18.5822 -1.63468 4.8416 70 50 126 255 
-18.571 -1.6367 4.6413 68 57 131 255 
-18.5624 -1.63285 4.44958 67 61 132 255 
-18.5631 -1.62931 4.26787 69 56 130 255 
-18.5251 -1.63291 4.1024 65 66 135 255 
-18.5641 -1.63284 3.91699 63 72 137 255 
-18.5257 -1.61985 3.72605 65 66 135 255 
-18.4082 -1.60277 3.52483 65 68 135 255 
-18.4066 -1.62247 3.37134 62 73 137 255 
-18.4307 -1.61786 3.19245 59 82 139 255 
-18.4271 -1.60475 3.00909 59 82 139 255 
-18.3949 -1.58547 2.83185 61 77 138 255 
-18.3836 -1.61721 2.67907 59 81 139 255 
-18.405 -1.61236 2.50126 60 80 139 255 
-18.3838 -1.59128 2.32129 61 77 138 255 
-18.3864 -1.57828 2.15152 62 73 137 255 
-18.3858 -1.6174 2.00179 60 79 138 255 
-18.3834 -1.60077 1.82558 58 83 139 255 
-18.3601 -1.586 1.64794 59 82 139 255 
-18.3921 -1.56908 1.47868 62 76 138 255 
-18.3912 -1.61465 1.33308 61 78 138 255 
-18.3864 -1.59781 1.1579 55 90 140 255 
-18.3812 -1.57813 0.983007 67 61 132 255 
-18.386 -1.56211 0.808871 66 65 134 255 
-18.3451 -1.60416 0.662378 72 20 103 255 
-18.3698 -1.58991 0.48927 72 36 117 255 
-18.382 -1.57496 0.315592 70 48 126 255 
