ply
format ascii 1.0
comment VTK generated PLY File
obj_info vtkPolyData points and polygons: vtk4.0
element vertex 1153
property float x
property float y
property float z
property uchar red
property uchar green
property uchar blue
property uchar alpha
element face 0
property list uchar int vertex_indices
end_header
3.82626 -0.240807 -1.12327 70 7 90 255 
10.1593 -0.673286 3.05848 53 95 141 255 
10.2463 -0.670225 2.96959 67 61 132 255 
10.7855 -0.701616 3.01162 62 73 137 255 
12.257 -0.797585 3.29809 71 44 122 255 
12.6014 -0.828515 3.27773 71 47 125 255 
14.3754 -0.942831 3.58654 70 50 126 255 
12.6648 -0.83275 3.03072 72 37 118 255 
12.3225 -0.812628 2.82836 70 50 126 255 
10.2188 -0.67008 2.25908 59 82 139 255 
10.2055 -0.671131 2.14969 53 95 141 255 
10.1975 -0.675878 2.0477 72 33 115 255 
16.6747 -1.11131 3.18792 72 22 104 255 
10.2543 -0.672407 1.87494 69 55 129 255 
10.2903 -0.67851 1.77944 66 65 134 255 
10.2433 -0.682506 1.67009 61 78 138 255 
11.0503 -0.746141 1.69874 64 69 136 255 
11.4737 -0.754373 1.66925 39 128 142 255 
11.4483 -0.756877 1.55329 41 123 142 255 
11.4141 -0.766518 1.4391 41 121 142 255 
11.3934 -0.773298 1.3314 42 120 142 255 
11.5045 -0.756401 1.25046 41 123 142 255 
11.4486 -0.762913 1.13514 39 126 142 255 
11.3658 -0.765265 1.01867 45 112 142 255 
11.3461 -0.776042 0.91102 44 115 142 255 
11.4702 -0.756149 0.830027 42 118 142 255 
11.3951 -0.761349 0.716519 41 122 142 255 
11.3667 -0.771303 0.607043 41 121 142 255 
11.2895 -0.776126 0.496052 46 109 142 255 
11.4425 -0.758329 0.412481 44 115 142 255 
11.3923 -0.765154 0.302979 43 116 142 255 
11.3262 -0.770537 0.194192 57 86 140 255 
11.3107 -0.781544 0.0890475 44 115 142 255 
11.4517 -0.760948 -0.00200311 41 121 142 255 
11.4135 -0.770577 -0.109814 43 117 142 255 
11.3245 -0.774398 -0.213986 44 113 142 255 
11.2953 -0.784435 -0.320221 46 110 142 255 
11.376 -0.761889 -0.414088 49 104 142 255 
11.368 -0.771493 -0.519399 51 99 141 255 
11.3332 -0.776978 -0.625168 51 98 141 255 
11.3131 -0.787651 -0.731366 50 101 142 255 
11.2759 -0.757159 -0.82 71 46 124 255 
11.1537 -0.760858 -0.915202 70 50 126 255 
10.0113 -0.69162 -0.916808 69 53 129 255 
9.72995 -0.677431 -0.983846 69 55 129 255 
9.18151 -0.621345 -1.00296 59 82 139 255 
8.553 -0.58495 -1.0162 69 55 129 255 
8.0003 -0.554093 -1.02732 69 53 129 255 
7.55013 -0.528309 -1.04215 67 61 132 255 
7.13948 -0.486904 -1.04523 66 63 133 255 
6.7941 -0.467039 -1.05913 66 65 134 255 
6.42543 -0.446145 -1.06282 66 63 133 255 
6.15333 -0.43057 -1.07877 64 70 136 255 
5.87766 -0.404965 -1.08131 60 79 138 255 
5.66961 -0.392721 -1.09647 59 82 139 255 
5.36939 -0.37282 -1.09211 60 79 138 255 
5.22664 -0.364811 -1.11653 62 76 138 255 
5.00202 -0.347262 -1.11251 62 73 137 255 
4.7971 -0.333967 -1.11372 65 66 135 255 
4.57963 -0.319589 -1.10977 66 64 134 255 
4.42534 -0.307331 -1.11918 72 38 119 255 
4.27832 -0.300765 -1.12117 71 42 122 255 
4.12434 -0.290023 -1.12178 72 27 109 255 
3.95968 -0.277021 -1.11873 71 13 96 255 
3.8745 -0.26772 -1.13789 70 7 90 255 
10.2285 -0.740937 3.08064 55 91 141 255 
10.0235 -0.717446 2.90625 53 94 141 255 
10.608 -0.755464 2.96331 59 82 139 255 
12.5187 -0.891787 3.36993 72 35 116 255 
10.0193 -0.720518 2.60721 68 57 131 255 
12.6484 -0.907541 3.15701 72 40 120 255 
14.5212 -1.04434 3.47643 72 41 121 255 
14.4154 -1.03952 3.31013 72 29 111 255 
10.3762 -0.744368 2.29484 64 69 136 255 
10.2431 -0.736757 2.15853 54 93 141 255 
14.9 -1.07942 2.99326 72 31 112 255 
16.6607 -1.21311 3.18661 72 27 109 255 
10.3383 -0.741649 1.8911 69 53 129 255 
10.2643 -0.740078 1.7757 62 76 138 255 
10.6691 -0.776661 1.74026 62 76 138 255 
10.2638 -0.756327 1.57852 57 86 140 255 
11.1234 -0.799916 1.61896 38 129 142 255 
11.0877 -0.80139 1.505 39 127 142 255 
11.052 -0.810347 1.39404 38 130 142 255 
11.0131 -0.815396 1.28751 40 124 142 255 
11.112 -0.799096 1.2083 39 127 142 255 
11.0933 -0.807639 1.10039 38 130 142 255 
11.042 -0.811555 0.990081 41 122 142 255 
10.9783 -0.818591 0.881874 43 116 142 255 
11.1161 -0.801343 0.804748 41 122 142 255 
11.0668 -0.807645 0.696168 37 133 142 255 
11.0222 -0.815896 0.5889 49 103 142 255 
11.0006 -0.824111 0.483571 46 111 142 255 
11.0997 -0.804048 0.400295 48 106 142 255 
11.0584 -0.810916 0.294225 49 104 142 255 
11.0081 -0.816788 0.188821 48 105 142 255 
10.9816 -0.826539 0.086495 43 117 142 255 
11.0988 -0.805924 -0.0019422 38 130 142 255 
11.0555 -0.814583 -0.106416 41 122 142 255 
11.0304 -0.822314 -0.20852 43 117 142 255 
10.9424 -0.827422 -0.310354 46 109 142 255 
11.0661 -0.80937 -0.402982 41 122 142 255 
11.0273 -0.816377 -0.504053 42 120 142 255 
10.9568 -0.818749 -0.604672 46 109 142 255 
10.9189 -0.827564 -0.706202 60 79 138 255 
10.9746 -0.8046 -0.798434 60 80 139 255 
11.1428 -0.828838 -0.914712 66 64 134 255 
10.0456 -0.75595 -0.920356 70 52 128 255 
9.74744 -0.738774 -0.986054 69 55 129 255 
9.19933 -0.679281 -1.00535 59 82 139 255 
8.54925 -0.637419 -1.0162 68 57 131 255 
8.04126 -0.606528 -1.03304 68 58 131 255 
7.54477 -0.574475 -1.04188 68 59 132 255 
7.15215 -0.531876 -1.04755 64 69 136 255 
6.79406 -0.508939 -1.05959 63 72 137 255 
6.44422 -0.487199 -1.0664 64 69 136 255 
6.14959 -0.468243 -1.0786 64 70 136 255 
5.88683 -0.441906 -1.08348 61 77 138 255 
5.65828 -0.426837 -1.09476 59 82 139 255 
5.35625 -0.404946 -1.08992 62 73 137 255 
5.2087 -0.395689 -1.11319 63 71 136 255 
5.00369 -0.378242 -1.11338 62 73 137 255 
4.81536 -0.364941 -1.11845 64 70 136 255 
4.6115 -0.35026 -1.118 68 57 131 255 
4.39726 -0.332505 -1.11258 72 41 121 255 
4.30823 -0.329445 -1.12951 71 45 123 255 
4.10227 -0.313778 -1.11628 72 29 111 255 
3.95023 -0.300727 -1.11656 71 16 99 255 
3.89575 -0.293217 -1.14464 70 7 90 255 
10.177 -0.800007 3.06654 58 84 140 255 
10.2421 -0.796285 2.97098 70 48 126 255 
10.1652 -0.786648 2.84091 51 99 141 255 
10.0451 -0.77755 2.70528 72 40 120 255 
10.0398 -0.78394 2.61374 54 93 141 255 
12.5265 -0.976087 3.12802 72 33 115 255 
16.5499 -1.29236 3.96393 71 45 123 255 
14.571 -1.14065 3.34741 72 40 120 255 
14.6532 -1.14161 3.24224 72 28 110 255 
10.3975 -0.812014 2.19206 64 70 136 255 
16.114 -1.26681 3.23864 72 26 108 255 
16.5325 -1.3058 3.16356 72 26 108 255 
10.3473 -0.80614 1.89361 63 72 137 255 
10.6358 -0.832496 1.84083 48 105 142 255 
10.2411 -0.8087 1.67122 53 94 141 255 
10.6393 -0.849663 1.63704 45 113 142 255 
10.7877 -0.842344 1.57084 37 131 142 255 
10.7723 -0.845073 1.46287 40 125 142 255 
10.7145 -0.851728 1.35211 40 125 142 255 
10.6989 -0.858178 1.25138 43 117 142 255 
10.7728 -0.841181 1.17196 38 130 142 255 
10.7449 -0.848583 1.06633 47 108 142 255 
10.7261 -0.854533 0.962203 72 31 112 255 
10.6869 -0.862834 0.858877 71 17 100 255 
10.7809 -0.843699 0.780838 70 52 128 255 
10.785 -0.853641 0.678761 71 42 122 255 
10.6706 -0.855732 0.570383 62 73 137 255 
10.5741 -0.857439 0.465046 70 51 127 255 
10.71 -0.841909 0.38642 68 57 131 255 
10.6526 -0.846905 0.283562 70 52 128 255 
10.6959 -0.859646 0.183554 71 44 122 255 
10.6414 -0.866632 0.0838561 41 121 142 255 
10.7337 -0.845657 -0.0018792 41 121 142 255 
10.7104 -0.855261 -0.103143 43 116 142 255 
10.6435 -0.859169 -0.201301 43 117 142 255 
10.6233 -0.86888 -0.301449 44 114 142 255 
10.7242 -0.85055 -0.390714 42 120 142 255 
10.6866 -0.857109 -0.488707 44 115 142 255 
10.6291 -0.859878 -0.586868 46 110 142 255 
10.6153 -0.870089 -0.686894 58 84 140 255 
10.703 -0.850744 -0.77904 44 113 142 255 
10.5494 -0.849817 -0.866411 71 47 125 255 
10.0587 -0.819029 -0.921993 70 52 128 255 
9.7566 -0.799707 -0.987459 70 51 127 255 
9.18805 -0.735159 -1.00459 62 76 138 255 
8.54617 -0.689944 -1.01631 68 57 131 255 
8.03936 -0.656018 -1.03329 67 61 132 255 
7.55295 -0.621733 -1.04352 68 59 132 255 
7.15073 -0.57591 -1.04783 64 69 136 255 
6.7977 -0.551176 -1.06067 64 69 136 255 
6.45192 -0.527615 -1.06819 66 65 134 255 
6.15838 -0.506938 -1.08067 64 70 136 255 
5.88303 -0.477939 -1.0833 62 76 138 255 
5.635 -0.459871 -1.09079 61 78 138 255 
5.39567 -0.441239 -1.09847 61 77 138 255 
5.17985 -0.425479 -1.10756 64 69 136 255 
5.01782 -0.410289 -1.11706 62 73 137 255 
4.80721 -0.394003 -1.1171 64 70 136 255 
4.57536 -0.375764 -1.10977 70 52 128 255 
4.4106 -0.360744 -1.11649 71 46 124 255 
4.30323 -0.355635 -1.12875 71 44 122 255 
4.13682 -0.341965 -1.12623 72 26 108 255 
3.93776 -0.324091 -1.11357 71 13 96 255 
3.87475 -0.315557 -1.13902 70 7 90 255 
9.95238 -0.843827 3.00037 50 102 142 255 
11.8778 -0.99681 3.44716 72 32 113 255 
10.1448 -0.847722 2.83661 56 88 140 255 
10.0584 -0.840699 2.7102 63 72 137 255 
10.0463 -0.846504 2.61676 63 72 137 255 
14.7056 -1.23671 3.674 72 41 121 255 
16.3536 -1.37804 3.91888 72 36 117 255 
12.49 -1.05489 2.87077 65 68 135 255 
14.6956 -1.23567 3.25323 71 45 123 255 
10.0978 -0.850977 2.12994 72 29 111 255 
14.8173 -1.25639 2.97951 72 31 112 255 
18.2037 -1.55025 3.48511 72 35 116 255 
10.3255 -0.868213 1.89056 58 84 140 255 
10.3065 -0.870375 1.78471 51 98 141 255 
10.3736 -0.883246 1.6937 40 125 142 255 
10.3503 -0.890526 1.59338 41 122 142 255 
10.4382 -0.879522 1.5207 38 129 142 255 
10.4332 -0.882911 1.41753 39 128 142 255 
10.3769 -0.888999 1.31017 39 126 142 255 
10.3817 -0.896879 1.2149 39 128 142 255 
10.4683 -0.882057 1.1394 38 130 142 255 
10.3935 -0.885029 1.03197 63 72 137 255 
10.3237 -0.886254 0.926576 70 11 94 255 
10.2603 -0.891794 0.82502 71 13 96 255 
10.368 -0.875428 0.751309 71 13 96 255 
10.2873 -0.877799 0.647766 71 16 99 255 
10.294 -0.889136 0.550537 71 13 96 255 
10.2422 -0.893816 0.450682 71 14 97 255 
10.4368 -0.884898 0.37675 69 55 129 255 
10.4032 -0.891345 0.277063 71 17 100 255 
10.3099 -0.892325 0.17702 71 14 97 255 
10.3411 -0.906075 0.0815313 39 126 142 255 
10.4673 -0.889322 -0.00183347 39 126 142 255 
10.434 -0.89765 -0.100532 40 124 142 255 
10.39 -0.902906 -0.196608 41 121 142 255 
10.3598 -0.911359 -0.294127 44 113 142 255 
10.447 -0.893098 -0.380806 42 119 142 255 
10.4203 -0.90014 -0.476776 46 110 142 255 
10.3372 -0.900135 -0.571042 53 95 141 255 
10.2986 -0.90778 -0.66675 45 112 142 255 
10.3985 -0.890777 -0.757257 44 114 142 255 
10.2491 -0.888952 -0.842178 67 61 132 255 
10.1517 -0.889337 -0.931 69 56 130 255 
9.75449 -0.85982 -0.98776 70 51 127 255 
9.15267 -0.788876 -1.00123 62 74 137 255 
8.55167 -0.743229 -1.01749 67 61 132 255 
8.03124 -0.704988 -1.03278 68 59 132 255 
7.55491 -0.66859 -1.04433 68 57 131 255 
7.14607 -0.61969 -1.04769 61 77 138 255 
6.79223 -0.592704 -1.06036 63 72 137 255 
6.44856 -0.567194 -1.06819 64 69 136 255 
6.16203 -0.545323 -1.08187 64 69 136 255 
5.85451 -0.5118 -1.0786 63 72 137 255 
5.64088 -0.49521 -1.09249 60 80 139 255 
5.38993 -0.47408 -1.09788 61 77 138 255 
5.18299 -0.45777 -1.10881 63 71 136 255 
5.02007 -0.441498 -1.11814 63 72 137 255 
4.80664 -0.423663 -1.11755 62 73 137 255 
4.56522 -0.403147 -1.1079 70 52 128 255 
4.45177 -0.391624 -1.1275 71 46 124 255 
4.22966 -0.375698 -1.11004 71 45 123 255 
4.14714 -0.368452 -1.12963 72 27 109 255 
3.95008 -0.349519 -1.11764 71 13 96 255 
0 -0 -0 69 4 87 255 
10.1149 -0.920148 3.051 56 89 140 255 
10.3665 -0.934067 3.01015 65 68 135 255 
10.1126 -0.907543 2.8291 72 32 113 255 
10.08 -0.904818 2.71746 71 46 124 255 
9.99951 -0.904382 2.60595 62 74 137 255 
14.5673 -1.31514 3.64138 72 41 121 255 
14.7698 -1.33589 3.54123 69 55 129 255 
14.9733 -1.35721 3.44341 70 48 126 255 
17.338 -1.56504 3.84024 72 28 110 255 
14.7794 -1.33689 3.11911 70 48 126 255 
17.6557 -1.60624 3.55219 71 19 101 255 
9.96312 -0.91008 1.90848 72 40 120 255 
10.1632 -0.917403 1.86184 42 120 142 255 
10.1714 -0.921857 1.76227 39 128 142 255 
10.1026 -0.922643 1.65034 39 128 142 255 
10.0887 -0.930417 1.55396 36 134 142 255 
10.1596 -0.918861 1.4809 38 130 142 255 
10.1345 -0.920294 1.37768 41 123 142 255 
10.0986 -0.927605 1.27572 39 127 142 255 
10.0793 -0.933096 1.18016 37 131 142 255 
10.1795 -0.920662 1.10856 38 130 142 255 
10.1193 -0.924256 1.00529 58 83 139 255 
9.86875 -0.908233 0.886228 72 23 105 255 
9.88544 -0.920359 0.795316 72 38 119 255 
10.138 -0.918685 0.735033 71 13 96 255 
9.99749 -0.914892 0.629858 71 17 100 255 
9.85881 -0.912524 0.527551 72 29 111 255 
9.9033 -0.925503 0.436011 71 46 124 255 
9.98429 -0.908269 0.360611 71 14 97 255 
9.90081 -0.909529 0.263827 71 19 101 255 
9.86124 -0.914484 0.169409 72 37 118 255 
10.0356 -0.941399 0.0791673 43 117 142 255 
10.1987 -0.929568 -0.00178739 37 133 142 255 
10.1286 -0.934016 -0.0976427 41 122 142 255 
10.0577 -0.936245 -0.190426 49 104 142 255 
10.0027 -0.941831 -0.284147 52 96 141 255 
10.1418 -0.929722 -0.369881 39 126 142 255 
10.0913 -0.934135 -0.461976 46 110 142 255 
10.0451 -0.936842 -0.555217 44 113 142 255 
10.0315 -0.946305 -0.649824 46 111 142 255 
10.1475 -0.932032 -0.739382 47 108 142 255 
10.0539 -0.93421 -0.826594 48 106 142 255 
9.92195 -0.930593 -0.910439 69 55 129 255 
9.73912 -0.918721 -0.986756 69 56 130 255 
9.212 -0.850964 -1.00827 61 77 138 255 
8.60825 -0.801395 -1.02479 68 58 131 255 
8.03762 -0.755274 -1.03418 68 57 131 255 
7.54475 -0.714373 -1.04352 69 56 130 255 
7.12736 -0.662152 -1.04552 63 72 137 255 
6.78846 -0.634369 -1.06036 64 70 136 255 
6.45086 -0.607306 -1.06917 64 69 136 255 
6.14582 -0.581915 -1.07963 66 64 134 255 
5.84539 -0.547163 -1.07752 63 71 136 255 
5.64164 -0.53018 -1.09325 58 83 139 255 
5.3918 -0.507602 -1.09887 61 78 138 255 
5.20053 -0.491497 -1.11319 61 77 138 255 
4.99783 -0.470462 -1.11381 61 78 138 255 
4.79619 -0.452417 -1.11575 62 73 137 255 
4.56847 -0.4317 -1.10931 70 51 127 255 
4.46569 -0.420477 -1.13166 71 47 125 255 
4.21379 -0.400362 -1.1065 72 38 119 255 
4.15057 -0.394439 -1.1312 72 23 105 255 
3.9814 -0.376925 -1.12714 71 13 96 255 
3.81517 -0.357884 -1.12271 69 5 89 255 
9.85834 -0.957836 2.97534 53 95 141 255 
9.86045 -0.9495 2.86486 72 36 117 255 
10.1222 -0.971047 2.83339 72 33 115 255 
10.1483 -0.973754 2.73743 58 84 140 255 
9.95042 -0.961531 2.59465 57 85 140 255 
16.8723 -1.62767 4.21997 72 29 111 255 
16.7847 -1.62203 4.02664 72 24 106 255 
16.7722 -1.62409 3.85932 72 27 109 255 
17.329 -1.67149 3.84046 72 32 113 255 
15.6612 -1.5136 3.30711 72 38 119 255 
14.8105 -1.43907 2.98147 69 56 130 255 
9.69045 -0.945163 1.85732 62 74 137 255 
9.89007 -0.95396 1.81284 40 125 142 255 
9.84088 -0.952816 1.70599 39 128 142 255 
9.83445 -0.959036 1.60747 37 132 142 255 
9.81033 -0.965486 1.51197 35 137 142 255 
9.90653 -0.95729 1.44484 36 135 142 255 
9.84358 -0.954811 1.33891 37 133 142 255 
9.81916 -0.962734 1.24115 35 136 142 255 
9.81247 -0.96915 1.14959 37 132 142 255 
9.88769 -0.95547 1.0774 37 131 142 255 
9.84797 -0.960442 0.978902 49 104 142 255 
9.8164 -0.964193 0.882042 36 135 142 255 
9.82208 -0.975285 0.790684 37 133 142 255 
9.90578 -0.95896 0.718612 38 130 142 255 
9.89533 -0.966804 0.623784 32 146 140 255 
9.83614 -0.971331 0.526647 35 136 142 255 
9.76422 -0.972976 0.430142 41 121 142 255 
9.91885 -0.963715 0.358454 37 131 142 255 
9.88112 -0.968897 0.263455 38 130 142 255 
9.78778 -0.96828 0.168246 41 122 142 255 
9.763 -0.976292 0.0770625 42 118 142 255 
9.87135 -0.960837 -0.00173102 38 129 142 255 
9.86987 -0.971272 -0.0952045 39 126 142 255 
9.79112 -0.972061 -0.185487 42 118 142 255 
9.73619 -0.977038 -0.276741 44 115 142 255 
9.85042 -0.963999 -0.359464 39 126 142 255 
9.8329 -0.971099 -0.45041 42 120 142 255 
9.76398 -0.971088 -0.539995 43 117 142 255 
9.72766 -0.977895 -0.630517 44 114 142 255 
9.82693 -0.963429 -0.716442 44 115 142 255 
9.7802 -0.969341 -0.804565 41 121 142 255 
9.65346 -0.9652 -0.886329 69 56 130 255 
9.64816 -0.969904 -0.978125 68 59 132 255 
9.18682 -0.905522 -1.0061 62 76 138 255 
8.6091 -0.854787 -1.0255 68 57 131 255 
8.03777 -0.805072 -1.03481 69 53 129 255 
7.54712 -0.761349 -1.04447 65 66 135 255 
7.13104 -0.706653 -1.04668 62 73 137 255 
6.77461 -0.67503 -1.05883 66 65 134 255 
6.43915 -0.646088 -1.06787 66 65 134 255 
6.13919 -0.619318 -1.07912 63 72 137 255 
5.87128 -0.58595 -1.08293 62 73 137 255 
5.64024 -0.564983 -1.09363 59 82 139 255 
5.39541 -0.541361 -1.10026 61 77 138 255 
5.18477 -0.522123 -1.11048 63 71 136 255 
4.99776 -0.501412 -1.11446 61 77 138 255 
4.78266 -0.480765 -1.11326 63 71 136 255 
4.59862 -0.463034 -1.11729 68 58 131 255 
4.43795 -0.445353 -1.1253 70 50 126 255 
4.2613 -0.431276 -1.11965 71 45 123 255 
4.1135 -0.4164 -1.12178 72 33 115 255 
3.9589 -0.399319 -1.12144 71 13 96 255 
3.80239 -0.380236 -1.11962 69 5 89 255 
10.0152 -1.03515 3.02454 59 82 139 255 
9.82768 -1.00724 2.85708 56 88 140 255 
10.1246 -1.03402 2.83581 64 70 136 255 
13.4069 -1.3695 3.61862 72 27 109 255 
9.96166 -1.02435 2.59917 71 47 125 255 
16.5569 -1.69985 4.14363 72 33 115 255 
14.7416 -1.51594 3.53867 72 37 118 255 
16.9152 -1.74276 3.8946 72 37 118 255 
17.674 -1.81429 3.9193 72 20 103 255 
17.3582 -1.78517 3.66769 72 27 109 255 
9.45373 -0.977169 1.90428 71 42 122 255 
9.5721 -0.99295 1.83577 40 125 142 255 
9.59339 -0.984791 1.75953 39 126 142 255 
9.59664 -0.988641 1.66467 37 132 142 255 
9.57018 -0.992581 1.56524 35 137 142 255 
9.54469 -0.998512 1.47194 36 135 142 255 
9.61596 -0.988802 1.40332 35 138 141 255 
9.60293 -0.990982 1.30698 35 136 142 255 
9.56636 -0.997247 1.20994 36 134 142 255 
9.53468 -1.00082 1.11774 38 130 142 255 
9.63737 -0.991003 1.05076 35 137 142 255 
9.60532 -0.996312 0.955372 44 115 142 255 
9.56363 -0.99865 0.859864 36 135 142 255 
9.54727 -1.00719 0.769045 39 127 142 255 
9.63381 -0.992334 0.699311 34 140 141 255 
9.58644 -0.996044 0.604686 33 144 141 255 
9.56185 -1.00352 0.512281 37 131 142 255 
9.49479 -1.005 0.418537 39 126 142 255 
9.61851 -0.994146 0.347814 35 138 141 255 
9.60653 -1.00152 0.256293 41 122 142 255 
9.55593 -1.00459 0.164364 43 117 142 255 
9.48338 -1.00714 0.0749027 43 117 142 255 
9.61361 -0.995333 -0.00168686 36 134 142 255 
9.56536 -1.0006 -0.0923248 39 126 142 255 
9.52645 -1.00485 -0.180587 43 117 142 255 
9.45368 -1.00732 -0.268881 45 113 142 255 
9.59483 -0.998459 -0.350354 38 129 142 255 
9.57441 -1.00493 -0.438843 41 123 142 255 
9.48477 -1.00213 -0.524884 47 108 142 255 
9.43371 -1.00685 -0.611853 46 111 142 255 
9.55696 -0.996202 -0.697192 42 118 142 255 
9.5015 -1.00063 -0.782128 44 114 142 255 
9.41266 -0.999493 -0.864767 58 84 140 255 
9.39964 -1.00322 -0.953537 62 74 137 255 
9.09902 -0.953277 -0.997112 63 71 136 255 
8.59086 -0.906241 -1.02397 69 56 130 255 
8.03761 -0.8549 -1.03545 69 53 129 255 
7.54822 -0.808276 -1.04529 63 71 136 255 
7.13837 -0.751638 -1.04841 65 68 135 255 
6.76543 -0.716066 -1.05806 62 73 137 255 
6.46745 -0.689035 -1.07324 63 71 136 255 
6.16466 -0.660122 -1.08429 66 63 133 255 
5.88127 -0.623416 -1.08546 62 74 137 255 
5.64155 -0.600099 -1.09457 60 79 138 255 
5.38516 -0.57373 -1.09887 61 77 138 255 
5.19022 -0.554862 -1.11236 61 78 138 255 
5.00138 -0.532792 -1.11597 62 76 138 255 
4.78447 -0.510619 -1.11439 65 66 135 255 
4.59859 -0.491552 -1.118 69 55 129 255 
4.41488 -0.470418 -1.12016 70 51 127 255 
4.27589 -0.459274 -1.1242 70 51 127 255 
4.10895 -0.441426 -1.12125 72 33 115 255 
3.96212 -0.424218 -1.12307 71 17 100 255 
3.80762 -0.404371 -1.12187 70 11 94 255 
9.8487 -1.07905 2.9762 61 77 138 255 
9.8662 -1.0724 2.87013 54 92 141 255 
10.1669 -1.10141 2.8495 68 59 132 255 
10.3266 -1.11892 2.78904 72 20 103 255 
13.9369 -1.51959 3.63874 72 38 119 255 
16.552 -1.80204 4.14508 72 22 104 255 
16.8322 -1.83537 4.04313 72 31 112 255 
17.5786 -1.92018 4.04998 72 38 119 255 
17.3412 -1.88772 3.848 72 24 106 255 
15.2446 -1.66239 3.22319 72 35 116 255 
9.24288 -1.01273 1.86303 69 53 129 255 
9.29049 -1.02139 1.78293 64 69 136 255 
9.33191 -1.01585 1.71268 59 81 139 255 
9.33276 -1.01937 1.61995 59 81 139 255 
9.29214 -1.02141 1.52076 68 59 132 255 
9.27902 -1.02832 1.43192 70 50 126 255 
9.35098 -1.01957 1.36554 57 85 140 255 
9.28834 -1.01615 1.26499 66 65 134 255 
9.2573 -1.02249 1.17163 71 47 125 255 
9.26972 -1.03056 1.0874 72 36 117 255 
9.3099 -1.0151 1.01572 65 68 135 255 
9.32008 -1.02456 0.927609 69 56 130 255 
9.26429 -1.02489 0.8335 71 44 122 255 
9.24272 -1.03245 0.74501 72 32 113 255 
9.34 -1.02003 0.678425 68 59 132 255 
9.26964 -1.02066 0.585087 71 45 123 255 
9.30541 -1.03437 0.498873 43 117 142 255 
9.32661 -1.04511 0.411399 43 116 142 255 
9.33606 -1.02289 0.337821 38 130 142 255 
9.34485 -1.03224 0.249476 32 146 140 255 
9.3578 -1.04185 0.161063 31 154 138 255 
9.35579 -1.05168 0.0739445 31 149 139 255 
9.36876 -1.02812 -0.00164497 32 146 140 255 
9.36126 -1.03736 -0.0904145 31 150 139 255 
9.3651 -1.04597 -0.177647 32 146 140 255 
9.36985 -1.05657 -0.266676 32 146 140 255 
9.368 -1.033 -0.342297 31 149 139 255 
9.36949 -1.04158 -0.429736 32 147 140 255 
9.38319 -1.04965 -0.519609 33 143 141 255 
9.36389 -1.05755 -0.607734 35 138 141 255 
9.3752 -1.03544 -0.684383 32 146 140 255 
9.38127 -1.04621 -0.772745 33 142 141 255 
9.36776 -1.05289 -0.861219 38 130 142 255 
9.37947 -1.05931 -0.952132 41 121 142 255 
9.11968 -1.01205 -1.00004 61 78 138 255 
8.57921 -0.958275 -1.02326 68 59 132 255 
8.05094 -0.90631 -1.03786 69 53 129 255 
7.56871 -0.857475 -1.04884 68 57 131 255 
7.17198 -0.799701 -1.05405 63 71 136 255 
6.74127 -0.755364 -1.05498 63 71 136 255 
6.46604 -0.729037 -1.07373 65 68 135 255 
6.14679 -0.696383 -1.08187 68 57 131 255 
5.89395 -0.661355 -1.08853 62 76 138 255 
5.63874 -0.634814 -1.09476 60 80 139 255 
5.38057 -0.606652 -1.09867 61 77 138 255 
5.18769 -0.586808 -1.11257 63 72 137 255 
5.01936 -0.565876 -1.12074 62 74 137 255 
4.81416 -0.543683 -1.12206 63 71 136 255 
4.60032 -0.520306 -1.11917 68 59 132 255 
4.41769 -0.49815 -1.12163 69 56 130 255 
4.27107 -0.485283 -1.1237 69 53 129 255 
4.11 -0.467065 -1.1223 72 41 121 255 
3.97665 -0.450471 -1.12795 72 26 108 255 
3.7593 -0.422581 -1.10837 71 13 96 255 
9.81906 -1.13682 2.9693 52 97 141 255 
13.3753 -1.53692 3.89361 72 27 109 255 
13.1211 -1.50295 3.67998 72 38 119 255 
10.3263 -1.18303 2.79085 70 48 126 255 
10.2926 -1.18619 2.68911 66 65 134 255 
14.8661 -1.71085 3.72545 72 20 103 255 
18.8836 -2.17637 4.539 72 22 104 255 
18.7159 -2.1607 4.31498 72 28 110 255 
11.9635 -1.37665 2.65652 72 33 115 255 
17.4166 -2.00746 3.68497 72 40 120 255 
9.23649 -1.06943 1.86303 72 29 111 255 
9.20794 -1.06954 1.76832 72 29 111 255 
9.18574 -1.05701 1.68702 72 28 110 255 
9.24018 -1.06667 1.60498 72 31 112 255 
9.22687 -1.07157 1.51113 72 29 111 255 
9.23523 -1.08087 1.42616 72 33 115 255 
9.23837 -1.0647 1.35002 72 33 115 255 
9.24748 -1.06914 1.26029 72 29 111 255 
9.23607 -1.07754 1.16975 72 27 109 255 
9.23658 -1.08429 1.08427 72 36 117 255 
9.2472 -1.06571 1.00957 72 31 112 255 
9.26716 -1.07634 0.922982 72 37 118 255 
9.24793 -1.08056 0.832609 72 32 113 255 
9.27482 -1.09369 0.748124 72 35 116 255 
9.27016 -1.07 0.673816 72 33 115 255 
9.28204 -1.07971 0.586277 72 41 121 255 
9.33855 -1.09611 0.501001 41 123 142 255 
9.34979 -1.10584 0.412712 31 149 139 255 
9.34847 -1.08234 0.338504 35 136 142 255 
9.35026 -1.09095 0.249794 36 134 142 255 
9.36315 -1.10065 0.161268 37 131 142 255 
9.35412 -1.10966 0.0739837 35 136 142 255 
9.3732 -1.08686 -0.00164689 31 156 137 255 
9.37757 -1.09745 -0.0906353 30 155 138 255 
9.38233 -1.10623 -0.178099 31 152 139 255 
9.38701 -1.11687 -0.267355 32 146 140 255 
9.38432 -1.09312 -0.343132 31 152 139 255 
9.37582 -1.10057 -0.430328 33 142 141 255 
9.3845 -1.10814 -0.520048 32 146 140 255 
9.37903 -1.11758 -0.60915 33 144 141 255 
9.39542 -1.09607 -0.686337 33 145 140 255 
9.40437 -1.10724 -0.775192 33 143 141 255 
9.44716 -1.12056 -0.869134 40 124 142 255 
9.42614 -1.1232 -0.957551 51 98 141 255 
9.14884 -1.07215 -1.00394 66 64 134 255 
8.57317 -1.0109 -1.02326 66 63 133 255 
8.06591 -0.95815 -1.04053 69 53 129 255 
7.57413 -0.905193 -1.05034 66 65 134 255 
7.19544 -0.847047 -1.05824 63 71 136 255 
6.75907 -0.799382 -1.05852 63 71 136 255 
6.43891 -0.766017 -1.06998 65 66 135 255 
6.16196 -0.736423 -1.08532 68 58 131 255 
5.86829 -0.694963 -1.08456 61 78 138 255 
5.64936 -0.671138 -1.0976 61 78 138 255 
5.40107 -0.642549 -1.10364 61 77 138 255 
5.17719 -0.617817 -1.11111 63 72 137 255 
5.01386 -0.596433 -1.12031 62 76 138 255 
4.8204 -0.574365 -1.12432 63 71 136 255 
4.598 -0.548638 -1.11941 65 66 135 255 
4.42803 -0.526851 -1.12506 69 53 129 255 
4.25841 -0.51033 -1.12117 70 52 128 255 
4.11568 -0.493309 -1.12466 71 46 124 255 
3.93559 -0.470294 -1.1171 72 31 112 255 
3.79761 -0.450501 -1.12046 71 17 100 255 
13.0432 -1.59127 3.94717 72 33 115 255 
10.8031 -1.30857 3.14712 65 68 135 255 
13.3832 -1.61624 3.75621 64 69 136 255 
10.3102 -1.24533 2.78852 69 55 129 255 
10.2947 -1.25049 2.69162 61 78 138 255 
14.9806 -1.81723 3.75686 71 17 100 255 
15.5657 -1.89083 3.74422 72 20 103 255 
17.4018 -2.11727 4.01493 71 47 125 255 
12.046 -1.46108 2.67677 65 66 135 255 
17.608 -2.13907 3.72816 72 37 118 255 
9.23559 -1.12679 1.8642 72 33 115 255 
9.20803 -1.12685 1.76963 72 36 117 255 
9.23964 -1.1207 1.69815 72 31 112 255 
9.26183 -1.12679 1.60992 72 37 118 255 
9.24657 -1.13141 1.51546 72 36 117 255 
9.23431 -1.13824 1.42707 72 35 116 255 
9.24247 -1.12267 1.3516 72 40 120 255 
9.24566 -1.12646 1.26096 72 37 118 255 
9.24405 -1.13601 1.17163 72 33 115 255 
9.21497 -1.13911 1.08254 72 40 120 255 
9.2326 -1.12147 1.00871 72 36 117 255 
9.26038 -1.13318 0.922982 72 38 119 255 
9.26782 -1.14057 0.835014 72 38 119 255 
9.30058 -1.15463 0.750759 72 35 116 255 
9.26045 -1.1265 0.6736 72 38 119 255 
9.30991 -1.14089 0.588468 71 46 124 255 
9.35147 -1.15584 0.502065 42 119 142 255 
9.36464 -1.1659 0.413676 30 157 137 255 
9.36943 -1.14307 0.33951 31 159 136 255 
9.36819 -1.15135 0.250457 31 156 137 255 
9.35622 -1.15808 0.161268 31 154 138 255 
9.35309 -1.16777 0.0740309 37 131 142 255 
9.37032 -1.14483 -0.00164759 34 141 141 255 
9.37264 -1.15522 -0.0906545 30 155 138 255 
9.3843 -1.16488 -0.178269 33 145 140 255 
9.37601 -1.17395 -0.267242 34 141 141 255 
9.38339 -1.15141 -0.34335 31 149 139 255 
9.38178 -1.15967 -0.43092 33 144 141 255 
9.3914 -1.16743 -0.520818 33 142 141 255 
9.38982 -1.17735 -0.610308 35 136 142 255 
9.38455 -1.15321 -0.686047 33 144 141 255 
9.39641 -1.1648 -0.775111 35 136 142 255 
9.48556 -1.18418 -0.873319 40 125 142 255 
9.45264 -1.18522 -0.960963 51 99 141 255 
9.17268 -1.13204 -1.0073 68 57 131 255 
8.56681 -1.06348 -1.02326 66 63 133 255 
8.06579 -1.00836 -1.04129 69 55 129 255 
7.5989 -0.955481 -1.05456 65 66 135 255 
7.16948 -0.888626 -1.05521 65 66 135 255 
6.76973 -0.842793 -1.06098 64 70 136 255 
6.4243 -0.804286 -1.06836 63 71 136 255 
6.15537 -0.773973 -1.08498 65 66 135 255 
5.8522 -0.729497 -1.08239 61 77 138 255 
5.62565 -0.703353 -1.09382 60 80 139 255 
5.39411 -0.675312 -1.10305 59 82 139 255 
5.17524 -0.649816 -1.11152 63 72 137 255 
5.00042 -0.625974 -1.11814 60 80 139 255 
4.82646 -0.605143 -1.12658 63 72 137 255 
4.59841 -0.577325 -1.12035 65 66 135 255 
4.43626 -0.555457 -1.12799 68 57 131 255 
4.27823 -0.539354 -1.12724 68 59 132 255 
4.10875 -0.51807 -1.12361 70 50 126 255 
4.01666 -0.505 -1.14097 72 38 119 255 
3.79954 -0.474388 -1.12187 72 29 111 255 
11.9503 -1.53241 3.6192 66 64 134 255 
10.8292 -1.3792 3.15712 70 48 126 255 
13.3645 -1.69723 3.75379 72 29 111 255 
12.8768 -1.63555 3.48532 72 24 106 255 
13.872 -1.77146 3.6297 72 24 106 255 
15.7681 -2.01101 3.95737 72 32 113 255 
15.3416 -1.9592 3.69312 72 22 104 255 
15.5988 -1.9951 3.60169 71 19 101 255 
12.2925 -1.56758 2.73364 71 45 123 255 
11.9856 -1.53073 2.53968 72 41 121 255 
9.24115 -1.18506 1.86676 72 29 111 255 
9.20873 -1.18433 1.77113 72 38 119 255 
9.21502 -1.17513 1.69492 72 29 111 255 
9.22346 -1.1796 1.60447 72 37 118 255 
9.18562 -1.1812 1.50663 72 29 111 255 
9.23205 -1.19551 1.42782 72 32 113 255 
9.2413 -1.18012 1.35247 72 35 116 255 
9.21302 -1.1799 1.25747 72 31 112 255 
9.24675 -1.19398 1.17287 72 32 113 255 
9.26001 -1.20241 1.08867 72 31 112 255 
9.23442 -1.17924 1.00968 72 31 112 255 
9.26016 -1.19087 0.923671 72 32 113 255 
9.25571 -1.19678 0.834568 72 28 110 255 
9.33286 -1.21683 0.753953 72 28 110 255 
9.2593 -1.18405 0.674032 72 35 116 255 
9.2869 -1.19595 0.587466 72 31 112 255 
9.34322 -1.21307 0.502012 47 108 142 255 
9.3692 -1.22489 0.414201 31 149 139 255 
9.37909 -1.2027 0.340121 30 157 137 255 
9.3788 -1.21111 0.250935 31 151 139 255 
9.37075 -1.2183 0.161644 31 149 139 255 
9.38541 -1.23034 0.074345 31 148 140 255 
9.36709 -1.20282 -0.00164829 40 124 142 255 
9.37033 -1.21335 -0.0907025 49 104 142 255 
9.39779 -1.22516 -0.178664 35 138 141 255 
9.36863 -1.23146 -0.267242 39 128 142 255 
9.393 -1.21114 -0.343967 31 148 140 255 
9.39034 -1.21927 -0.431648 34 140 141 255 
9.3999 -1.2271 -0.521697 37 133 142 255 
9.41408 -1.23911 -0.612368 39 128 142 255 
9.40203 -1.21397 -0.687856 34 141 141 255 
9.40786 -1.22488 -0.776661 36 134 142 255 
9.47318 -1.24171 -0.872864 39 128 142 255 
9.45111 -1.24398 -0.961566 52 97 141 255 
9.17443 -1.18946 -1.00827 68 59 132 255 
8.56012 -1.11603 -1.02326 65 68 135 255 
8.0447 -1.0559 -1.03939 69 55 129 255 
7.58308 -1.00079 -1.0532 68 58 131 255 
7.1845 -0.935283 -1.05824 64 70 136 255 
6.7948 -0.888287 -1.06574 63 72 137 255 
6.41141 -0.842661 -1.06705 65 66 135 255 
6.16027 -0.813016 -1.0867 63 72 137 255 
5.86712 -0.767945 -1.086 61 77 138 255 
5.61636 -0.737219 -1.09287 60 79 138 255 
5.39375 -0.708908 -1.10384 59 82 139 255 
5.18764 -0.683731 -1.11507 62 76 138 255 
4.96841 -0.652955 -1.11186 62 74 137 255 
4.82845 -0.635509 -1.12793 61 77 138 255 
4.60538 -0.606926 -1.12293 64 69 136 255 
4.42123 -0.58115 -1.12506 67 62 133 255 
4.29211 -0.567879 -1.13179 66 64 134 255 
4.09879 -0.542385 -1.12178 70 52 128 255 
3.99345 -0.526992 -1.13528 70 48 126 255 
3.79751 -0.497818 -1.12215 72 37 118 255 
10.3897 -1.39714 3.14911 66 63 133 255 
10.4863 -1.40097 3.05961 63 71 136 255 
13.1514 -1.75223 3.69689 71 44 122 255 
12.9325 -1.72334 3.50322 72 36 117 255 
11.6265 -1.55727 3.04459 71 47 125 255 
11.1503 -1.49166 2.80067 72 37 118 255 
17.2101 -2.30523 4.14626 72 37 118 255 
18.5686 -2.49084 4.29087 71 14 97 255 
11.7948 -1.57772 2.62507 68 59 132 255 
11.6375 -1.5589 2.46789 61 78 138 255 
9.19775 -1.23691 1.85949 72 31 112 255 
9.22466 -1.24397 1.77563 72 27 109 255 
9.14621 -1.22343 1.68361 72 24 106 255 
9.23363 -1.23853 1.60753 72 28 110 255 
9.26917 -1.2498 1.52156 72 31 112 255 
9.24217 -1.25453 1.43055 72 22 104 255 
9.24859 -1.23877 1.35462 72 23 105 255 
9.20659 -1.23654 1.25761 72 26 108 255 
9.24712 -1.25176 1.17387 72 20 103 255 
9.26328 -1.26068 1.08995 72 20 103 255 
9.25558 -1.2397 1.01281 72 24 106 255 
9.26057 -1.24873 0.924458 72 22 104 255 
9.26694 -1.25609 0.836261 71 16 99 255 
9.31336 -1.27246 0.752995 72 20 103 255 
9.27954 -1.24456 0.676049 72 26 108 255 
9.27246 -1.25198 0.587028 72 24 106 255 
9.36924 -1.27495 0.503821 51 99 141 255 
9.39417 -1.28683 0.415647 37 132 142 255 
9.39035 -1.26275 0.340804 34 141 141 255 
9.39794 -1.27226 0.251651 37 133 142 255 
9.41759 -1.2832 0.162585 36 135 142 255 
9.42226 -1.29403 0.0746984 36 135 142 255 
9.39719 -1.26534 -0.00165492 36 135 142 255 
9.39442 -1.27512 -0.0910097 41 122 142 255 
9.43468 -1.28889 -0.179513 52 96 141 255 
9.39754 -1.29397 -0.268288 47 107 142 255 
9.41906 -1.2733 -0.345201 36 134 142 255 
9.41337 -1.28104 -0.43306 35 136 142 255 
9.41791 -1.28827 -0.523126 37 132 142 255 
9.44683 -1.30243 -0.615006 37 131 142 255 
9.43196 -1.27672 -0.690606 39 128 142 255 
9.43275 -1.28703 -0.779353 39 127 142 255 
9.47031 -1.30049 -0.873319 39 127 142 255 
9.44133 -1.30168 -0.961365 50 101 142 255 
9.16007 -1.24479 -1.00751 68 57 131 255 
8.55803 -1.1692 -1.02385 66 65 134 255 
8.02922 -1.10402 -1.03824 69 53 129 255 
7.57974 -1.04771 -1.05361 66 63 133 255 
7.17863 -0.979348 -1.05824 62 76 138 255 
6.79706 -0.931035 -1.06697 65 68 135 255 
6.42763 -0.884945 -1.07063 65 68 135 255 
6.15614 -0.850934 -1.08687 64 69 136 255 
5.85353 -0.802727 -1.08438 62 74 137 255 
5.64189 -0.775813 -1.09874 59 82 139 255 
5.37086 -0.739451 -1.10006 62 74 137 255 
5.18335 -0.715549 -1.11507 62 76 138 255 
4.97592 -0.685026 -1.11446 60 79 138 255 
4.80805 -0.662862 -1.12409 59 81 139 255 
4.59868 -0.634774 -1.12223 66 64 134 255 
4.45024 -0.612765 -1.13337 67 62 133 255 
4.28375 -0.59354 -1.13052 66 65 134 255 
4.14319 -0.574148 -1.13487 66 63 133 255 
3.96154 -0.547532 -1.12714 70 48 126 255 
3.8153 -0.523982 -1.12833 71 45 123 255 
10.3658 -1.45873 3.1445 62 76 138 255 
10.3576 -1.44852 3.0246 63 71 136 255 
10.8964 -1.51989 3.06557 66 63 133 255 
11.7997 -1.64613 3.19903 71 44 122 255 
11.5257 -1.61581 3.02073 66 63 133 255 
15.1714 -2.12442 3.81387 72 26 108 255 
15.3251 -2.14853 3.69521 71 44 122 255 
11.7766 -1.65336 2.72365 71 42 122 255 
12.3642 -1.73117 2.75411 70 48 126 255 
11.7595 -1.64876 2.49586 72 24 106 255 
9.19581 -1.29414 1.86067 72 32 113 255 
9.24019 -1.30384 1.78012 71 19 101 255 
9.24667 -1.29467 1.70353 72 20 103 255 
9.25026 -1.29859 1.61179 72 24 106 255 
9.29455 -1.31134 1.52702 72 24 106 255 
9.2754 -1.31705 1.43692 72 24 106 255 
9.28002 -1.30099 1.36037 72 22 104 255 
9.295 -1.30653 1.27076 72 28 110 255 
9.28936 -1.31557 1.18024 72 26 108 255 
9.31044 -1.32534 1.09643 72 28 110 255 
9.30786 -1.30489 1.01939 72 24 106 255 
9.31875 -1.31484 0.931055 72 23 105 255 
9.28372 -1.31642 0.838487 72 29 111 255 
9.29946 -1.32873 0.752516 72 26 108 255 
9.31519 -1.30757 0.679218 72 26 108 255 
9.36442 -1.32295 0.593352 72 29 111 255 
9.39386 -1.33706 0.505577 44 115 142 255 
9.4039 -1.347 0.416435 31 148 140 255 
9.41607 -1.32508 0.342027 30 155 138 255 
9.41668 -1.33369 0.252367 31 154 138 255 
9.42538 -1.34322 0.162859 31 150 139 255 
9.428 -1.35381 0.0748084 31 148 140 255 
9.4348 -1.32939 -0.00166295 31 152 139 255 
9.428 -1.33865 -0.0914128 33 145 140 255 
9.43649 -1.34817 -0.179701 33 145 140 255 
9.42702 -1.35702 -0.269362 47 108 142 255 
9.44372 -1.33569 -0.346398 31 150 139 255 
9.43302 -1.34272 -0.434335 33 143 141 255 
9.44047 -1.35042 -0.524829 34 139 141 255 
9.44261 -1.36094 -0.615264 35 137 142 255 
9.43876 -1.33666 -0.691692 35 138 141 255 
9.45033 -1.34855 -0.781475 34 140 141 255 
9.50159 -1.36424 -0.876958 35 137 142 255 
9.43513 -1.35987 -0.961566 55 90 140 255 
9.15915 -1.30195 -1.00827 69 56 130 255 
8.56249 -1.22338 -1.02526 64 69 136 255 
8.05175 -1.1575 -1.04206 69 55 129 255 
7.57709 -1.09477 -1.05415 67 61 132 255 
7.15289 -1.02058 -1.05535 64 70 136 255 
6.79709 -0.973564 -1.06789 64 69 136 255 
6.4377 -0.926617 -1.07324 64 69 136 255 
6.14008 -0.887142 -1.08498 62 73 137 255 
5.87381 -0.842259 -1.08907 60 80 139 255 
5.64285 -0.811255 -1.09988 59 81 139 255 
5.40114 -0.777418 -1.10722 59 82 139 255 
5.17112 -0.746222 -1.1134 61 78 138 255 
4.96292 -0.714293 -1.11251 62 73 137 255 
4.81932 -0.694575 -1.1277 61 77 138 255 
4.62356 -0.667143 -1.12928 64 70 136 255 
4.44064 -0.63923 -1.13191 66 65 134 255 
4.30109 -0.622864 -1.13609 65 68 135 255 
4.14723 -0.600666 -1.13696 65 68 135 255 
3.96287 -0.572517 -1.12849 70 52 128 255 
3.79206 -0.544518 -1.12243 70 48 126 255 
10.3358 -1.51924 3.13818 57 86 140 255 
10.7107 -1.56496 3.13045 53 95 141 255 
11.047 -1.61006 3.11067 62 74 137 255 
10.806 -1.57515 2.93219 71 14 97 255 
11.8929 -1.74176 3.11971 72 40 120 255 
16.1201 -2.35822 4.05594 72 28 110 255 
15.2962 -2.24027 3.6915 71 19 101 255 
15.2855 -2.24172 3.53829 71 19 101 255 
11.9157 -1.74298 2.65652 70 50 126 255 
12.2469 -1.79378 2.60159 72 38 119 255 
9.22165 -1.35553 1.86754 72 36 117 255 
9.27867 -1.36738 1.78912 66 63 133 255 
9.23758 -1.35124 1.70335 72 35 116 255 
9.29964 -1.36376 1.62182 72 37 118 255 
9.30977 -1.3718 1.53088 72 36 117 255 
9.27302 -1.37481 1.43783 72 27 109 255 
9.29243 -1.36092 1.36338 72 31 112 255 
9.31622 -1.36785 1.27478 72 33 115 255 
9.29584 -1.37472 1.18211 72 35 116 255 
9.28642 -1.3801 1.09458 72 32 113 255 
9.30951 -1.36342 1.02046 72 32 113 255 
9.3174 -1.37301 0.931744 72 37 118 255 
9.30896 -1.37832 0.841516 72 35 116 255 
9.32268 -1.39047 0.755071 72 29 111 255 
9.31883 -1.36644 0.680082 72 33 115 255 
9.29096 -1.37077 0.58922 72 38 119 255 
9.39437 -1.39599 0.506056 42 118 142 255 
9.40138 -1.40556 0.416698 31 152 139 255 
9.41963 -1.38458 0.342458 31 160 136 255 
9.41623 -1.39261 0.25258 31 156 137 255 
9.41992 -1.40147 0.16291 30 155 138 255 
9.41358 -1.41074 0.0747613 31 149 139 255 
9.43438 -1.38843 -0.00166435 31 152 139 255 
9.43346 -1.39852 -0.0915472 31 152 139 255 
9.42408 -1.40545 -0.179626 33 144 141 255 
9.42346 -1.41558 -0.269503 35 136 142 255 
9.42942 -1.39273 -0.346181 40 125 142 255 
9.42658 -1.40087 -0.434426 34 139 141 255 
9.43398 -1.40861 -0.524939 36 135 142 255 
9.44099 -1.4199 -0.615714 34 139 141 255 
9.45308 -1.39791 -0.693356 34 140 141 255 
9.44582 -1.40709 -0.781801 33 144 141 255 
9.5019 -1.42384 -0.877777 40 125 142 255 
9.45711 -1.42232 -0.964677 55 90 140 255 
9.14705 -1.35754 -1.00784 62 74 137 255 
8.55875 -1.27648 -1.02573 69 53 129 255 
8.0494 -1.20762 -1.04269 69 56 130 255 
7.56925 -1.14109 -1.05402 68 59 132 255 
7.18173 -1.0697 -1.06055 64 69 136 255 
6.80369 -1.01715 -1.06989 66 65 134 255 
6.43287 -0.966247 -1.0734 62 74 137 255 
6.12186 -0.922891 -1.08274 64 69 136 255 
5.90257 -0.883379 -1.09539 61 77 138 255 
5.63971 -0.846155 -1.10026 59 82 139 255 
5.4079 -0.812291 -1.10961 62 76 138 255 
5.19449 -0.782161 -1.11944 60 79 138 255 
4.95941 -0.744876 -1.11273 63 72 137 255 
4.81015 -0.723408 -1.12658 59 81 139 255 
4.59054 -0.691159 -1.12223 61 77 138 255 
4.44335 -0.667474 -1.13362 68 59 132 255 
4.27519 -0.645919 -1.13027 66 65 134 255 
4.15873 -0.628409 -1.14115 63 71 136 255 
3.9707 -0.598544 -1.13175 69 53 129 255 
3.84085 -0.575598 -1.13789 70 52 128 255 
10.3745 -1.59003 3.15285 50 100 142 255 
11.2707 -1.71748 3.29714 71 45 123 255 
10.6541 -1.61962 3.00276 55 90 140 255 
10.6863 -1.62473 2.90236 68 58 131 255 
11.9183 -1.82026 3.12926 70 50 126 255 
13.9326 -2.1256 3.50875 71 17 100 255 
14.3956 -2.19869 3.47736 72 26 108 255 
17.848 -2.7295 4.13526 71 13 96 255 
11.8825 -1.81267 2.65157 65 66 135 255 
17.5157 -2.67538 3.72426 72 23 105 255 
9.30136 -1.4256 1.88542 33 144 141 255 
9.34486 -1.43578 1.80355 32 146 140 255 
9.34679 -1.42585 1.72507 32 147 140 255 
9.34467 -1.42899 1.63117 32 147 140 255 
9.33825 -1.43459 1.53698 33 142 141 255 
9.3152 -1.43953 1.44571 46 109 142 255 
9.28684 -1.41836 1.36382 72 38 119 255 
9.29296 -1.42274 1.27277 72 33 115 255 
9.31272 -1.43566 1.18536 72 37 118 255 
9.29937 -1.4404 1.09713 72 35 116 255 
9.30196 -1.42067 1.02057 72 36 117 255 
9.31077 -1.43046 0.931941 72 38 119 255 
9.31608 -1.43785 0.842941 72 38 119 255 
9.3583 -1.45454 0.758664 72 36 117 255 
9.32802 -1.42631 0.681378 72 36 117 255 
9.33071 -1.43519 0.592288 72 38 119 255 
9.38464 -1.45346 0.506002 41 121 142 255 
9.40048 -1.46445 0.417048 31 150 139 255 
9.41293 -1.44265 0.34253 31 161 136 255 
9.41244 -1.45112 0.252712 30 155 138 255 
9.4151 -1.45986 0.162978 31 150 139 255 
9.41167 -1.46955 0.0748163 30 157 137 255 
9.42371 -1.44598 -0.001664 30 157 137 255 
9.42075 -1.45577 -0.0915088 31 149 139 255 
9.41331 -1.46294 -0.179588 33 145 140 255 
9.41657 -1.47368 -0.26956 35 137 142 255 
9.41674 -1.44995 -0.346035 44 114 142 255 
9.42077 -1.45914 -0.434563 32 147 140 255 
9.42615 -1.46662 -0.524994 34 139 141 255 
9.43111 -1.47764 -0.61565 34 141 141 255 
9.44038 -1.45528 -0.693067 33 143 141 255 
9.44489 -1.46625 -0.782454 34 140 141 255 
9.49987 -1.48319 -0.878414 38 130 142 255 
9.46295 -1.48263 -0.966182 62 76 138 255 
9.12873 -1.41212 -1.00675 66 64 134 255 
8.56057 -1.3305 -1.02691 69 56 130 255 
8.07222 -1.26174 -1.04663 68 57 131 255 
7.59733 -1.19304 -1.05893 68 59 132 255 
7.17112 -1.11314 -1.05998 62 73 137 255 
6.8022 -1.05964 -1.07066 63 72 137 255 
6.46386 -1.0115 -1.07959 60 79 138 255 
6.1336 -0.963187 -1.08584 62 73 137 255 
5.89316 -0.918974 -1.09467 60 80 139 255 
5.63635 -0.881047 -1.10064 59 82 139 255 
5.39506 -0.844246 -1.10802 62 74 137 255 
5.19346 -0.814625 -1.12028 61 77 138 255 
4.98079 -0.779368 -1.11857 61 78 138 255 
4.79407 -0.7511 -1.12387 62 73 137 255 
4.59774 -0.72112 -1.12505 64 70 136 255 
4.44875 -0.696224 -1.13606 65 66 135 255 
4.27497 -0.67274 -1.13128 63 71 136 255 
4.14336 -0.652114 -1.13801 64 70 136 255 
3.95269 -0.620657 -1.12768 68 58 131 255 
3.81733 -0.596045 -1.13199 70 52 128 255 
10.4128 -1.66135 3.16752 58 83 139 255 
10.7078 -1.69899 3.13545 67 62 133 255 
10.6639 -1.68812 3.0084 48 105 142 255 
10.7324 -1.69918 2.91766 55 91 141 255 
13.8455 -2.20161 3.63874 72 28 110 255 
14.1004 -2.23982 3.55441 71 17 100 255 
18.8649 -2.99986 4.5613 71 42 122 255 
12.1475 -1.93407 2.81719 72 35 116 255 
11.8529 -1.88264 2.64748 61 78 138 255 
12.3138 -1.95823 2.62072 72 26 108 255 
9.30115 -1.48404 1.88719 37 133 142 255 
9.33199 -1.49247 1.8028 34 139 141 255 
9.34175 -1.48379 1.72579 33 145 140 255 
9.35519 -1.4894 1.63457 32 146 140 255 
9.34389 -1.4942 1.53939 33 145 140 255 
9.35791 -1.50498 1.45375 32 146 140 255 
9.3493 -1.48666 1.3743 31 150 139 255 
9.33103 -1.48722 1.27921 35 138 141 255 
9.33313 -1.49749 1.1891 44 114 142 255 
9.35017 -1.50708 1.10419 50 101 142 255 
9.36376 -1.48896 1.02834 48 105 142 255 
9.30182 -1.48756 0.931941 72 32 113 255 
9.29921 -1.49372 0.842228 72 26 108 255 
9.33444 -1.50955 0.757466 72 29 111 255 
9.34667 -1.48791 0.683395 72 33 115 255 
9.3306 -1.49383 0.592851 72 36 117 255 
9.38738 -1.51292 0.506641 46 109 142 255 
9.40414 -1.52418 0.417617 31 149 139 255 
9.4187 -1.50274 0.343069 31 159 136 255 
9.40929 -1.5098 0.252871 31 148 140 255 
9.41978 -1.51983 0.163218 31 150 139 255 
9.42912 -1.5316 0.0750283 33 145 140 255 
9.41466 -1.50378 -0.001664 31 148 140 255 
9.42645 -1.51593 -0.0916528 33 144 141 255 
9.4308 -1.52498 -0.180097 33 142 141 255 
9.42215 -1.53384 -0.269984 38 129 142 255 
9.42346 -1.51024 -0.346616 33 145 140 255 
9.42052 -1.51835 -0.434973 50 102 142 255 
9.43274 -1.52699 -0.525873 38 130 142 255 
9.45043 -1.54014 -0.617516 39 126 142 255 
9.43915 -1.51444 -0.693646 37 133 142 255 
9.45736 -1.52767 -0.784249 37 132 142 255 
9.51025 -1.54464 -0.880233 38 130 142 255 
9.55384 -1.55699 -0.976419 58 83 139 255 
9.11498 -1.46732 -1.00621 63 72 137 255 
8.52186 -1.37808 -1.02326 68 58 131 255 
8.06139 -1.31077 -1.04625 68 59 132 255 
7.60063 -1.24139 -1.06043 66 64 134 255 
7.16513 -1.15728 -1.06012 66 64 134 255 
6.78972 -1.10041 -1.06974 63 71 136 255 
6.4663 -1.05257 -1.08105 62 76 138 255 
6.16063 -1.0062 -1.09169 64 69 136 255 
5.89129 -0.955746 -1.09539 61 78 138 255 
5.6163 -0.91325 -1.09779 58 83 139 255 
5.39849 -0.878751 -1.10981 62 76 138 255 
5.1816 -0.845374 -1.11882 63 71 136 255 
4.98555 -0.811483 -1.12074 59 82 139 255 
4.78841 -0.780345 -1.12364 61 77 138 255 
4.60666 -0.751509 -1.12834 62 73 137 255 
4.44248 -0.723197 -1.13557 65 66 135 255 
4.26408 -0.697865 -1.12951 67 62 133 255 
4.14785 -0.678928 -1.14037 62 73 137 255 
3.93551 -0.642726 -1.12388 67 61 132 255 
3.84202 -0.624072 -1.14042 67 61 132 255 
10.6641 -1.76862 3.24721 64 70 136 255 
10.5824 -1.74574 3.10183 72 40 120 255 
10.6838 -1.75853 3.01699 63 71 136 255 
10.7904 -1.7763 2.93633 66 64 134 255 
13.9492 -2.30594 3.66964 72 36 117 255 
10.567 -1.74508 2.66635 72 31 112 255 
18.78 -3.10461 4.54527 71 46 124 255 
12.698 -2.10169 2.94779 70 51 127 255 
18.5748 -3.06728 4.15303 72 36 117 255 
17.9749 -2.97169 3.82936 72 20 103 255 
9.31412 -1.54477 1.89171 38 130 142 255 
9.34107 -1.55276 1.80636 35 136 142 255 
9.36353 -1.54621 1.73153 33 143 141 255 
9.37407 -1.55144 1.6395 32 146 140 255 
9.35596 -1.55507 1.54292 34 141 141 255 
9.36995 -1.56595 1.45708 35 136 142 255 
9.3693 -1.54884 1.37861 32 146 140 255 
9.35887 -1.5506 1.28431 34 139 141 255 
9.359 -1.56061 1.19359 44 114 142 255 
9.3721 -1.56967 1.1079 36 134 142 255 
9.36719 -1.54849 1.02974 52 97 141 255 
9.32786 -1.55048 0.935485 64 69 136 255 
9.29479 -1.55157 0.842674 72 26 108 255 
9.32991 -1.56762 0.757866 72 22 104 255 
9.32752 -1.5436 0.682675 72 22 104 255 
9.33504 -1.55335 0.593728 72 20 103 255 
9.42322 -1.57808 0.509088 46 109 142 255 
9.41234 -1.58484 0.418406 35 137 142 255 
9.43297 -1.56443 0.343932 33 142 141 255 
9.43337 -1.5731 0.253773 35 138 141 255 
9.43986 -1.58256 0.163731 34 141 141 255 
9.44716 -1.59409 0.0752482 34 141 141 255 
9.44767 -1.56856 -0.0016715 34 139 141 255 
9.44261 -1.57802 -0.0919024 33 142 141 255 
9.43803 -1.58564 -0.180417 35 137 142 255 
9.44213 -1.59663 -0.270832 35 136 142 255 
9.43964 -1.5723 -0.34756 37 133 142 255 
9.43565 -1.58025 -0.436111 42 119 142 255 
9.47046 -1.59279 -0.528511 40 125 142 255 
9.46737 -1.60259 -0.619254 35 137 142 255 
9.4651 -1.57823 -0.696251 37 132 142 255 
9.4773 -1.59062 -0.786697 37 133 142 255 
9.51434 -1.60529 -0.881507 37 132 142 255 
9.59217 -1.62372 -0.981337 62 76 138 255 
9.09012 -1.52059 -1.00448 67 62 133 255 
8.58179 -1.44186 -1.0315 65 68 135 255 
8.05222 -1.36004 -1.04612 68 57 131 255 
7.59677 -1.28867 -1.06098 65 68 135 255 
7.17156 -1.20351 -1.06214 64 70 136 255 
6.77017 -1.13992 -1.06774 62 74 137 255 
6.43637 -1.08827 -1.07715 60 80 139 255 
6.15337 -1.04382 -1.09152 64 69 136 255 
5.88822 -0.992367 -1.09593 60 80 139 255 
5.60382 -0.946549 -1.09647 59 81 139 255 
5.39686 -0.912512 -1.1106 60 80 139 255 
5.17343 -0.876661 -1.11819 62 74 137 255 
4.96989 -0.840268 -1.11836 61 77 138 255 
4.82676 -0.817028 -1.1338 62 74 137 255 
4.58758 -0.777325 -1.12481 63 71 136 255 
4.42649 -0.748502 -1.13264 66 65 134 255 
4.27497 -0.726609 -1.13356 65 66 135 255 
4.14646 -0.704851 -1.14115 64 70 136 255 
3.95522 -0.670886 -1.13066 66 64 134 255 
3.83717 -0.647475 -1.14014 67 61 132 255 
10.4634 -1.80136 3.18939 62 74 137 255 
10.5356 -1.80448 3.09128 61 77 138 255 
11.0013 -1.8802 3.10986 62 73 137 255 
10.7203 -1.83239 2.92026 58 84 140 255 
10.6312 -1.82452 2.79965 71 45 123 255 
10.5781 -1.81365 2.67191 62 73 137 255 
18.4605 -3.16829 4.47258 72 23 105 255 
12.7022 -2.18253 2.95181 72 40 120 255 
12.0676 -2.06887 2.7009 72 37 118 255 
17.9187 -3.07547 3.82134 71 17 100 255 
9.32572 -1.60555 1.89603 37 133 142 255 
9.3759 -1.61773 1.81498 33 142 141 255 
9.38295 -1.60862 1.73692 34 140 141 255 
9.37992 -1.6116 1.64222 31 150 139 255 
9.38515 -1.61916 1.54934 32 147 140 255 
9.39133 -1.62882 1.46194 31 150 139 255 
9.39278 -1.61199 1.3835 31 148 140 255 
9.38336 -1.61388 1.289 41 122 142 255 
9.39128 -1.62528 1.19896 31 150 139 255 
9.40828 -1.63514 1.11334 33 145 140 255 
9.39181 -1.61182 1.03351 46 111 142 255 
9.40054 -1.6219 0.943755 31 150 139 255 
9.39697 -1.62795 0.852827 31 149 139 255 
9.37413 -1.63425 0.762257 49 104 142 255 
9.34737 -1.60587 0.684835 72 32 113 255 
9.38237 -1.62045 0.59736 72 36 117 255 
9.43107 -1.63895 0.510046 43 117 142 255 
9.42999 -1.64738 0.419632 33 144 141 255 
9.44584 -1.62618 0.344758 31 161 135 255 
9.44915 -1.63538 0.254463 31 154 138 255 
9.44771 -1.64354 0.164039 32 147 140 255 
9.44311 -1.65306 0.0752954 32 146 140 255 
9.44871 -1.62837 -0.00167342 33 145 140 255 
9.46723 -1.64191 -0.0922384 32 147 140 255 
9.46161 -1.64936 -0.181058 33 144 141 255 
9.45677 -1.65885 -0.271539 34 139 141 255 
9.4633 -1.63598 -0.348794 31 151 139 255 
9.46908 -1.64564 -0.438115 32 146 140 255 
9.46641 -1.6519 -0.528841 48 106 142 255 
9.45441 -1.66014 -0.619061 35 138 141 255 
9.48177 -1.64087 -0.698205 32 146 140 255 
9.48209 -1.65131 -0.787921 33 143 141 255 
9.53668 -1.6693 -0.88451 35 138 141 255 
9.63103 -1.69115 -0.986355 60 79 138 255 
9.03752 -1.56886 -0.999712 70 48 126 255 
8.56985 -1.49398 -1.03115 66 65 134 255 
8.03981 -1.40874 -1.04561 66 65 134 255 
7.58092 -1.33389 -1.05988 68 59 132 255 
7.17086 -1.24868 -1.06315 62 76 138 255 
6.79031 -1.1862 -1.07204 61 77 138 255 
6.41694 -1.12553 -1.07503 62 74 137 255 
6.13811 -1.08002 -1.08997 62 76 138 255 
5.86749 -1.02594 -1.09322 60 79 138 255 
5.60757 -0.98261 -1.09836 60 80 139 255 
5.4124 -0.949334 -1.11498 60 79 138 255 
5.16795 -0.908388 -1.11819 62 74 137 255 
4.97233 -0.872096 -1.12009 60 80 139 255 
4.79767 -0.842417 -1.12816 60 79 138 255 
4.59517 -0.807647 -1.12787 62 73 137 255 
4.43136 -0.777323 -1.13509 64 69 136 255 
4.28759 -0.75585 -1.13811 64 69 136 255 
4.1392 -0.729777 -1.14037 63 71 136 255 
3.97852 -0.699979 -1.13853 65 68 135 255 
3.82934 -0.670345 -1.13902 66 63 133 255 
