ply
format ascii 1.0
comment VTK generated PLY File
obj_info vtkPolyData points and polygons: vtk4.0
element vertex 1164
property float x
property float y
property float z
property uchar red
property uchar green
property uchar blue
property uchar alpha
element face 0
property list uchar int vertex_indices
end_header
-11.4604 -4.80246 -1.25342 72 41 121 255 
-13.718 -5.77981 -1.62238 72 35 116 255 
-11.8244 -4.97204 -1.52047 72 35 116 255 
-11.1564 -4.67981 -1.54981 70 52 128 255 
-10.1871 -4.26473 -1.52067 71 46 124 255 
-9.37606 -3.94466 -1.48576 70 52 128 255 
-8.69371 -3.65206 -1.46653 70 51 127 255 
-8.1292 -3.40833 -1.45454 70 52 128 255 
-7.5626 -3.166 -1.43383 69 56 130 255 
-7.14159 -2.99873 -1.42159 68 59 132 255 
-6.72033 -2.81894 -1.40601 60 79 138 255 
-6.38176 -2.67568 -1.40411 60 80 139 255 
-6.05764 -2.53721 -1.39957 60 80 139 255 
-5.77467 -2.42121 -1.38934 56 88 140 255 
-5.49259 -2.30169 -1.37928 55 91 141 255 
-5.22589 -2.18891 -1.36965 55 90 140 255 
-4.97805 -2.08707 -1.36186 63 72 137 255 
-4.81537 -2.01406 -1.36447 62 76 138 255 
-4.59877 -1.92336 -1.35247 70 50 126 255 
-4.4303 -1.85477 -1.35365 68 58 131 255 
-4.26076 -1.78809 -1.35383 70 51 127 255 
-24.2812 -10.0951 7.89924 72 26 108 255 
-25.0034 -10.4206 7.8339 71 17 100 255 
-38.1691 -15.9236 11.5239 72 24 106 255 
-38.1476 -15.9138 11.0986 72 22 104 255 
-38.1615 -15.8894 10.7291 71 19 101 255 
-18.9357 -7.88787 5.10683 72 33 115 255 
-18.9876 -7.90582 4.91131 71 45 123 255 
-18.9457 -7.88407 4.69986 72 40 120 255 
-19.1365 -7.97185 4.57309 72 41 121 255 
-18.2892 -7.61483 4.16402 62 74 137 255 
-18.2661 -7.59417 3.96357 52 97 141 255 
-18.2756 -7.59029 3.77498 56 89 140 255 
-18.2994 -7.62313 3.61688 63 72 137 255 
-18.3134 -7.62115 3.42269 69 55 129 255 
-18.2789 -7.592 3.21992 70 50 126 255 
-18.2981 -7.58095 3.03788 71 44 122 255 
-18.2893 -7.61516 2.87604 69 55 129 255 
-18.2883 -7.60698 2.68157 67 62 133 255 
-18.2702 -7.57719 2.48816 68 59 132 255 
-18.2691 -7.56146 2.30519 70 52 128 255 
-18.2778 -7.61038 2.14735 68 58 131 255 
-18.2877 -7.5955 1.95908 69 55 129 255 
-20.8634 -8.64841 2.01962 72 35 116 255 
-22.8834 -9.45729 1.9835 71 13 96 255 
-23.0699 -9.60095 1.80431 71 19 101 255 
-28.82 -11.964 1.95776 69 55 129 255 
-28.802 -11.9215 1.66092 69 56 130 255 
-28.7335 -11.8633 1.36269 72 20 103 255 
-28.7131 -11.9378 1.1185 69 4 87 255 
-28.7488 -11.9227 0.825857 70 10 93 255 
-28.7096 -11.8774 0.531471 72 28 110 255 
-11.5617 -4.76882 0.0982287 52 97 141 255 
-11.5245 -4.78908 -0.00217817 56 88 140 255 
-11.4386 -4.73912 -0.118857 47 108 142 255 
-11.4448 -4.73014 -0.233457 50 101 142 255 
-11.4732 -4.72761 -0.350951 52 96 141 255 
-11.4705 -4.75961 -0.451036 47 107 142 255 
-11.4907 -4.75603 -0.566894 49 103 142 255 
-11.4175 -4.7165 -0.679844 69 55 129 255 
-11.4972 -4.73518 -0.801902 70 50 126 255 
-11.4838 -4.76278 -0.902065 68 59 132 255 
-11.5102 -4.75937 -1.01964 69 53 129 255 
-11.5003 -4.74365 -1.13652 68 57 131 255 
-11.4887 -4.73167 -1.25332 70 50 126 255 
-11.4754 -4.75224 -1.35368 70 51 127 255 
-11.4885 -4.74806 -1.4735 70 48 126 255 
-11.1803 -4.60938 -1.54917 68 57 131 255 
-10.2213 -4.20553 -1.5219 70 51 127 255 
-9.41106 -3.8916 -1.48749 68 58 131 255 
-8.72326 -3.60166 -1.46776 69 55 129 255 
-8.15909 -3.36214 -1.45617 69 53 129 255 
-7.62197 -3.13603 -1.44141 69 55 129 255 
-7.14986 -2.95072 -1.4196 68 59 132 255 
-6.73296 -2.77578 -1.40506 58 83 139 255 
-6.39625 -2.63573 -1.40372 58 84 140 255 
-6.05591 -2.49292 -1.39561 62 73 137 255 
-5.78401 -2.3835 -1.38804 57 86 140 255 
-5.51021 -2.26943 -1.38019 54 93 141 255 
-5.24282 -2.15829 -1.37059 56 88 140 255 
-4.97642 -2.05057 -1.35794 62 76 138 255 
-4.83122 -1.98595 -1.36548 64 69 136 255 
-4.6337 -1.90465 -1.35928 67 61 132 255 
-4.45762 -1.83414 -1.35853 68 57 131 255 
-4.25569 -1.75532 -1.34877 69 53 129 255 
-24.293 -9.92568 7.88313 72 27 109 255 
-25.2651 -10.3481 7.89586 71 17 100 255 
-38.095 -15.619 11.4723 72 20 103 255 
-38.1186 -15.6278 11.062 71 19 101 255 
-38.0899 -15.5861 10.6818 72 24 106 255 
-18.9756 -7.76822 5.10465 70 48 126 255 
-18.9305 -7.74607 4.88414 71 44 122 255 
-19.0253 -7.78059 4.70767 72 37 118 255 
-19.0893 -7.81506 4.55026 72 29 111 255 
-18.3102 -7.49209 4.15827 59 82 139 255 
-18.296 -7.47527 3.96004 55 91 141 255 
-18.3128 -7.4743 3.77311 58 84 140 255 
-18.3377 -7.50734 3.61527 62 73 137 255 
-18.3616 -7.50938 3.42303 68 57 131 255 
-18.3196 -7.47747 3.21895 71 47 125 255 
-18.3406 -7.46704 3.03727 71 42 122 255 
-18.3155 -7.49455 2.87288 71 45 123 255 
-18.3273 -7.49162 2.6805 68 57 131 255 
-18.3163 -7.46494 2.48816 69 53 129 255 
-18.3142 -7.44884 2.30508 68 57 131 255 
-18.3076 -7.49131 2.14541 67 62 133 255 
-18.3073 -7.47224 1.95623 70 48 126 255 
-20.9613 -8.53865 2.02398 72 32 113 255 
-22.3961 -9.09541 1.93639 71 14 97 255 
-22.9714 -9.39503 1.79207 71 14 97 255 
-28.7801 -11.741 1.95012 67 61 132 255 
-28.7516 -11.6945 1.65385 70 51 127 255 
-28.7724 -11.6732 1.36111 70 7 90 255 
-28.7895 -11.7629 1.11864 70 7 90 255 
-32.0161 -13.048 0.917398 68 2 86 255 
-28.7513 -11.6886 0.530906 72 23 105 255 
-45.226 -18.3303 0.383278 69 5 89 255 
-11.5528 -4.7179 -0.002178 72 22 104 255 
-11.5332 -4.69561 -0.119538 55 91 141 255 
-11.5283 -4.68202 -0.234569 55 90 140 255 
-11.5427 -4.67363 -0.352195 58 84 140 255 
-11.5282 -4.70083 -0.452162 54 92 141 255 
-11.5511 -4.69823 -0.568443 51 98 141 255 
-11.498 -4.66739 -0.682921 71 46 124 255 
-11.5557 -4.67653 -0.803962 71 45 123 255 
-11.6708 -4.7566 -0.91444 72 28 110 255 
-11.7072 -4.75694 -1.03449 72 33 115 255 
-11.6353 -4.71602 -1.14699 71 46 124 255 
-11.5904 -4.69058 -1.26125 70 50 126 255 
-11.5365 -4.69485 -1.35747 72 36 117 255 
-11.8155 -4.79854 -1.51164 72 33 115 255 
-11.1835 -4.53064 -1.54574 68 57 131 255 
-10.2323 -4.1368 -1.51971 71 46 124 255 
-9.42468 -3.82968 -1.4859 70 52 128 255 
-8.76168 -3.55476 -1.47052 69 55 129 255 
-8.18596 -3.31461 -1.45731 70 52 128 255 
-7.65202 -3.09363 -1.44348 67 61 132 255 
-7.17603 -2.91012 -1.42123 66 64 134 255 
-6.77626 -2.74511 -1.41056 61 77 138 255 
-6.39958 -2.59128 -1.40093 60 80 139 255 
-6.07109 -2.45571 -1.39561 60 80 139 255 
-5.78766 -2.34357 -1.38544 58 84 140 255 
-5.51681 -2.23266 -1.37838 57 86 140 255 
-5.26497 -2.12972 -1.37294 57 85 140 255 
-4.96824 -2.01163 -1.35232 61 77 138 255 
-4.82716 -1.94975 -1.36093 63 71 136 255 
-4.65156 -1.87871 -1.36111 67 62 133 255 
-4.48396 -1.81289 -1.36314 67 62 133 255 
-4.27438 -1.73242 -1.3513 70 51 127 255 
-24.3313 -9.76751 7.87593 72 20 103 255 
-25.2515 -10.1621 7.87196 71 17 100 255 
-25.8335 -10.4071 7.76043 70 11 94 255 
-38.0104 -15.3117 11.0031 72 22 104 255 
-37.9989 -15.2773 10.6298 72 22 104 255 
-19.0382 -7.6578 5.10876 70 48 126 255 
-19.1753 -7.70923 4.935 70 50 126 255 
-19.0917 -7.67134 4.71236 72 35 116 255 
-19.0381 -7.65806 4.52678 72 29 111 255 
-18.3368 -7.37193 4.15395 56 89 140 255 
-18.3433 -7.3636 3.96043 51 99 141 255 
-18.341 -7.35484 3.76955 60 80 139 255 
-18.3624 -7.38624 3.61114 64 70 136 255 
-18.3872 -7.38849 3.41928 70 52 128 255 
-18.3697 -7.36676 3.21976 71 44 122 255 
-18.3815 -7.35253 3.03651 72 41 121 255 
-18.3566 -7.38018 2.87216 71 45 123 255 
-18.3739 -7.3794 2.68063 67 62 133 255 
-18.3535 -7.3491 2.48704 68 58 131 255 
-18.354 -7.33412 2.30438 70 50 126 255 
-18.3578 -7.38069 2.14595 68 58 131 255 
-18.3444 -7.35643 1.95534 69 56 130 255 
-21.0022 -8.40543 2.02292 72 33 115 255 
-21.9627 -8.76278 1.89422 71 16 99 255 
-23.0388 -9.25799 1.79286 71 16 99 255 
-28.7516 -11.524 1.94336 68 59 132 255 
-28.7394 -11.4845 1.64906 70 51 127 255 
-28.7804 -11.4713 1.35813 69 5 89 255 
-0 -0 0 68 2 86 255 
-33.172 -13.2824 0.948168 68 2 86 255 
-28.7659 -11.4893 0.529863 70 11 94 255 
-45.1871 -17.9925 0.382006 69 4 87 255 
-45.101 -18.0962 -0.0084816 70 8 92 255 
-11.649 -4.65967 -0.120441 51 98 141 255 
-11.658 -4.65159 -0.236623 55 91 141 255 
-11.6994 -4.6537 -0.356096 58 84 140 255 
-11.6756 -4.67758 -0.456807 56 89 140 255 
-11.6669 -4.66211 -0.572723 57 85 140 255 
-11.5876 -4.62116 -0.686548 72 29 111 255 
-17.9957 -7.15458 -1.24893 72 28 110 255 
-17.9978 -7.20679 -1.40669 72 38 119 255 
-18.0333 -7.19879 -1.58955 72 26 108 255 
-17.5511 -6.98873 -1.72589 70 11 94 255 
-11.5866 -4.6065 -1.25773 71 44 122 255 
-11.579 -4.62951 -1.3591 71 46 124 255 
-11.6436 -4.64573 -1.48598 71 42 122 255 
-11.1881 -4.45276 -1.54256 69 55 129 255 
-10.2308 -4.06333 -1.51576 71 46 124 255 
-9.44524 -3.77068 -1.48547 70 52 128 255 
-8.77415 -3.49727 -1.46899 68 57 131 255 
-8.20248 -3.26286 -1.45666 69 53 129 255 
-7.67361 -3.04771 -1.44399 70 52 128 255 
-7.21477 -2.87441 -1.42538 67 62 133 255 
-6.78476 -2.70021 -1.40885 57 85 140 255 
-6.41445 -2.5516 -1.40073 62 74 137 255 
-6.08514 -2.41805 -1.3954 60 79 138 255 
-5.76656 -2.29394 -1.37699 60 80 139 255 
-5.52769 -2.19768 -1.3777 57 85 140 255 
-5.27975 -2.09809 -1.37341 59 82 139 255 
-4.98859 -1.98433 -1.35452 62 73 137 255 
-4.84173 -1.92116 -1.36169 70 51 127 255 
-4.64416 -1.84266 -1.35561 70 51 127 255 
-4.50395 -1.78889 -1.36586 69 56 130 255 
-4.29652 -1.71078 -1.35495 69 53 129 255 
-24.421 -9.62998 7.88572 71 13 96 255 
-25.3643 -10.0271 7.8878 71 17 100 255 
-26.0035 -10.2906 7.79237 71 16 99 255 
-37.9994 -15.0369 10.9731 72 20 103 255 
-37.9677 -14.9948 10.5952 71 17 100 255 
-19.2392 -7.60182 5.15007 71 42 122 255 
-18.8983 -7.46352 4.85185 71 44 122 255 
-19.191 -7.57481 4.72531 72 35 116 255 
-19.3318 -7.63871 4.58537 72 38 119 255 
-18.3735 -7.25605 4.15209 53 95 141 255 
-18.3781 -7.24695 3.95827 53 94 141 255 
-18.372 -7.23677 3.76674 59 82 139 255 
-18.3616 -7.25536 3.60217 66 65 134 255 
-18.4295 -7.27445 3.41877 69 56 130 255 
-18.4375 -7.26295 3.22377 71 45 123 255 
-18.4107 -7.23346 3.03394 71 47 125 255 
-18.4015 -7.26741 2.87216 69 55 129 255 
-18.3801 -7.25125 2.675 69 56 130 255 
-18.4056 -7.23925 2.48804 68 57 131 255 
-18.3904 -7.21809 2.30334 69 56 130 255 
-18.3981 -7.26608 2.14541 68 57 131 255 
-18.3726 -7.23717 1.95357 71 47 125 255 
-21.0756 -8.28515 2.02505 72 35 116 255 
-21.6485 -8.48383 1.8626 71 19 101 255 
-23.1304 -9.13037 1.7956 71 14 97 255 
-28.7549 -11.3211 1.93885 68 58 131 255 
-28.7303 -11.277 1.64453 70 52 128 255 
-0 -0 0 68 2 86 255 
-0 -0 0 68 2 86 255 
-0 -0 0 68 1 84 255 
-28.7223 -11.268 0.527776 69 5 89 255 
-37.6387 -14.72 0.317423 70 7 90 255 
-37.6028 -14.8204 -0.00705427 70 7 90 255 
-18.0713 -7.10028 -0.186387 72 38 119 255 
-11.7376 -4.60003 -0.23766 68 59 132 255 
-11.7454 -4.58874 -0.356633 72 36 117 255 
-11.784 -4.63732 -0.459929 67 61 132 255 
-18.2651 -7.16906 -0.894444 72 27 109 255 
-0 -0 -0 68 1 84 255 
-18.003 -7.02987 -1.24642 71 45 123 255 
-17.9275 -7.05132 -1.39778 71 46 124 255 
-18.0316 -7.07018 -1.58555 71 47 125 255 
-17.6316 -6.89577 -1.72962 72 20 103 255 
-15.4942 -6.05023 -1.67785 72 20 103 255 
-11.5914 -4.5522 -1.35725 72 36 117 255 
-12.2304 -4.79305 -1.55708 72 38 119 255 
-11.1976 -4.37717 -1.54015 70 52 128 255 
-10.261 -4.00264 -1.51658 70 48 126 255 
-9.42122 -3.69423 -1.4781 71 45 123 255 
-8.79544 -3.44337 -1.46899 70 51 127 255 
-8.20213 -3.20457 -1.45307 69 55 129 255 
-7.6839 -2.99735 -1.44244 68 58 131 255 
-7.20021 -2.81754 -1.41906 66 63 133 255 
-6.78748 -2.65317 -1.40601 58 84 140 255 
-6.43729 -2.51505 -1.40232 61 77 138 255 
-6.09166 -2.37747 -1.39352 62 76 138 255 
-5.78325 -2.25958 -1.37764 57 85 140 255 
-5.55196 -2.16798 -1.38041 58 84 140 255 
-5.29252 -2.06566 -1.37341 57 86 140 255 
-5.04222 -1.96992 -1.36577 61 78 138 255 
-4.85253 -1.89107 -1.36143 64 69 136 255 
-4.69045 -1.8278 -1.36582 70 51 127 255 
-4.47538 -1.74583 -1.35392 68 57 131 255 
-4.31319 -1.68683 -1.35692 69 56 130 255 
-24.6243 -9.53598 7.93232 71 14 97 255 
-25.4074 -9.86431 7.88224 71 16 99 255 
-26.2278 -10.1936 7.84068 71 16 99 255 
-38.0397 -14.7835 10.9583 71 19 101 255 
-38.0229 -14.7475 10.5851 71 17 100 255 
-19.2855 -7.48362 5.15007 70 11 94 255 
-19.5223 -7.57182 5.00003 72 28 110 255 
-19.2771 -7.47241 4.73514 72 37 118 255 
-19.3737 -7.51818 4.58429 72 29 111 255 
-18.4094 -7.13999 4.15024 55 91 141 255 
-18.4168 -7.13193 3.95709 50 100 142 255 
-18.4106 -7.12178 3.76561 59 81 139 255 
-18.3957 -7.13864 3.60019 66 64 134 255 
-18.4517 -7.15268 3.41469 69 55 129 255 
-18.4698 -7.14505 3.22168 71 42 122 255 
-18.4547 -7.12036 3.03394 72 36 117 255 
-18.4439 -7.15365 2.87187 71 47 125 255 
-18.4381 -7.1437 2.67701 65 68 135 255 
-18.458 -7.1294 2.48916 67 61 132 255 
-18.4593 -7.11476 2.30647 70 52 128 255 
-18.4146 -7.14227 2.14218 69 55 129 255 
-18.4528 -7.1383 1.95741 71 46 124 255 
-21.1706 -8.17289 2.02933 72 33 115 255 
-21.2629 -8.18257 1.82507 71 13 96 255 
-28.6887 -11.1214 2.22174 71 45 123 255 
-28.7112 -11.1009 1.93128 68 59 132 255 
-28.6871 -11.0574 1.63815 70 52 128 255 
-28.8154 -11.0775 1.35327 69 5 89 255 
-28.7878 -11.1483 1.11041 69 4 87 255 
-0 -0 0 68 1 84 255 
-0 -0 0 68 2 86 255 
-0 -0 0 68 2 86 255 
-37.6455 -14.571 -0.00704537 70 7 90 255 
-18.0996 -6.9835 -0.186233 69 53 129 255 
-18.1172 -6.97234 -0.365961 72 40 120 255 
-18.4136 -7.06399 -0.557778 72 26 108 255 
-18.0707 -6.98356 -0.703612 72 32 113 255 
-18.5595 -7.1535 -0.906694 72 37 118 255 
-18.4195 -7.08498 -1.08609 72 36 117 255 
-18.0281 -6.91248 -1.2452 71 45 123 255 
-17.9751 -6.94298 -1.39815 70 51 127 255 
-17.9873 -6.92574 -1.57788 71 46 124 255 
-17.5927 -6.7564 -1.72171 72 20 103 255 
-15.5143 -5.94864 -1.67604 72 24 106 255 
-13.8229 -5.3309 -1.61469 72 37 118 255 
-12.3837 -4.76571 -1.57285 71 47 125 255 
-11.2215 -4.30731 -1.53977 70 52 128 255 
-10.2687 -3.93323 -1.51412 70 51 127 255 
-9.42894 -3.63066 -1.47578 71 45 123 255 
-8.79888 -3.3826 -1.46607 69 53 129 255 
-8.21335 -3.151 -1.45161 69 56 130 255 
-7.68283 -2.94275 -1.43882 70 51 127 255 
-7.21828 -2.77366 -1.41924 60 80 139 255 
-6.81097 -2.61428 -1.40753 60 80 139 255 
-6.43705 -2.46954 -1.39894 64 70 136 255 
-6.10248 -2.33865 -1.39269 63 71 136 255 
-5.81159 -2.22965 -1.38111 57 86 140 255 
-5.54606 -2.12655 -1.37567 56 89 140 255 
-5.30691 -2.03384 -1.37388 56 89 140 255 
-5.05693 -1.93998 -1.36651 59 82 139 255 
-4.8288 -1.84777 -1.35157 64 70 136 255 
-4.68355 -1.79208 -1.36058 69 55 129 255 
-4.47253 -1.71317 -1.34985 70 51 127 255 
-4.31003 -1.65517 -1.35271 71 46 124 255 
-24.7218 -9.39969 7.94498 71 19 101 255 
-25.4692 -9.70891 7.8828 71 17 100 255 
-26.3024 -10.0373 7.84444 71 16 99 255 
-27.0292 -10.314 7.76807 71 16 99 255 
-37.9155 -14.4389 10.5303 72 22 104 255 
-19.1814 -7.30814 5.11021 72 27 109 255 
-19.5739 -7.45397 5.00143 72 32 113 255 
-19.195 -7.30545 4.70388 72 33 115 255 
-19.1421 -7.29347 4.51881 72 35 116 255 
-18.462 -7.03038 4.1523 53 95 141 255 
-18.4574 -7.01774 3.9565 50 100 142 255 
-18.4457 -7.00554 3.76393 63 72 137 255 
-18.4318 -7.02283 3.59876 69 55 129 255 
-18.4907 -7.03758 3.41384 69 53 129 255 
-18.4985 -7.02598 3.21911 72 40 120 255 
-18.499 -7.00734 3.03409 72 40 120 255 
-18.4884 -7.0407 2.87201 70 52 128 255 
-18.5029 -7.03854 2.6801 67 61 132 255 
-18.5116 -7.01987 2.49053 68 57 131 255 
-18.4943 -6.9982 2.30543 69 55 129 255 
-18.4906 -7.04153 2.14595 67 62 133 255 
-18.5047 -7.02812 1.9583 72 37 118 255 
-20.9494 -7.94011 2.00341 71 17 100 255 
-21.3053 -8.04913 1.82444 70 11 94 255 
-28.6995 -10.9235 2.21734 70 50 126 255 
-28.7032 -10.8958 1.9262 68 57 131 255 
-28.6788 -10.8525 1.63384 70 50 126 255 
-0 -0 0 68 2 86 255 
-0 -0 0 68 1 84 255 
-0 -0 0 68 1 84 255 
-0 -0 0 68 2 86 255 
-37.6622 -14.1988 0.316127 69 5 89 255 
-37.5921 -14.2857 -0.00701884 70 10 93 255 
-18.3749 -6.96052 -0.188624 70 51 127 255 
-18.3607 -6.93701 -0.370014 72 33 115 255 
-18.1133 -6.82158 -0.547403 72 35 116 255 
-18.4627 -7.00514 -0.717187 72 24 106 255 
-18.8609 -7.13706 -0.919262 72 41 121 255 
-18.9521 -7.15666 -1.11488 71 42 122 255 
-18.0786 -6.8049 -1.24578 71 44 122 255 
-17.9977 -6.82513 -1.39663 69 55 129 255 
-18.0341 -6.81701 -1.57829 71 46 124 255 
-17.6478 -6.65359 -1.72307 72 20 103 255 
-15.5347 -5.84737 -1.67433 72 24 106 255 
-13.7931 -5.2224 -1.60743 72 37 118 255 
-12.4118 -4.68928 -1.57273 71 46 124 255 
-11.2486 -4.23873 -1.5399 69 55 129 255 
-10.2779 -3.86456 -1.51194 69 53 129 255 
-9.47233 -3.58079 -1.47911 68 59 132 255 
-8.83519 -3.33448 -1.46868 69 55 129 255 
-8.22145 -3.09637 -1.44965 69 53 129 255 
-7.70351 -2.89659 -1.43934 70 52 128 255 
-7.19007 -2.71231 -1.4104 60 79 138 255 
-6.84893 -2.58075 -1.41207 60 79 138 255 
-6.44566 -2.42757 -1.39755 62 73 137 255 
-6.12496 -2.30426 -1.39456 64 70 136 255 
-5.82973 -2.19567 -1.38219 55 90 140 255 
-5.53985 -2.08527 -1.37094 60 79 138 255 
-5.31929 -2.00124 -1.37388 55 90 140 255 
-5.04787 -1.90106 -1.36088 62 73 137 255 
-4.84458 -1.81981 -1.35284 65 68 135 255 
-4.69265 -1.76263 -1.36006 69 56 130 255 
-4.48115 -1.68502 -1.34931 71 46 124 255 
-4.30843 -1.62429 -1.34905 71 42 122 255 
-24.8068 -9.2582 7.9539 71 17 100 255 
-25.4438 -9.52081 7.85668 71 17 100 255 
-26.3626 -9.87539 7.84417 71 13 96 255 
-27.1372 -10.1649 7.78104 71 17 100 255 
-37.9263 -14.1771 10.509 72 23 105 255 
-37.921 -14.1821 10.0793 72 26 108 255 
-19.4917 -7.28605 4.96891 72 28 110 255 
-19.3271 -7.22028 4.72531 71 17 100 255 
-19.246 -7.19811 4.53281 72 33 115 255 
-18.5094 -6.91868 4.15333 53 95 141 255 
-18.5112 -6.90847 3.95886 51 99 141 255 
-18.5003 -6.89669 3.76636 59 82 139 255 
-18.4377 -6.89582 3.59158 70 50 126 255 
-18.5307 -6.92295 3.41333 70 52 128 255 
-18.5727 -6.92407 3.22457 72 41 121 255 
-18.5342 -6.89095 3.03288 72 41 121 255 
-18.5155 -6.92123 2.86957 72 40 120 255 
-18.5661 -6.9325 2.68305 68 57 131 255 
-18.5479 -6.90373 2.48966 68 58 131 255 
-18.5127 -6.8756 2.30241 70 52 128 255 
-18.5148 -6.92098 2.14379 69 56 130 255 
-18.5148 -6.90228 1.95485 72 40 120 255 
-20.5263 -7.63604 1.95843 72 22 104 255 
-21.3692 -7.9238 1.82571 70 11 94 255 
-28.7015 -10.7231 2.21237 70 48 126 255 
-28.6582 -10.678 1.91875 68 59 132 255 
-28.6512 -10.6416 1.62852 69 55 129 255 
-0 -0 0 68 2 86 255 
-0 -0 0 68 1 84 255 
-0 -0 0 68 1 84 255 
-37.5513 -13.9397 0.685179 69 4 87 255 
-38.0384 -14.0746 0.318554 69 4 87 255 
-37.5713 -14.0146 -0.00699877 70 8 92 255 
-18.3461 -6.82115 -0.187894 70 50 126 255 
-18.1414 -6.72724 -0.364755 70 50 126 255 
-18.2148 -6.73249 -0.549212 71 44 122 255 
-18.1392 -6.75535 -0.702995 72 41 121 255 
-19.0953 -7.09215 -0.928552 71 45 123 255 
-19.344 -7.16932 -1.13533 62 73 137 255 
-18.1584 -6.70802 -1.24842 71 44 122 255 
-18.0477 -6.7177 -1.39728 70 51 127 255 
-18.1419 -6.73084 -1.58408 71 46 124 255 
-17.6911 -6.54622 -1.72335 71 17 100 255 
-15.4975 -5.72505 -1.66651 72 22 104 255 
-13.7979 -5.12762 -1.60428 72 37 118 255 
-12.4283 -4.60855 -1.5712 70 48 126 255 
-11.2633 -4.1655 -1.53837 69 56 130 255 
-10.2884 -3.79663 -1.51003 69 55 129 255 
-9.51546 -3.53052 -1.48243 67 62 133 255 
-8.86475 -3.28363 -1.47022 69 56 130 255 
-8.22456 -3.04005 -1.44689 68 57 131 255 
-7.71559 -2.84722 -1.43831 68 58 131 255 
-7.21211 -2.67019 -1.41148 57 85 140 255 
-6.86188 -2.53766 -1.4115 61 78 138 255 
-6.45584 -2.38628 -1.39656 62 74 137 255 
-6.13898 -2.26663 -1.39456 64 70 136 255 
-5.84584 -2.16087 -1.38284 58 84 140 255 
-5.55528 -2.05225 -1.37161 60 80 139 255 
-5.30412 -1.95846 -1.36683 60 79 138 255 
-5.0558 -1.8687 -1.3599 62 73 137 255 
-4.87653 -1.79775 -1.35865 63 71 136 255 
-4.69342 -1.73014 -1.35718 67 61 132 255 
-4.49592 -1.65916 -1.35067 71 47 125 255 
-4.31471 -1.5965 -1.34793 71 42 122 255 
-24.856 -9.10318 7.9516 71 16 99 255 
-25.5802 -9.39332 7.88085 72 22 104 255 
-26.3784 -9.69715 7.83102 71 16 99 255 
-27.3369 -10.0489 7.82046 70 11 94 255 
-37.8899 -13.8992 10.4751 71 17 100 255 
-37.8433 -13.889 10.0358 72 24 106 255 
-19.3854 -7.11104 4.93059 72 20 103 255 
-19.8369 -7.27233 4.83895 71 14 97 255 
-19.4245 -7.12935 4.56447 72 24 106 255 
-18.5396 -6.8006 4.15066 53 95 141 255 
-18.5523 -6.79442 3.95866 50 100 142 255 
-18.5358 -6.78068 3.76505 62 73 137 255 
-18.4741 -6.78052 3.5905 71 46 124 255 
-18.5932 -6.81658 3.41707 70 50 126 255 
-18.6019 -6.80523 3.22232 72 40 120 255 
-18.5492 -6.76727 3.02848 72 35 116 255 
-18.5539 -6.80613 2.869 71 45 123 255 
-18.5832 -6.80924 2.67943 69 55 129 255 
-18.5889 -6.78946 2.48954 67 61 132 255 
-18.5769 -6.77004 2.30519 69 56 130 255 
-18.5569 -6.80725 2.14379 67 62 133 255 
-18.5559 -6.78821 1.95475 72 38 119 255 
-20.1414 -7.3525 1.91737 72 26 108 255 
-21.3977 -7.78538 1.82404 70 10 93 255 
-28.6019 -10.4864 2.1997 71 46 124 255 
-28.6313 -10.4684 1.91262 68 58 131 255 
-28.6287 -10.4338 1.62357 70 51 127 255 
-28.6708 -10.4203 1.33724 69 5 89 255 
-0 -0 0 68 1 84 255 
-37.5311 -13.7075 1.06024 70 8 92 255 
-37.5534 -13.679 0.683674 69 5 89 255 
-0 -0 0 68 2 86 255 
-37.5749 -13.7539 -0.00698359 69 5 89 255 
-18.582 -6.7794 -0.189881 71 46 124 255 
-19.1463 -6.96655 -0.384093 71 46 124 255 
-18.2257 -6.60969 -0.548308 71 45 123 255 
-18.2188 -6.65799 -0.704484 71 44 122 255 
-19.3891 -7.06618 -0.94071 61 77 138 255 
-19.3866 -7.05016 -1.13527 64 70 136 255 
-18.2029 -6.59784 -1.24868 72 33 115 255 
-18.1373 -6.62463 -1.40104 70 48 126 255 
-18.2044 -6.62723 -1.58596 71 44 122 255 
-17.6879 -6.42191 -1.71916 71 14 97 255 
-15.5136 -5.62307 -1.6645 71 19 101 255 
-13.8758 -5.0599 -1.6097 71 42 122 255 
-12.4442 -4.52779 -1.56967 70 50 126 255 
-11.3007 -4.10071 -1.54002 70 52 128 255 
-10.304 -3.73073 -1.50894 67 61 132 255 
-9.52857 -3.46902 -1.48113 67 62 133 255 
-8.84944 -3.21635 -1.46438 69 56 130 255 
-8.24306 -2.98953 -1.44689 69 55 129 255 
-7.73292 -2.79983 -1.43831 68 59 132 255 
-7.24038 -2.63025 -1.41383 59 81 139 255 
-6.83025 -2.47843 -1.40184 63 72 137 255 
-6.46483 -2.34462 -1.39536 62 73 137 255 
-6.15461 -2.22959 -1.39498 62 76 138 255 
-5.8645 -2.12696 -1.38414 53 94 141 255 
-5.58517 -2.02443 -1.3759 59 81 139 255 
-5.31147 -1.92423 -1.36566 61 77 138 255 
-5.06899 -1.83831 -1.36039 63 71 136 255 
-4.87382 -1.76285 -1.35486 64 70 136 255 
-4.69033 -1.69638 -1.35325 68 57 131 255 
-4.52412 -1.6381 -1.35609 70 50 126 255 
-4.33525 -1.57392 -1.3513 72 41 121 255 
-24.8789 -8.93884 7.94124 71 14 97 255 
-25.6355 -9.23553 7.8803 71 16 99 255 
-26.3658 -9.5093 7.80982 71 13 96 255 
-27.3626 -9.86819 7.81034 70 11 94 255 
-25.9116 -9.32519 7.1476 71 17 100 255 
-37.884 -13.6407 10.0243 71 17 100 255 
-37.8414 -13.6183 9.60337 72 23 105 255 
-37.871 -13.6207 9.21755 72 24 106 255 
-37.8048 -13.6128 8.86377 72 23 105 255 
-18.5865 -6.6887 4.15189 53 95 141 255 
-18.5835 -6.67681 3.9565 54 93 141 255 
-18.5798 -6.66781 3.76561 65 66 135 255 
-18.5228 -6.66971 3.59193 72 41 121 255 
-18.6365 -6.70304 3.41741 68 58 131 255 
-18.6321 -6.68696 3.2204 63 72 137 255 
-18.5904 -6.65333 3.02848 71 45 123 255 
-18.6083 -6.69685 2.87101 71 44 122 255 
-18.6228 -6.69442 2.67916 69 56 130 255 
-18.6246 -6.67326 2.48879 67 62 133 255 
-18.6284 -6.6596 2.30647 68 58 131 255 
-18.5993 -6.69359 2.1439 66 63 133 255 
-18.6262 -6.68464 1.9578 71 44 122 255 
-19.9798 -7.1549 1.89777 72 22 104 255 
-28.626 -10.2169 2.43482 70 48 126 255 
-28.601 -10.2874 2.19473 70 51 127 255 
-28.5851 -10.2531 1.90529 67 62 133 255 
-28.5719 -10.2149 1.61676 70 51 127 255 
-0 -0 0 68 1 84 255 
-28.5514 -10.2584 1.09125 69 4 87 255 
-37.5749 -13.4628 1.05913 70 11 94 255 
-37.5472 -13.4163 0.682049 70 7 90 255 
-0 -0 0 68 2 86 255 
-19.4754 -6.99356 -0.00361161 66 64 134 255 
-19.481 -6.97222 -0.198626 62 73 137 255 
-19.4627 -6.94674 -0.389578 64 70 136 255 
-18.8423 -6.70277 -0.565609 72 36 117 255 
-19.4154 -6.96056 -0.74909 66 65 134 255 
-19.4105 -6.93934 -0.939663 62 74 137 255 
-19.4389 -6.93442 -1.13582 63 71 136 255 
-19.3187 -6.86846 -1.3223 71 45 123 255 
-18.2358 -6.53408 -1.40553 72 38 119 255 
-18.8773 -6.74133 -1.64095 72 32 113 255 
-17.7805 -6.3323 -1.72435 71 17 100 255 
-15.5732 -5.53678 -1.66721 72 23 105 255 
-13.8626 -4.95892 -1.60461 71 45 123 255 
-12.4736 -4.45201 -1.56991 70 51 127 255 
-11.2921 -4.01931 -1.53545 70 51 127 255 
-10.3454 -3.67407 -1.51166 68 57 131 255 
-9.54129 -3.40749 -1.47983 64 70 136 255 
-8.87738 -3.16498 -1.46576 70 50 126 255 
-8.27426 -2.94353 -1.44917 68 59 132 255 
-7.70725 -2.73716 -1.43038 70 51 127 255 
-7.26565 -2.58908 -1.41563 60 80 139 255 
-6.84255 -2.43548 -1.40127 61 78 138 255 
-6.49664 -2.31115 -1.39914 61 77 138 255 
-6.1608 -2.18916 -1.39331 62 73 137 255 
-5.8756 -2.09028 -1.3837 55 90 140 255 
-5.59749 -1.99012 -1.3759 60 79 138 255 
-5.32684 -1.8929 -1.3666 60 79 138 255 
-5.07196 -1.80424 -1.35819 62 73 137 255 
-4.86358 -1.72548 -1.34904 62 73 137 255 
-4.7052 -1.66918 -1.35456 68 57 131 255 
-4.54678 -1.61482 -1.35989 69 53 129 255 
-4.32855 -1.5415 -1.34624 71 44 122 255 
-24.7779 -8.73127 7.89176 70 10 93 255 
-25.5368 -9.02333 7.83279 70 8 92 255 
-26.4155 -9.34445 7.8074 70 7 90 255 
-25.6107 -9.05919 7.29429 69 5 89 255 
-25.6863 -9.06647 7.06997 70 8 92 255 
-35.4773 -12.5288 9.36691 70 7 90 255 
-35.5139 -12.5351 8.993 70 7 90 255 
-0 -0 0 68 2 86 255 
-28.3151 -9.9999 6.62429 69 5 89 255 
-25.9885 -9.17275 5.79269 70 7 90 255 
-26.8861 -9.47397 5.71167 70 8 92 255 
-27.9788 -9.84748 5.65817 70 10 93 255 
-28.0574 -9.90891 5.42901 72 22 104 255 
-18.6764 -6.58823 3.41724 70 50 126 255 
-18.6905 -6.57873 3.22345 64 69 136 255 
-18.6504 -6.54601 3.03166 71 46 124 255 
-18.6687 -6.58946 2.87403 71 46 124 255 
-18.6551 -6.57706 2.67795 70 52 128 255 
-18.6708 -6.56083 2.48954 68 58 131 255 
-18.6464 -6.53729 2.30369 70 52 128 255 
-18.6372 -6.57835 2.14358 66 64 134 255 
-18.6575 -6.56693 1.95682 72 37 118 255 
-20.0018 -7.02458 1.89573 71 14 97 255 
-28.5772 -10.0022 2.42539 72 32 113 255 
-28.6071 -10.0918 2.19041 70 51 127 255 
-28.6107 -10.0646 1.90285 69 56 130 255 
-28.618 -10.0338 1.61586 71 45 123 255 
-28.4976 -9.96316 1.32336 72 32 113 255 
-28.5808 -10.0713 1.08999 72 29 111 255 
-28.5369 -10.0274 0.80262 72 35 116 255 
-28.4778 -9.97903 0.51618 71 42 122 255 
-28.4303 -9.92852 0.23652 72 36 117 255 
-19.5255 -6.87658 -0.00361301 63 71 136 255 
-19.4998 -6.84427 -0.198386 65 68 135 255 
-19.5041 -6.82686 -0.38956 65 68 135 255 
-19.5004 -6.80235 -0.584098 67 62 133 255 
-19.4936 -6.85389 -0.750469 64 70 136 255 
-19.4913 -6.83366 -0.94153 63 72 137 255 
-19.4783 -6.81403 -1.13566 65 68 135 255 
-19.4793 -6.79119 -1.33041 65 68 135 255 
-18.986 -6.67171 -1.46017 71 42 122 255 
-18.972 -6.64415 -1.6456 72 41 121 255 
-17.7184 -6.18795 -1.71461 72 23 105 255 
-15.6059 -5.44079 -1.66711 72 27 109 255 
-13.8899 -4.87278 -1.60428 72 38 119 255 
-12.4847 -4.36982 -1.56791 70 50 126 255 
-11.3034 -3.94538 -1.53367 70 52 128 255 
-10.3621 -3.60856 -1.51085 68 57 131 255 
-9.55828 -3.34757 -1.47925 67 62 133 255 
-8.89663 -3.11045 -1.46576 70 51 127 255 
-8.2903 -2.89205 -1.44884 68 57 131 255 
-7.71925 -2.6882 -1.42952 66 65 134 255 
-7.28975 -2.54737 -1.41726 60 79 138 255 
-6.87498 -2.3996 -1.40487 56 89 140 255 
-6.49867 -2.26704 -1.39656 65 66 135 255 
-6.16304 -2.14746 -1.39081 61 77 138 255 
-5.87817 -2.05065 -1.38132 52 97 141 255 
-5.61052 -1.95606 -1.37612 58 83 139 255 
-5.33835 -1.86018 -1.3666 61 78 138 255 
-5.08751 -1.77469 -1.35941 65 68 135 255 
-4.88595 -1.69973 -1.35233 64 69 136 255 
-4.72994 -1.64535 -1.35875 67 61 132 255 
-4.53752 -1.58024 -1.35419 69 53 129 255 
-4.3488 -1.5187 -1.34961 70 51 127 255 
-18.8593 -6.51585 5.99383 72 37 118 255 
-18.8212 -6.52076 5.76055 72 40 120 255 
-18.8356 -6.53332 5.55513 72 31 112 255 
-18.8889 -6.5514 5.36828 72 27 109 255 
-18.8035 -6.50757 5.16443 71 42 122 255 
-18.8354 -6.522 4.96236 72 36 117 255 
-18.8061 -6.50839 4.75198 72 32 113 255 
-18.8518 -6.52013 4.56859 72 26 108 255 
-18.9933 -6.57696 4.43393 72 23 105 255 
-18.7624 -6.49308 4.17308 72 38 119 255 
-18.7669 -6.4838 3.97831 72 37 118 255 
-18.716 -6.45853 3.77686 72 35 116 255 
-18.6618 -6.46218 3.60324 72 36 117 255 
-18.6792 -6.46063 3.41044 64 70 136 255 
-18.7081 -6.4562 3.2196 60 79 138 255 
-18.6884 -6.4308 3.03136 63 71 136 255 
-18.7218 -6.47932 2.87604 66 63 133 255 
-18.667 -6.45276 2.67393 64 70 136 255 
-18.6723 -6.43289 2.48442 62 73 137 255 
-18.6721 -6.41791 2.30195 63 72 137 255 
-18.6622 -6.45867 2.14185 65 66 135 255 
-18.6626 -6.44031 1.95318 71 42 122 255 
-18.8494 -6.49022 1.7827 71 14 97 255 
-18.6872 -6.41219 1.58265 72 26 108 255 
-22.6764 -7.84349 1.73258 70 10 93 255 
-21.7684 -7.50783 1.44468 70 10 93 255 
-18.9399 -6.51031 1.06713 71 13 96 255 
-18.633 -6.38634 0.863438 72 26 108 255 
-22.4939 -7.7716 0.856019 69 5 89 255 
-19.9886 -6.8862 0.560996 70 8 92 255 
-18.7751 -6.44998 0.339588 71 16 99 255 
-18.7406 -6.4159 0.155578 72 24 106 255 
-19.5654 -6.75599 -0.00361266 64 69 136 255 
-19.5433 -6.72515 -0.198405 65 68 135 255 
-19.5352 -6.70349 -0.389352 69 56 130 255 
-19.5086 -6.67125 -0.583109 71 44 122 255 
-19.5183 -6.72829 -0.749816 67 62 133 255 
-19.5508 -6.72011 -0.942395 67 62 133 255 
-19.5396 -6.70119 -1.13681 68 58 131 255 
-19.5111 -6.66831 -1.32977 70 48 126 255 
-19.0473 -6.56224 -1.46176 72 36 117 255 
-19.0746 -6.54897 -1.65099 72 26 108 255 
-17.8012 -6.0946 -1.71898 71 19 101 255 
-15.5816 -5.3253 -1.66099 72 20 103 255 
-13.9158 -4.78617 -1.60385 72 35 116 255 
-12.5019 -4.28991 -1.56673 70 51 127 255 
-11.3443 -3.88173 -1.53596 70 50 126 255 
-10.3728 -3.54107 -1.50921 68 59 132 255 
-9.54495 -3.2773 -1.47405 67 62 133 255 
-8.91555 -3.0558 -1.46576 70 52 128 255 
-8.29295 -2.83602 -1.44624 69 55 129 255 
-7.74492 -2.64397 -1.43124 64 69 136 255 
-7.32293 -2.50865 -1.42069 61 78 138 255 
-6.89422 -2.35896 -1.40582 58 83 139 255 
-6.5106 -2.22649 -1.39616 61 77 138 255 
-6.16777 -2.10675 -1.38894 63 72 137 255 
-5.89064 -2.01455 -1.38132 58 83 139 255 
-5.6261 -1.92286 -1.37703 58 83 139 255 
-5.3561 -1.82959 -1.36824 61 77 138 255 
-5.09738 -1.74312 -1.35917 62 76 138 255 
-4.89354 -1.66879 -1.35157 66 65 134 255 
-4.75913 -1.62284 -1.36425 68 57 131 255 
-4.53893 -1.54957 -1.35175 70 51 127 255 
-4.35259 -1.49013 -1.34793 71 47 125 255 
-18.7538 -6.35086 5.9478 66 65 134 255 
-18.7735 -6.3755 5.73388 62 73 137 255 
-18.7741 -6.3832 5.52533 61 78 138 255 
-18.7477 -6.37382 5.31694 62 73 137 255 
-18.7376 -6.35631 5.13554 62 73 137 255 
-18.7629 -6.36826 4.93289 60 80 139 255 
-18.7168 -6.34913 4.71947 62 74 137 255 
-18.7345 -6.35113 4.53064 64 69 136 255 
-18.7207 -6.35421 4.36112 64 69 136 255 
-18.7732 -6.36808 4.1667 61 78 138 255 
-18.7292 -6.34243 3.962 63 72 137 255 
-18.6929 -6.32249 3.7643 66 64 134 255 
-18.6871 -6.34281 3.60055 65 66 135 255 
-18.6905 -6.3364 3.40534 59 82 139 255 
-18.7147 -6.33022 3.21398 58 83 139 255 
-18.7144 -6.31159 3.02924 59 82 139 255 
-18.7013 -6.34398 2.86684 57 86 140 255 
-18.7006 -6.33619 2.67312 55 90 140 255 
-18.6719 -6.30487 2.47918 58 83 139 255 
-18.6829 -6.29371 2.29848 61 77 138 255 
-18.6817 -6.33733 2.13959 60 79 138 255 
-18.6754 -6.31675 1.95042 65 68 135 255 
-18.6539 -6.29514 1.76052 64 69 136 255 
-18.6799 -6.28184 1.57873 64 69 136 255 
-18.6434 -6.32073 1.42145 63 72 137 255 
-18.6391 -6.30086 1.23442 60 80 139 255 
-18.6341 -6.27761 1.04771 63 71 136 255 
-18.6614 -6.26839 0.862956 60 79 138 255 
-18.6348 -6.31055 0.70767 61 78 138 255 
-18.6383 -6.29332 0.522003 58 84 140 255 
-18.6001 -6.26256 0.335723 62 73 137 255 
-18.6118 -6.24449 0.154188 62 76 138 255 
-18.6346 -6.30689 -0.00343359 62 73 137 255 
-18.6064 -6.27531 -0.188499 63 72 137 255 
-18.6122 -6.25937 -0.370183 65 68 135 255 
-18.6023 -6.23411 -0.554866 68 57 131 255 
-18.6105 -6.28788 -0.713448 68 58 131 255 
-18.5835 -6.26037 -0.893898 67 62 133 255 
-18.6055 -6.25351 -1.08021 67 61 132 255 
-18.56 -6.21632 -1.26232 69 56 130 255 
-18.5854 -6.2758 -1.42333 71 46 124 255 
-18.5543 -6.24332 -1.6026 66 63 133 255 
-17.7656 -5.96087 -1.71197 71 16 99 255 
-15.5979 -5.22422 -1.65928 72 23 105 255 
-13.9213 -4.69276 -1.60114 72 40 120 255 
-12.5139 -4.20837 -1.56496 70 50 126 255 
-11.3585 -3.80889 -1.53469 69 53 129 255 
-10.3718 -3.46982 -1.50594 68 59 132 255 
-9.54144 -3.21078 -1.47044 66 64 134 255 
-8.93413 -3.00104 -1.46576 69 53 129 255 
-8.32049 -2.78853 -1.44803 68 59 132 255 
-7.75727 -2.59514 -1.43055 67 61 132 255 
-7.33352 -2.4621 -1.41978 60 79 138 255 
-6.92532 -2.32223 -1.40923 60 80 139 255 
-6.53436 -2.18993 -1.39835 66 65 134 255 
-6.19727 -2.07446 -1.39269 62 76 138 255 
-5.90012 -1.97743 -1.38067 59 82 139 255 
-5.62671 -1.88459 -1.37432 59 81 139 255 
-5.35893 -1.79391 -1.36613 62 74 137 255 
-5.07029 -1.69918 -1.34914 63 72 137 255 
-4.92296 -1.64517 -1.35688 65 66 135 255 
-4.75252 -1.5881 -1.35954 69 56 130 255 
-4.54288 -1.51986 -1.35012 69 53 129 255 
-4.34892 -1.45912 -1.34399 71 46 124 255 
-18.7497 -6.22149 5.93428 65 68 135 255 
-18.7585 -6.24229 5.71749 61 78 138 255 
-18.7672 -6.25266 5.51191 61 77 138 255 
-18.7553 -6.24829 5.30812 62 76 138 255 
-18.7451 -6.23084 5.127 63 72 137 255 
-18.7317 -6.22974 4.91453 61 78 138 255 
-18.7388 -6.22865 4.71529 63 72 137 255 
-18.7223 -6.21916 4.51836 65 68 135 255 
-18.7102 -6.22289 4.3497 62 73 137 255 
-18.72 -6.22222 4.14634 61 77 138 255 
-18.6738 -6.1962 3.94216 62 73 137 255 
-18.6931 -6.195 3.75662 66 64 134 255 
-18.693 -6.21716 3.59427 62 74 137 255 
-18.6869 -6.20762 3.39769 55 90 140 255 
-18.7082 -6.20036 3.20627 56 89 140 255 
-18.6964 -6.17803 3.02014 60 80 139 255 
-18.706 -6.21787 2.86167 52 96 141 255 
-18.6987 -6.2079 2.66735 56 89 140 255 
-18.6867 -6.18239 2.47606 58 84 140 255 
-18.6683 -6.16152 2.29199 59 81 139 255 
-18.6778 -6.20847 2.13474 57 85 140 255 
-18.6496 -6.18075 1.94373 65 68 135 255 
-18.6647 -6.1715 1.75794 60 79 138 255 
-18.6518 -6.14527 1.57314 66 65 134 255 
-18.643 -6.19332 1.4185 62 73 137 255 
-18.6547 -6.17884 1.23292 57 85 140 255 
-18.6438 -6.15376 1.04611 62 76 138 255 
-18.672 -6.14471 0.861686 61 78 138 255 
-18.6162 -6.17721 0.705513 61 78 138 255 
-18.6215 -6.16063 0.520465 59 82 139 255 
-18.6126 -6.13985 0.335261 64 70 136 255 
-18.5899 -6.1105 0.153693 64 69 136 255 
-18.6265 -6.17701 -0.00342503 60 80 139 255 
-18.6198 -6.15287 -0.188249 62 73 137 255 
-18.5989 -6.12816 -0.369166 64 69 136 255 
-18.5804 -6.10021 -0.553085 70 50 126 255 
-18.5909 -6.15442 -0.711234 67 62 133 255 
-18.576 -6.1312 -0.891712 66 64 134 255 
-18.5638 -6.113 -1.07559 67 61 132 255 
-18.5627 -6.09081 -1.25994 68 57 131 255 
-18.563 -6.1416 -1.4187 68 59 132 255 
-18.5468 -6.11438 -1.59869 65 66 135 255 
-17.8028 -5.85206 -1.71207 71 19 101 255 
-15.6183 -5.1247 -1.65808 72 26 108 255 
-13.9414 -4.60444 -1.60017 72 37 118 255 
-12.5084 -4.12125 -1.56108 71 45 123 255 
-11.3798 -3.73851 -1.53443 70 50 126 255 
-10.4061 -3.41043 -1.50785 67 62 133 255 
-9.56284 -3.15279 -1.47073 66 64 134 255 
-8.93548 -2.9406 -1.46299 70 50 126 255 
-8.34869 -2.74112 -1.44998 67 61 132 255 
-7.77117 -2.54688 -1.43021 66 64 134 255 
-7.32793 -2.4103 -1.41581 64 69 136 255 
-6.95809 -2.28582 -1.41302 62 74 137 255 
-6.54767 -2.14979 -1.39835 66 64 134 255 
-6.20152 -2.03365 -1.39081 62 73 137 255 
-5.91214 -1.94119 -1.38067 59 82 139 255 
-5.6141 -1.84213 -1.36845 62 74 137 255 
-5.36245 -1.75858 -1.36425 62 73 137 255 
-5.12484 -1.68256 -1.36088 61 77 138 255 
-4.92928 -1.61373 -1.35587 66 64 134 255 
-4.75209 -1.55561 -1.35666 68 59 132 255 
-4.55212 -1.49195 -1.35012 68 58 131 255 
-4.36417 -1.4345 -1.34596 70 48 126 255 
-18.7265 -6.0865 5.91501 63 72 137 255 
-18.7498 -6.11189 5.70332 63 72 137 255 
-18.7512 -6.11976 5.49608 64 70 136 255 
-18.7483 -6.11841 5.29541 61 77 138 255 
-18.7139 -6.09323 5.10815 63 72 137 255 
-18.7289 -6.10146 4.9039 63 71 136 255 
-18.71 -6.09187 4.69856 63 72 137 255 
-18.6767 -6.07702 4.49827 67 61 132 255 
-18.6951 -6.09072 4.33742 64 69 136 255 
-18.7178 -6.09421 4.13749 60 79 138 255 
-18.6826 -6.07211 3.93607 66 65 134 255 
-18.6822 -6.06442 3.74688 65 66 135 255 
-18.6868 -6.08802 3.58583 63 71 136 255 
-18.6703 -6.07515 3.38783 55 90 140 255 
-18.6727 -6.06168 3.19374 56 89 140 255 
-18.6832 -6.04676 3.01195 57 86 140 255 
-18.6657 -6.07754 2.84975 56 88 140 255 
-18.695 -6.07957 2.66145 56 89 140 255 
-18.6535 -6.04468 2.46669 60 80 139 255 
-18.6566 -6.03097 2.28597 60 80 139 255 
-18.6597 -6.07559 2.12837 59 82 139 255 
-18.6531 -6.05514 1.94018 62 76 138 255 
-18.6501 -6.03998 1.75304 64 70 136 255 
-18.655 -6.01969 1.57027 63 71 136 255 
-18.6598 -6.07203 1.41692 60 80 139 255 
-18.6163 -6.03962 1.22791 60 79 138 255 
-18.6233 -6.02051 1.04287 62 76 138 255 
-18.6219 -6.00183 0.857657 61 77 138 255 
-18.6319 -6.05576 0.704686 59 82 139 255 
-18.6076 -6.02961 0.519032 60 79 138 255 
-18.608 -6.01201 0.334508 60 79 138 255 
-18.6099 -5.9908 0.153552 63 72 137 255 
-18.5898 -6.03851 -0.00341142 61 78 138 255 
-18.5783 -6.01295 -0.187452 62 76 138 255 
-18.5953 -6.00072 -0.368355 61 77 138 255 
-18.5918 -5.97783 -0.552322 69 56 130 255 
-18.6026 -6.03191 -0.710254 68 59 132 255 
-18.5819 -6.00696 -0.890209 66 64 134 255 
-18.5639 -5.98702 -1.07345 68 57 131 255 
-18.5684 -5.96672 -1.25782 68 59 132 255 
-18.5605 -6.01467 -1.41566 68 59 132 255 
-18.5375 -5.98546 -1.59469 66 63 133 255 
-17.8194 -5.73661 -1.71025 72 20 103 255 
-15.7233 -5.05251 -1.6659 72 23 105 255 
-13.9713 -4.51942 -1.60038 72 40 120 255 
-12.5674 -4.0554 -1.56532 71 44 122 255 
-11.3647 -3.65646 -1.52935 71 47 125 255 
-10.4315 -3.34803 -1.50853 67 61 132 255 
-9.5707 -3.09041 -1.46899 65 66 135 255 
-8.94584 -2.8833 -1.46176 70 50 126 255 
-8.35314 -2.68591 -1.44786 68 59 132 255 
-7.8026 -2.50427 -1.43314 67 61 132 255 
-7.32292 -2.35896 -1.41202 62 74 137 255 
-6.95516 -2.23767 -1.40961 61 78 138 255 
-6.55794 -2.10868 -1.39775 62 73 137 255 
-6.21481 -1.99586 -1.39102 63 71 136 255 
-5.91279 -1.90129 -1.37807 57 86 140 255 
-5.64199 -1.81302 -1.37251 60 80 139 255 
-5.36388 -1.72267 -1.3619 60 80 139 255 
-5.15168 -1.65642 -1.36528 62 76 138 255 
-4.8746 -1.56277 -1.33817 63 72 137 255 
-4.74592 -1.52141 -1.35221 65 66 135 255 
-4.56394 -1.46488 -1.35094 68 57 131 255 
-4.38476 -1.41152 -1.34961 70 50 126 255 
-18.7197 -5.95754 5.9012 66 65 134 255 
-18.7165 -5.97423 5.68193 62 74 137 255 
-18.7242 -5.98406 5.47729 61 78 138 255 
-18.7184 -5.98179 5.27648 61 77 138 255 
-18.7131 -5.96624 5.09785 63 71 136 255 
-18.6967 -5.96431 4.88578 62 73 137 255 
-18.697 -5.961 4.68602 62 76 138 255 
-18.6792 -5.95136 4.49001 64 70 136 255 
-18.6996 -5.96551 4.32988 63 71 136 255 
-18.6933 -5.95962 4.12392 63 71 136 255 
-18.6849 -5.94636 3.9288 63 72 137 255 
-18.6797 -5.93717 3.73901 66 64 134 255 
-18.6789 -5.9589 3.57722 62 74 137 255 
-18.6688 -5.94822 3.38086 55 91 141 255 
-18.6625 -5.93205 3.18571 58 84 140 255 
-18.6389 -5.90633 2.99892 59 82 139 255 
-18.6583 -5.94877 2.84299 55 91 141 255 
-18.6573 -5.94099 2.65085 54 92 141 255 
-18.6354 -5.9127 2.45945 60 79 138 255 
-18.6374 -5.8987 2.27914 58 83 139 255 
-18.6256 -5.93833 2.12029 57 86 140 255 
-18.6083 -5.91465 1.93171 61 77 138 255 
-18.6147 -5.90255 1.74627 62 74 137 255 
-18.6203 -5.88259 1.56428 63 71 136 255 
-18.6084 -5.92926 1.41022 62 74 137 255 
-18.6169 -5.9138 1.22553 59 82 139 255 
-18.6056 -5.88895 1.03983 62 76 138 255 
-18.6088 -5.87183 0.85538 60 80 139 255 
-18.6344 -5.93041 0.703392 59 82 139 255 
-18.5909 -5.89839 0.517547 60 80 139 255 
-18.5969 -5.88264 0.333653 62 73 137 255 
-18.5815 -5.85606 0.153018 61 77 138 255 
-18.5713 -5.90675 -0.0034013 59 82 139 255 
-18.5815 -5.88827 -0.187116 62 74 137 255 
-18.5841 -5.87145 -0.367413 64 70 136 255 
-18.5566 -5.84113 -0.550202 70 50 126 255 
-18.5659 -5.89436 -0.70746 67 62 133 255 
-18.5413 -5.86842 -0.886521 65 68 135 255 
-18.5518 -5.85767 -1.07065 67 61 132 255 
-18.5237 -5.82722 -1.25234 69 55 129 255 
-18.5229 -5.87714 -1.41002 66 63 133 255 
-18.5121 -5.85207 -1.58939 65 68 135 255 
-17.8457 -5.62447 -1.70943 72 22 104 255 
-15.717 -4.94429 -1.66199 72 24 106 255 
-13.957 -4.42041 -1.59562 72 36 117 255 
-12.6101 -3.9839 -1.56755 71 45 123 255 
-11.3945 -3.58904 -1.53037 70 52 128 255 
-10.4519 -3.28396 -1.50853 68 58 131 255 
-9.58099 -3.02894 -1.46769 68 58 131 255 
-8.93038 -2.81795 -1.45638 71 47 125 255 
-8.36947 -2.63461 -1.44786 64 70 136 255 
-7.81124 -2.45428 -1.43193 68 57 131 255 
-7.34758 -2.31723 -1.41401 62 76 138 255 
-6.96033 -2.1923 -1.4079 59 81 139 255 
-6.54739 -2.06104 -1.39278 63 72 137 255 
-6.20641 -1.95124 -1.38644 62 74 137 255 
-5.91875 -1.86322 -1.37677 61 77 138 255 
-5.65115 -1.77778 -1.37206 60 80 139 255 
-5.36601 -1.6871 -1.35979 62 74 137 255 
-5.14233 -1.61867 -1.36015 64 69 136 255 
-4.92379 -1.54529 -1.34904 63 72 137 255 
-4.74411 -1.4888 -1.34906 68 58 131 255 
-4.56457 -1.43425 -1.3485 69 55 129 255 
-4.38785 -1.38286 -1.34793 71 45 123 255 
-18.7257 -5.83316 5.8917 61 77 138 255 
-18.7134 -5.84696 5.66998 61 77 138 255 
-18.7164 -5.85525 5.4644 61 77 138 255 
-18.7372 -5.86135 5.27155 62 76 138 255 
-18.705 -5.83746 5.08579 61 77 138 255 
-18.6848 -5.83443 4.87322 61 78 138 255 
-18.672 -5.82704 4.67069 62 74 137 255 
-18.6875 -5.82792 4.48331 65 66 135 255 
-18.6687 -5.8297 4.31437 64 69 136 255 
-18.6725 -5.82703 4.11137 63 72 137 255 
-18.6667 -5.81468 3.9174 62 73 137 255 
-18.6436 -5.79998 3.72458 64 69 136 255 
-18.6672 -5.82922 3.56806 62 73 137 255 
-18.6513 -5.81683 3.37116 57 85 140 255 
-18.6523 -5.80306 3.17785 58 83 139 255 
-18.6399 -5.78102 2.99331 57 85 140 255 
-18.6142 -5.80911 2.83078 57 86 140 255 
-18.6272 -5.80576 2.64146 56 89 140 255 
-18.6401 -5.78854 2.45534 56 88 140 255 
-18.604 -5.76278 2.27068 60 79 138 255 
-18.6351 -5.81564 2.11727 58 84 140 255 
-18.6157 -5.79149 1.92876 62 76 138 255 
-18.6258 -5.78055 1.74395 62 73 137 255 
-18.6246 -5.75851 1.56165 63 71 136 255 
-18.5901 -5.79804 1.40611 62 74 137 255 
-18.5994 -5.78286 1.22202 61 78 138 255 
-18.5956 -5.7605 1.03728 62 74 137 255 
-18.5815 -5.73808 0.852489 61 78 138 255 
-18.5789 -5.78743 0.699941 58 83 139 255 
-18.5904 -5.77295 0.516539 61 78 138 255 
-18.5534 -5.74388 0.332233 60 80 139 255 
-18.5693 -5.7272 0.152625 62 74 137 255 
-18.569 -5.7808 -0.00339432 62 76 138 255 
-18.5752 -5.76111 -0.186694 63 72 137 255 
-18.5921 -5.74874 -0.366866 64 70 136 255 
-18.5377 -5.71038 -0.54859 69 56 130 255 
-18.5407 -5.76136 -0.705137 66 65 134 255 
-18.5493 -5.74597 -0.8852 66 64 134 255 
-18.5454 -5.73076 -1.06823 66 64 134 255 
-18.5229 -5.70229 -1.2499 66 63 133 255 
-18.5138 -5.74948 -1.40661 70 52 128 255 
-18.521 -5.73013 -1.5871 65 68 135 255 
-17.8751 -5.5134 -1.70897 72 23 105 255 
-15.7014 -4.83371 -1.65717 72 27 109 255 
-13.9544 -4.32556 -1.59226 72 32 113 255 
-12.6238 -3.90322 -1.56626 70 48 126 255 
-11.4267 -3.52227 -1.53176 71 47 125 255 
-10.4671 -3.21831 -1.50785 69 56 130 255 
-9.59845 -2.9698 -1.46755 68 59 132 255 
-8.92201 -2.75522 -1.45224 70 50 126 255 
-8.35813 -2.57478 -1.44314 66 64 134 255 
-7.80638 -2.40023 -1.42832 66 65 134 255 
-7.36072 -2.27182 -1.41383 64 70 136 255 
-6.97647 -2.15042 -1.40847 60 79 138 255 
-6.56366 -2.02198 -1.39357 63 72 137 255 
-6.20799 -1.90995 -1.38414 62 73 137 255 
-5.93007 -1.82687 -1.37677 59 81 139 255 
-5.66661 -1.7445 -1.37319 59 82 139 255 
-5.3744 -1.65357 -1.35932 63 72 137 255 
-5.1605 -1.58965 -1.36235 62 76 138 255 
-4.93503 -1.51562 -1.34955 63 71 136 255 
-4.755 -1.46023 -1.34959 68 58 131 255 
-4.58157 -1.40876 -1.35094 70 51 127 255 
-4.40542 -1.35874 -1.35074 70 51 127 255 
-18.6723 -5.69107 5.8638 62 73 137 255 
-18.6865 -5.71293 5.65109 62 73 137 255 
-18.7059 -5.7262 5.45098 63 72 137 255 
-18.6842 -5.71913 5.24666 63 71 136 255 
-18.6933 -5.70816 5.07298 61 77 138 255 
-18.6562 -5.70011 4.85655 59 81 139 255 
-18.6702 -5.701 4.6614 60 79 138 255 
-18.6865 -5.70206 4.4746 66 63 133 255 
-18.6593 -5.70135 4.30403 65 66 135 255 
-18.6461 -5.69348 4.09779 62 74 137 255 
-18.6439 -5.68231 3.90522 63 71 136 255 
-18.6243 -5.66888 3.71371 65 68 135 255 
-18.6471 -5.69761 3.55747 62 74 137 255 
-18.6348 -5.68646 3.36181 57 85 140 255 
-18.6508 -5.67729 3.17158 57 86 140 255 
-18.6116 -5.64731 2.98315 58 83 139 255 
-18.6381 -5.69132 2.82906 53 95 141 255 
-18.6189 -5.67806 2.63529 55 91 141 255 
-18.6306 -5.6605 2.44947 58 84 140 255 
-18.6124 -5.64045 2.26744 60 80 139 255 
-18.6201 -5.6858 2.11155 58 84 140 255 
-18.6147 -5.66615 1.92502 61 77 138 255 
-18.6114 -5.6511 1.73932 62 76 138 255 
-18.6138 -5.63027 1.55781 64 69 136 255 
-18.5786 -5.6696 1.40258 62 73 137 255 
-18.5811 -5.65237 1.21851 60 80 139 255 
-18.5981 -5.63644 1.03547 61 78 138 255 
-18.5848 -5.61442 0.851044 62 74 137 255 
-18.5787 -5.66254 0.698611 60 79 138 255 
-18.5767 -5.64395 0.515186 61 78 138 255 
-18.5653 -5.62297 0.331823 60 79 138 255 
-18.56 -5.59987 0.152264 61 77 138 255 
-18.5888 -5.66209 -0.00339152 62 74 137 255 
-18.5547 -5.63019 -0.186137 63 72 137 255 
-18.5504 -5.61139 -0.365358 62 76 138 255 
-18.5408 -5.58701 -0.547657 69 53 129 255 
-18.5422 -5.63731 -0.703867 65 68 135 255 
-18.5297 -5.61553 -0.882605 65 66 135 255 
-18.5477 -5.60704 -1.06636 66 64 134 255 
-18.5279 -5.57961 -1.2479 68 58 131 255 
-18.5096 -5.62388 -1.40365 67 61 132 255 
-18.4986 -5.59905 -1.58221 65 66 135 255 
-17.9105 -5.40419 -1.70915 72 23 105 255 
-15.726 -4.73584 -1.65667 72 24 106 255 
-13.9979 -4.24505 -1.59421 72 37 118 255 
-12.601 -3.8116 -1.56049 71 46 124 255 
-11.4234 -3.44465 -1.52846 70 51 127 255 
-10.4752 -3.1506 -1.50621 69 56 130 255 
-9.61081 -2.90913 -1.46668 68 57 131 255 
-8.94253 -2.70157 -1.45285 69 53 129 255 
-8.36432 -2.5206 -1.44151 67 61 132 255 
-7.82473 -2.35342 -1.429 66 63 133 255 
-7.39053 -2.23144 -1.41689 65 68 135 255 
-6.98389 -2.10587 -1.40734 59 82 139 255 
-6.59002 -1.98591 -1.39656 63 71 136 255 
-6.25518 -1.88254 -1.39206 62 76 138 255 
-5.96361 -1.79721 -1.38197 61 77 138 255 
-5.66788 -1.70689 -1.37094 60 80 139 255 
-5.38817 -1.62168 -1.36026 64 69 136 255 
-5.15809 -1.55432 -1.35917 62 73 137 255 
-4.94609 -1.48587 -1.35005 64 69 136 255 
-4.78051 -1.43602 -1.3543 70 51 127 255 
-4.58644 -1.37951 -1.34985 68 58 131 255 
-4.41092 -1.33085 -1.34989 70 51 127 255 
-18.6775 -5.56764 5.85459 61 77 138 255 
-18.6761 -5.58468 5.63748 62 74 137 255 
-18.6844 -5.59446 5.43461 63 72 137 255 
-18.6643 -5.58804 5.23136 61 77 138 255 
-18.6732 -5.57701 5.05816 60 80 139 255 
-18.6276 -5.56664 4.84012 62 76 138 255 
-18.661 -5.57325 4.65049 59 82 139 255 
-18.6548 -5.5675 4.45875 64 69 136 255 
-18.6706 -5.57976 4.29865 62 74 137 255 
-18.6423 -5.56748 4.08936 62 76 138 255 
-18.6108 -5.54764 3.89108 64 69 136 255 
-18.6324 -5.54665 3.70846 66 64 134 255 
-18.6289 -5.56731 3.54742 62 76 138 255 
-18.6363 -5.56215 3.35586 54 92 141 255 
-18.6408 -5.54951 3.16404 56 89 140 255 
-18.6213 -5.52569 2.97921 58 84 140 255 
-18.6196 -5.56099 2.82101 56 89 140 255 
-18.6059 -5.54954 2.62858 57 85 140 255 
-18.5918 -5.52432 2.43986 59 81 139 255 
-18.5876 -5.50864 2.26026 59 81 139 255 
-18.5917 -5.55267 2.10444 57 86 140 255 
-18.6024 -5.53791 1.9202 59 81 139 255 
-18.5903 -5.52035 1.73416 62 74 137 255 
-18.561 -5.49022 1.55055 65 68 135 255 
-18.571 -5.54294 1.39941 62 76 138 255 
-18.5705 -5.52487 1.21557 58 83 139 255 
-18.5615 -5.50122 1.03153 63 72 137 255 
-18.5394 -5.47679 0.847409 62 74 137 255 
-18.5815 -5.53902 0.697425 55 91 141 255 
-18.5803 -5.52075 0.514337 57 85 140 255 
-18.565 -5.49873 0.331207 62 73 137 255 
-18.5288 -5.46664 0.15173 61 78 138 255 
-18.5456 -5.5248 -0.00337739 61 77 138 255 
-18.5314 -5.49916 -0.185561 61 78 138 255 
-18.549 -5.48697 -0.364661 61 77 138 255 
-18.5191 -5.45676 -0.546018 68 59 132 255 
-18.5305 -5.50976 -0.702124 65 68 135 255 
-18.5283 -5.49122 -0.88092 67 62 133 255 
-18.5118 -5.47246 -1.06235 68 59 132 255 
-18.5063 -5.44947 -1.24417 67 62 133 255 
-18.4874 -5.49344 -1.39938 67 61 132 255 
-18.4953 -5.47441 -1.57902 65 66 135 255 
-17.8259 -5.25953 -1.69796 72 23 105 255 
-15.7624 -4.64151 -1.65747 72 26 108 255 
-14.017 -4.1571 -1.59345 72 41 121 255 
-12.6032 -3.72801 -1.5579 70 50 126 255 
-11.4044 -3.36271 -1.52312 70 50 126 255 
-10.5248 -3.09521 -1.51057 68 57 131 255 
-9.63987 -2.85348 -1.46841 68 57 131 255 
-8.96652 -2.64889 -1.45408 70 51 127 255 
-8.38058 -2.46951 -1.44168 68 59 132 255 
-7.84564 -2.30731 -1.43021 66 64 134 255 
-7.40597 -2.18661 -1.41726 65 68 135 255 
-6.9656 -2.05381 -1.40108 62 74 137 255 
-6.58234 -1.93962 -1.39238 63 71 136 255 
