ply
format ascii 1.0
comment VTK generated PLY File
obj_info vtkPolyData points and polygons: vtk4.0
element vertex 1183
property float x
property float y
property float z
property uchar red
property uchar green
property uchar blue
property uchar alpha
element face 0
property list uchar int vertex_indices
end_header
-7.67053 10.5014 0.570063 71 47 125 255 
-6.5301 8.89404 0.39688 57 85 140 255 
-6.32499 8.63073 0.283933 59 82 139 255 
-6.32238 8.6428 0.183177 57 86 140 255 
-6.10877 8.36943 0.0813821 54 92 141 255 
-5.947 8.10282 -0.00175423 58 83 139 255 
-5.92926 8.09666 -0.0963372 58 84 140 255 
-5.72855 7.83677 -0.183 61 78 138 255 
-5.7172 7.83867 -0.274394 61 78 138 255 
-5.51874 7.52756 -0.338994 56 88 140 255 
-5.52472 7.54976 -0.426457 55 91 141 255 
-5.3278 7.2912 -0.496969 58 84 140 255 
-5.32353 7.3016 -0.582763 60 80 139 255 
-5.13693 7.00933 -0.630541 66 65 134 255 
-5.1264 7.01058 -0.710981 53 95 141 255 
-5.0874 6.96987 -0.788343 59 82 139 255 
-4.92607 6.75645 -0.84344 54 93 141 255 
-4.93677 6.74361 -0.910868 50 101 142 255 
-4.74266 6.48817 -0.952633 60 80 139 255 
-4.73272 6.48632 -1.02859 52 96 141 255 
-4.72685 6.48797 -1.10531 52 97 141 255 
-4.5418 6.21089 -1.12386 66 63 133 255 
-4.3019 5.8895 -1.13428 48 105 142 255 
-4.07053 5.58082 -1.13983 48 105 142 255 
-3.89095 5.34063 -1.15561 61 77 138 255 
-3.72667 5.10366 -1.15984 61 78 138 255 
-3.55118 4.86708 -1.16239 62 73 137 255 
-3.40734 4.67157 -1.17324 63 72 137 255 
-3.2432 4.4499 -1.17343 60 79 138 255 
-3.12906 4.28995 -1.17814 60 80 139 255 
-3.01033 4.12885 -1.18344 59 82 139 255 
-2.88832 3.96288 -1.18544 61 78 138 255 
-2.75 3.77044 -1.17741 63 72 137 255 
-2.67472 3.67376 -1.18794 64 70 136 255 
-2.57831 3.54149 -1.18855 62 73 137 255 
-2.48816 3.4151 -1.19089 64 70 136 255 
-2.39151 3.27653 -1.1885 67 61 132 255 
-12.581 17.3577 6.43976 72 20 103 255 
-13.3838 18.4319 6.58761 71 17 100 255 
-13.5901 18.702 6.4417 72 20 103 255 
-12.0471 16.5793 5.50287 72 31 112 255 
-12.0217 16.5678 5.3129 72 36 117 255 
-13.5465 18.6629 5.74122 72 32 113 255 
-14.5708 20.0811 5.92442 72 20 103 255 
-0 0 0 69 4 87 255 
-0 0 0 68 2 86 255 
-29.2659 40.3342 10.4742 69 5 89 255 
-0 0 0 68 2 86 255 
-14.4649 19.9725 4.70421 71 13 96 255 
-14.516 19.998 4.50859 71 16 99 255 
-27.9238 38.4986 8.20635 69 4 87 255 
-15.1927 20.9766 4.21353 71 17 100 255 
-28.4314 39.3289 7.44339 70 7 90 255 
-29.0872 40.0867 7.19002 69 4 87 255 
-28.4888 39.292 6.57058 69 5 89 255 
-29.5607 40.8596 6.34416 69 5 89 255 
-8.84728 12.2473 1.76149 65 66 135 255 
-8.85957 12.2099 1.63615 64 69 136 255 
-8.84573 12.2136 1.49193 71 42 122 255 
-5.9209 8.18703 0.903507 66 64 134 255 
-8.22606 11.3999 1.12614 66 63 133 255 
-8.245 11.3671 1.01397 65 66 135 255 
-8.04116 11.1067 0.860286 62 76 138 255 
-7.84689 10.8621 0.71399 66 64 134 255 
-7.63458 10.588 0.572209 70 51 127 255 
-6.50003 8.96793 0.39839 58 83 139 255 
-6.2854 8.688 0.284543 57 85 140 255 
-6.27918 8.69522 0.183468 56 88 140 255 
-6.06783 8.42136 0.0815235 59 82 139 255 
-5.91888 8.16912 -0.00176069 56 89 140 255 
-5.89646 8.15639 -0.0966156 55 90 140 255 
-5.69323 7.88961 -0.183414 59 81 139 255 
-5.67775 7.88578 -0.274818 62 73 137 255 
-5.49589 7.59366 -0.340446 55 91 141 255 
-5.48355 7.5908 -0.426867 56 88 140 255 
-5.29347 7.33833 -0.497959 57 86 140 255 
-5.28912 7.34871 -0.583921 58 83 139 255 
-5.11078 7.06415 -0.63264 63 71 136 255 
-5.09613 7.05968 -0.712776 51 98 141 255 
-5.03522 6.98803 -0.786888 63 71 136 255 
-4.89556 6.8019 -0.845347 56 88 140 255 
-4.90811 6.7915 -0.913252 53 95 141 255 
-4.72252 6.54453 -0.956635 57 85 140 255 
-4.71022 6.53939 -1.0324 55 91 141 255 
-4.70026 6.53535 -1.10845 54 93 141 255 
-4.49492 6.22661 -1.12169 67 61 132 255 
-4.26915 5.9206 -1.1352 50 100 142 255 
-4.0414 5.6129 -1.14129 49 104 142 255 
-3.85466 5.35961 -1.15457 68 59 132 255 
-3.67745 5.1017 -1.15424 64 70 136 255 
-3.51781 4.884 -1.16126 63 72 137 255 
-3.36372 4.67171 -1.16807 62 76 138 255 
-3.20955 4.46099 -1.17113 62 74 137 255 
-3.09755 4.30194 -1.17619 57 85 140 255 
-2.98608 4.14882 -1.18389 59 82 139 255 
-2.86906 3.98762 -1.18755 60 79 138 255 
-2.73418 3.79747 -1.18059 62 74 137 255 
-2.65325 3.69167 -1.18844 62 73 137 255 
-2.56329 3.56665 -1.19169 62 74 137 255 
-2.4593 3.41937 -1.18709 66 64 134 255 
-2.37305 3.29348 -1.18935 68 57 131 255 
-12.2865 17.1721 6.34281 72 26 108 255 
-12.1752 16.9857 6.04392 72 28 110 255 
-13.4757 18.7858 6.44197 71 17 100 255 
-11.9452 16.6529 5.50287 72 27 109 255 
-11.9886 16.7372 5.34355 72 41 121 255 
-13.5425 18.9003 5.78857 72 26 108 255 
-14.4349 20.1527 5.91931 72 22 104 255 
-14.4112 20.1278 5.66966 72 20 103 255 
-15.5942 21.7631 5.90609 69 5 89 255 
-15.6367 21.831 5.64418 70 8 92 255 
-14.2522 19.9196 4.90756 71 17 100 255 
-14.3615 20.088 4.71058 71 44 122 255 
-14.4412 20.1539 4.52366 72 38 119 255 
-15.4142 21.5284 4.56874 71 19 101 255 
-15.0585 21.0622 4.21208 72 27 109 255 
-28.0093 39.25 7.39579 69 5 89 255 
-0 0 0 68 2 86 255 
-27.3919 38.2711 6.37162 70 11 94 255 
-27.4481 38.4338 5.94126 70 7 90 255 
-8.81406 12.3604 1.76995 64 70 136 255 
-8.81807 12.3109 1.6424 67 61 132 255 
-8.81576 12.3307 1.49961 59 82 139 255 
-5.86997 8.22239 0.903418 47 107 142 255 
-8.18776 11.4948 1.13053 69 56 130 255 
-8.21167 11.4685 1.0185 66 64 134 255 
-7.88523 11.0333 0.850831 59 81 139 255 
-7.77894 10.9085 0.713884 66 65 134 255 
-7.58395 10.655 0.573304 69 56 130 255 
-6.47687 9.05234 0.400367 57 86 140 255 
-6.26799 8.77684 0.286188 59 82 139 255 
-6.27098 8.79708 0.184802 58 84 140 255 
-6.04908 8.50488 0.0819712 58 84 140 255 
-5.88784 8.23213 -0.00176645 57 85 140 255 
-5.86315 8.21602 -0.096894 56 88 140 255 
-5.65689 7.94149 -0.18381 59 82 139 255 
-5.65011 7.9498 -0.275836 57 86 140 255 
-5.46952 7.6557 -0.341716 56 89 140 255 
-5.45021 7.64301 -0.427914 56 88 140 255 
-5.26282 7.391 -0.499332 58 84 140 255 
-5.25665 7.39892 -0.585337 60 79 138 255 
-5.08241 7.11648 -0.634521 61 78 138 255 
-5.06139 7.103 -0.713999 53 94 141 255 
-4.96801 6.98471 -0.783067 62 73 137 255 
-4.86238 6.84397 -0.846852 62 74 137 255 
-4.88367 6.84577 -0.916502 52 96 141 255 
-4.6984 6.59603 -0.959931 52 97 141 255 
-4.68036 6.58272 -1.03469 49 103 142 255 
-4.67785 6.58911 -1.11267 52 96 141 255 
-4.44227 6.23392 -1.11808 64 69 136 255 
-4.22128 5.93058 -1.13213 60 79 138 255 
-4.01031 5.64242 -1.14227 48 106 142 255 
-3.80573 5.36067 -1.14975 65 66 135 255 
-3.6495 5.12897 -1.15532 63 72 137 255 
-3.48891 4.90709 -1.16164 62 73 137 255 
-3.33499 4.69226 -1.16807 62 73 137 255 
-3.18268 4.48139 -1.17134 64 70 136 255 
-3.07788 4.33041 -1.17879 58 83 139 255 
-2.94816 4.1496 -1.17892 61 78 138 255 
-2.8451 4.00595 -1.18779 62 76 138 255 
-2.70858 3.81101 -1.17961 62 74 137 255 
-2.62831 3.70473 -1.18743 60 80 139 255 
-2.54806 3.59176 -1.19483 64 69 136 255 
-2.43325 3.42733 -1.18465 62 73 137 255 
-2.36114 3.31971 -1.19356 67 62 133 255 
-11.7439 16.6284 6.11524 70 50 126 255 
-12.0219 16.9911 6.01948 72 24 106 255 
-14.2508 20.126 6.87144 70 10 93 255 
-13.4255 18.9613 6.23832 72 23 105 255 
-11.8834 16.8073 5.34255 72 35 116 255 
-13.456 19.025 5.80138 71 13 96 255 
-14.9837 21.1924 6.19755 71 19 101 255 
-14.252 20.1657 5.6556 72 27 109 255 
-15.422 21.8041 5.89144 72 27 109 255 
-15.4939 21.9145 5.6411 72 28 110 255 
-14.1506 20.0364 4.91483 72 24 106 255 
-27.0832 38.378 8.96039 70 7 90 255 
-14.411 20.3747 4.55328 72 41 121 255 
-14.9861 21.2041 4.48032 72 33 115 255 
-14.9313 21.1574 4.21272 72 35 116 255 
-28.1914 40.0223 7.50858 69 5 89 255 
-28.7227 40.624 7.22263 70 8 92 255 
-28.2241 39.9495 6.6221 70 7 90 255 
-27.6593 39.2365 6.03899 70 8 92 255 
-8.74834 12.4289 1.77203 66 65 134 255 
-8.7613 12.3916 1.64596 63 71 136 255 
-8.7583 12.4106 1.50276 62 74 137 255 
-8.1746 11.6005 1.26904 58 83 139 255 
-5.72346 8.14044 0.797152 42 119 142 255 
-8.16475 11.5521 1.02146 68 59 132 255 
-7.72763 10.9542 0.841063 59 82 139 255 
-7.69289 10.929 0.712128 63 72 137 255 
-7.5483 10.7439 0.575581 67 62 133 255 
-6.42063 9.0911 0.400331 60 79 138 255 
-6.23129 8.83965 0.286984 56 89 140 255 
-6.22954 8.85339 0.185178 57 86 140 255 
-6.01287 8.56475 0.0821911 58 84 140 255 
-5.8476 8.28281 -0.00176959 58 84 140 255 
-5.83393 8.28209 -0.0972491 52 97 141 255 
-5.61611 7.9875 -0.184074 60 79 138 255 
-5.61557 8.00477 -0.276543 57 86 140 255 
-5.44145 7.71607 -0.342914 55 90 140 255 
-5.44059 7.72941 -0.430874 56 89 140 255 
-5.24493 7.46237 -0.50197 58 83 139 255 
-5.22662 7.4531 -0.587075 59 82 139 255 
-5.05416 7.16954 -0.636475 58 84 140 255 
-5.04695 7.17549 -0.718161 53 95 141 255 
-4.91018 6.99387 -0.780701 64 70 136 255 
-4.84314 6.90626 -0.850867 55 90 140 255 
-4.86046 6.90243 -0.920077 50 102 142 255 
-4.66241 6.63123 -0.960873 52 96 141 255 
-4.66837 6.65191 -1.04104 51 99 141 255 
-4.63619 6.61606 -1.1124 56 89 140 255 
-4.39141 6.24326 -1.1149 66 63 133 255 
-4.17459 5.94182 -1.12936 64 69 136 255 
-3.96995 5.65884 -1.14064 48 106 142 255 
-3.7722 5.38311 -1.14958 64 69 136 255 
-3.62135 5.1561 -1.15641 62 73 137 255 
-3.4593 4.92921 -1.16182 62 73 137 255 
-3.30558 4.71183 -1.16787 60 80 139 255 
-3.16018 4.50805 -1.17322 64 70 136 255 
-3.04957 4.34682 -1.17814 59 82 139 255 
-2.91872 4.16202 -1.17734 63 71 136 255 
-2.79536 3.98751 -1.17721 62 74 137 255 
-2.68403 3.82597 -1.17912 65 66 135 255 
-2.60054 3.71365 -1.18515 64 69 136 255 
-2.51269 3.58835 -1.18855 65 68 135 255 
-2.41604 3.44771 -1.18655 67 62 133 255 
-2.32914 3.31764 -1.18766 69 56 130 255 
-12.0748 17.3216 6.34281 72 29 111 255 
-11.8118 16.9134 5.96613 72 36 117 255 
-12.7966 18.3094 6.22429 72 31 112 255 
-11.7216 16.7721 5.49431 71 14 97 255 
-13.9792 20.0311 6.33991 69 4 87 255 
-13.6323 19.5274 5.92893 72 28 110 255 
-14.8533 21.2839 6.19755 71 17 100 255 
-14.2406 20.4143 5.70069 71 16 99 255 
-15.2622 21.8615 5.88153 70 8 92 255 
-15.3558 22.0044 5.63986 71 19 101 255 
-15.5071 22.2455 5.43329 72 23 105 255 
-0 0 0 69 4 87 255 
-14.3015 20.4853 4.5583 72 40 120 255 
-15.0063 21.5114 4.52572 72 38 119 255 
-27.6786 39.7355 7.8779 70 7 90 255 
-27.1836 39.099 7.30392 70 8 92 255 
-27.5974 39.5449 7.00052 69 4 87 255 
-27.487 39.4172 6.50578 70 8 92 255 
-27.4345 39.4291 6.04261 70 10 93 255 
-8.68948 12.5076 1.77562 69 55 129 255 
-8.71696 12.4907 1.652 64 69 136 255 
-8.69279 12.4796 1.50463 64 69 136 255 
-8.10895 11.6586 1.26993 63 72 137 255 
-8.11428 11.6927 1.14011 72 41 121 255 
-8.12225 11.6429 1.02506 66 64 134 255 
-7.56561 10.8655 0.830668 57 85 140 255 
-7.57498 10.903 0.707392 59 82 139 255 
-7.50045 10.8162 0.576983 70 52 128 255 
-6.36587 9.13196 0.400403 60 80 139 255 
-6.1895 8.89577 0.287567 54 93 141 255 
-6.17624 8.89309 0.185213 57 86 140 255 
-5.97045 8.61628 0.0823324 59 81 139 255 
-5.8041 8.3292 -0.00177186 61 77 138 255 
-5.78871 8.32594 -0.0973451 57 85 140 255 
-5.58523 8.0481 -0.184677 54 92 141 255 
-5.57318 8.04894 -0.276882 60 80 139 255 
-5.40257 7.76162 -0.343458 54 92 141 255 
-5.40332 7.77742 -0.431694 58 83 139 255 
-5.20872 7.50836 -0.502904 60 79 138 255 
-5.19896 7.51129 -0.589134 60 79 138 255 
-5.02717 7.22498 -0.638646 55 90 140 255 
-5.01135 7.21861 -0.719384 54 92 141 255 
-4.84108 6.98621 -0.776516 66 65 134 255 
-4.81936 6.96285 -0.854179 53 95 141 255 
-4.82993 6.94926 -0.922353 51 98 141 255 
-4.63296 6.67603 -0.963227 51 98 141 255 
-4.62972 6.68369 -1.04155 50 100 142 255 
-4.58311 6.62646 -1.1094 62 74 137 255 
-4.3519 6.26846 -1.11461 65 68 135 255 
-4.12735 5.95189 -1.12644 63 72 137 255 
-3.91999 5.66119 -1.13625 56 88 140 255 
-3.7335 5.39805 -1.14785 64 69 136 255 
-3.59133 5.18065 -1.15695 62 73 137 255 
-3.42116 4.93904 -1.15917 64 69 136 255 
-3.27549 4.73041 -1.16748 63 71 136 255 
-3.12244 4.51288 -1.16947 64 69 136 255 
-3.00617 4.34137 -1.17164 64 70 136 255 
-2.88648 4.17024 -1.17464 62 76 138 255 
-2.77692 4.01338 -1.1798 63 71 136 255 
-2.66988 3.85592 -1.18328 62 74 137 255 
-2.5876 3.74387 -1.18971 62 76 138 255 
-2.47636 3.58306 -1.18174 65 66 135 255 
-2.37787 3.43793 -1.17814 65 68 135 255 
-2.3 3.31925 -1.18316 69 53 129 255 
-12.034 17.4908 6.37762 72 24 106 255 
-11.638 16.8843 5.93057 71 44 122 255 
-14.174 20.5476 6.95545 71 13 96 255 
-11.5894 16.8016 5.48057 72 37 118 255 
-11.6697 16.9423 5.33953 71 47 125 255 
-11.6684 16.9346 5.11987 70 10 93 255 
-13.56 19.6869 5.70819 71 14 97 255 
-14.1272 20.519 5.7056 71 17 100 255 
-13.9737 20.2798 5.43282 72 20 103 255 
-15.2055 22.0764 5.63431 69 5 89 255 
-14.4322 20.9767 5.10166 70 10 93 255 
-14.1919 20.6436 4.77879 69 5 89 255 
-14.511 21.0595 4.66618 72 28 110 255 
-14.5549 21.1396 4.42863 72 31 112 255 
-14.4519 21.0211 4.14994 69 5 89 255 
-26.9409 39.2618 7.30331 70 7 90 255 
-0 0 0 68 2 86 255 
-27.0923 39.3639 6.46942 70 7 90 255 
-0 0 0 68 2 86 255 
-8.62943 12.5853 1.7791 69 53 129 255 
-8.6599 12.5726 1.65577 67 62 133 255 
-8.66172 12.5992 1.51261 62 73 137 255 
-8.06432 11.7475 1.27421 63 72 137 255 
-8.05421 11.7596 1.14179 66 64 134 255 
-5.56753 8.08608 0.70889 31 150 139 255 
-5.51415 8.02378 0.610822 31 159 136 255 
-5.4981 8.01824 0.518027 31 156 137 255 
-5.49463 8.02844 0.426464 31 156 137 255 
-5.51838 8.02069 0.350186 41 121 142 255 
-5.51459 8.03041 0.258495 39 126 142 255 
-5.50143 8.02611 0.16645 35 137 142 255 
-5.49129 8.02956 0.0764027 33 142 141 255 
-5.64465 8.20728 -0.00173852 53 94 141 255 
-5.62662 8.1997 -0.0954637 52 97 141 255 
-5.52332 8.06407 -0.184262 46 111 142 255 
-5.50451 8.05493 -0.275921 49 104 142 255 
-5.37634 7.82592 -0.344838 56 89 140 255 
-5.3764 7.84091 -0.433379 55 91 141 255 
-5.16876 7.54924 -0.503509 59 82 139 255 
-5.16629 7.56282 -0.590679 57 86 140 255 
-4.99516 7.27378 -0.640238 53 94 141 255 
-4.99852 7.29526 -0.723953 50 100 142 255 
-4.79588 7.0125 -0.776152 67 61 132 255 
-4.78665 7.00708 -0.855985 59 81 139 255 
-4.79957 6.9968 -0.924736 53 94 141 255 
-4.61267 6.73465 -0.967582 54 93 141 255 
-4.60318 6.73326 -1.04485 52 96 141 255 
-4.53846 6.64873 -1.10845 65 68 135 255 
-4.30216 6.27872 -1.11172 65 66 135 255 
-4.08294 5.96569 -1.12429 63 72 137 255 
-3.88295 5.68188 -1.1356 62 73 137 255 
-3.7103 5.4355 -1.15096 64 70 136 255 
-3.55114 5.19041 -1.15424 63 71 136 255 
-3.39578 4.96724 -1.16088 62 74 137 255 
-3.25083 4.7569 -1.16907 67 62 133 255 
-3.08973 4.52468 -1.16759 63 72 137 255 
-2.98112 4.36215 -1.17229 62 73 137 255 
-2.85314 4.17661 -1.17148 63 71 136 255 
-2.74786 4.02392 -1.17792 64 69 136 255 
-2.64235 3.86663 -1.18157 65 66 135 255 
-2.56131 3.75488 -1.18819 64 69 136 255 
-2.44834 3.58942 -1.17886 64 70 136 255 
-2.37138 3.47392 -1.18546 65 66 135 255 
-2.28446 3.34043 -1.18569 69 56 130 255 
-11.3793 16.7585 6.08503 71 46 124 255 
-11.5078 16.9164 5.91696 72 40 120 255 
-13.872 20.3762 6.86848 71 14 97 255 
-11.4622 16.8373 5.46916 71 46 124 255 
-11.5127 16.9359 5.31516 71 42 122 255 
-11.52 16.9408 5.1003 70 11 94 255 
-13.0507 19.1986 5.54328 72 28 110 255 
-13.6253 20.0522 5.55245 72 31 112 255 
-13.8578 20.378 5.43627 71 13 96 255 
-14.924 21.9548 5.5798 71 16 99 255 
-14.9884 22.074 5.34606 71 14 97 255 
-14.4482 21.2952 4.90902 72 22 104 255 
-14.6907 21.6029 4.76651 71 14 97 255 
-14.5013 21.341 4.45209 70 10 93 255 
-14.3653 21.1722 4.1623 71 14 97 255 
-14.4995 21.411 3.96616 71 17 100 255 
-0 0 0 68 2 86 255 
-0 0 0 68 2 86 255 
-0 0 0 68 2 86 255 
-8.59991 12.7088 1.78906 70 52 128 255 
-8.60998 12.6658 1.66106 66 63 133 255 
-8.61107 12.6916 1.51733 59 81 139 255 
-8.03063 11.8537 1.28035 61 77 138 255 
-8.01149 11.8525 1.14602 65 66 135 255 
-8.03818 11.8291 1.03269 64 69 136 255 
-5.38975 7.94678 0.602432 43 116 142 255 
-5.40011 7.97988 0.513398 49 104 142 255 
-5.39494 7.98749 0.422522 57 86 140 255 
-5.45671 8.03621 0.349395 31 161 136 255 
-5.44614 8.03596 0.257593 31 150 139 255 
-5.43247 8.03073 0.165852 33 143 141 255 
-5.43073 8.04653 0.0762457 37 133 142 255 
-5.45715 8.03987 -0.00169594 33 165 133 255 
-5.43771 8.02956 -0.0930927 31 160 136 255 
-5.43174 8.03568 -0.182849 30 155 138 255 
-5.41474 8.02888 -0.273885 34 139 141 255 
-5.34561 7.8844 -0.345963 55 91 141 255 
-5.3433 7.89609 -0.434608 54 92 141 255 
-5.13743 7.60315 -0.504992 59 81 139 255 
-5.13206 7.61258 -0.592095 59 82 139 255 
-4.96722 7.32906 -0.642409 51 98 141 255 
-4.9598 7.33488 -0.724851 50 100 142 255 
-4.76056 7.05335 -0.777426 66 65 134 255 
-4.76025 7.06106 -0.858996 55 91 141 255 
-4.76268 7.03517 -0.925928 56 89 140 255 
-4.58238 6.77928 -0.969936 54 93 141 255 
-4.56289 6.76302 -1.04511 52 96 141 255 
-4.48042 6.65098 -1.10422 66 64 134 255 
-4.26799 6.31156 -1.11287 63 71 136 255 
-4.0446 5.98817 -1.12383 61 77 138 255 
-3.86677 5.73341 -1.14113 55 90 140 255 
-3.67413 5.45408 -1.15009 65 66 135 255 
-3.51042 5.19906 -1.15135 63 71 136 255 
-3.35645 4.97496 -1.15785 64 69 136 255 
-3.21336 4.76457 -1.16608 64 69 136 255 
-3.05972 4.54031 -1.16676 65 68 135 255 
-2.94557 4.36741 -1.16883 63 71 136 255 
-2.83291 4.20212 -1.17373 64 70 136 255 
-2.70628 4.01572 -1.17063 67 61 132 255 
-2.61803 3.88196 -1.18132 64 70 136 255 
-2.52634 3.75286 -1.18262 64 70 136 255 
-2.45106 3.6412 -1.1909 62 76 138 255 
-2.33443 3.46526 -1.17759 65 68 135 255 
-2.26285 3.35279 -1.18513 68 59 132 255 
-9.6081 14.3386 5.18484 68 57 131 255 
-9.60735 14.3109 4.98488 72 33 115 255 
-9.60265 14.2928 4.79793 71 19 101 255 
-11.3463 16.8888 5.46319 71 44 122 255 
-9.57679 14.2757 4.46175 71 14 97 255 
-11.3504 16.9137 5.07107 72 24 106 255 
-12.9229 19.2638 5.5391 72 23 105 255 
-13.699 20.4293 5.63349 71 14 97 255 
-13.6797 20.384 5.41537 72 41 121 255 
-14.8637 22.1573 5.60798 72 27 109 255 
-14.2556 21.2744 5.13113 72 27 109 255 
-14.2648 21.3051 4.89103 72 32 113 255 
-14.6105 21.771 4.78374 71 42 122 255 
-14.386 21.4533 4.45702 72 29 111 255 
-14.3164 21.3814 4.18607 70 11 94 255 
-14.3487 21.4708 3.96085 70 7 90 255 
-31.2996 46.6569 8.15617 69 5 89 255 
-31.2018 46.5476 7.58657 69 5 89 255 
-31.2542 46.7305 7.0722 70 8 92 255 
-8.55046 12.8042 1.79508 70 50 126 255 
-8.56256 12.7638 1.66699 66 65 134 255 
-8.55628 12.7789 1.52147 62 73 137 255 
-7.96439 11.9127 1.28142 66 65 134 255 
-7.95742 11.9297 1.14874 66 64 134 255 
-7.97434 11.8915 1.03384 63 71 136 255 
-5.31979 7.94819 0.600052 43 116 142 255 
-7.36746 11.0323 0.70686 68 57 131 255 
-7.40425 11.1088 0.585216 61 78 138 255 
-6.28571 9.38042 0.406154 58 83 139 255 
-6.07306 9.08048 0.289875 59 81 139 255 
-6.07534 9.1009 0.18718 60 79 138 255 
-5.88179 8.83124 0.0833377 59 82 139 255 
-5.59916 8.35901 -0.00175598 55 91 141 255 
-5.64226 8.44272 -0.0974795 59 82 139 255 
-5.49108 8.23188 -0.186543 56 88 140 255 
-5.49497 8.25668 -0.280501 58 83 139 255 
-5.31991 7.95111 -0.347451 49 103 142 255 
-5.30807 7.94866 -0.435701 58 84 140 255 
-5.10675 7.65862 -0.506586 58 84 140 255 
-5.09631 7.66055 -0.593382 58 84 140 255 
-4.93491 7.37847 -0.644074 52 96 141 255 
-4.92742 7.38424 -0.726728 51 98 141 255 
-4.73541 7.10978 -0.780428 64 70 136 255 
-4.74053 7.12576 -0.863311 50 100 142 255 
-4.73599 7.08906 -0.929178 57 86 140 255 
-4.55558 6.82957 -0.973114 50 102 142 255 
-4.5345 6.81071 -1.04816 56 88 140 255 
-4.45433 6.70062 -1.1079 63 71 136 255 
-4.23633 6.34833 -1.11475 62 73 137 255 
-4.01819 6.0285 -1.12675 64 70 136 255 
-3.83152 5.75703 -1.14113 62 73 137 255 
-3.65314 5.49539 -1.15406 64 70 136 255 
-3.47355 5.21313 -1.14973 60 79 138 255 
-3.3264 4.99627 -1.15804 62 73 137 255 
-3.17212 4.76624 -1.16171 65 66 135 255 
-3.03668 4.56633 -1.16863 65 68 135 255 
-2.92358 4.39272 -1.17078 62 73 137 255 
-2.80275 4.21293 -1.17193 64 70 136 255 
-2.67405 4.02092 -1.16734 65 66 135 255 
-2.58449 3.88343 -1.17692 62 73 137 255 
-2.49523 3.75621 -1.17883 64 69 136 255 
-2.42333 3.64813 -1.18829 64 70 136 255 
-2.32751 3.50116 -1.18492 64 70 136 255 
-2.23053 3.34904 -1.17894 67 62 133 255 
-9.4893 14.3509 5.16815 63 72 137 255 
-9.50291 14.3447 4.97627 65 68 135 255 
-9.51743 14.3555 4.79927 66 63 133 255 
-9.52731 14.371 4.62972 64 69 136 255 
-9.51573 14.3745 4.47431 66 64 134 255 
-9.52607 14.3851 4.29535 66 65 134 255 
-9.51326 14.371 4.11537 65 68 135 255 
-9.51818 14.3844 3.95041 59 81 139 255 
-9.52348 14.3808 3.80491 60 80 139 255 
-9.56173 14.4445 3.64095 53 95 141 255 
-9.51817 14.3948 3.45769 57 86 140 255 
-9.51225 14.3973 3.29173 59 81 139 255 
-9.53106 14.3922 3.14949 62 73 137 255 
-9.51109 14.3734 2.97396 63 72 137 255 
-9.52464 14.4155 2.81078 59 82 139 255 
-9.50752 14.4174 2.64886 61 78 138 255 
-9.50998 14.3659 2.50107 72 32 113 255 
-9.50391 14.368 2.33222 71 42 122 255 
-9.49248 14.3832 2.16789 72 40 120 255 
-8.50726 12.9104 1.8026 70 51 127 255 
-8.50878 12.8534 1.67184 67 62 133 255 
-8.51227 12.8835 1.52767 64 69 136 255 
-7.90705 11.9854 1.28401 69 56 130 255 
-7.90435 12.0091 1.15169 68 59 132 255 
-7.92049 11.9693 1.03636 64 69 136 255 
-7.37533 11.167 0.839622 59 82 139 255 
-5.1787 7.85877 0.50148 36 134 142 255 
-7.34474 11.1673 0.585917 60 79 138 255 
-6.25449 9.45883 0.40788 55 91 141 255 
-6.04696 9.16263 0.291307 56 89 140 255 
-6.04084 9.17057 0.187847 59 81 139 255 
-5.83244 8.87469 0.0834084 59 82 139 255 
-5.67625 8.58759 -0.00179664 56 89 140 255 
-5.67567 8.60657 -0.0989674 56 89 140 255 
-5.46905 8.30885 -0.187523 54 93 141 255 
-5.46396 8.32032 -0.281518 58 83 139 255 
-5.28865 8.01029 -0.348612 48 105 142 255 
-5.26799 7.99443 -0.43643 55 91 141 255 
-5.08491 7.72818 -0.509113 58 83 139 255 
-5.06892 7.7217 -0.595699 61 78 138 255 
-4.89998 7.42443 -0.645449 53 95 141 255 
-4.89353 7.43182 -0.728441 50 102 142 255 
-4.7092 7.16533 -0.78334 60 79 138 255 
-4.70327 7.16469 -0.864516 51 98 141 255 
-4.69568 7.12297 -0.929829 61 78 138 255 
-4.52505 6.87481 -0.975586 54 92 141 255 
-4.50842 6.86244 -1.05184 55 90 140 255 
-4.40553 6.71623 -1.10599 67 62 133 255 
-4.19838 6.37585 -1.11504 66 64 134 255 
-3.98167 6.05387 -1.1269 66 64 134 255 
-3.78962 5.77053 -1.13918 61 78 138 255 
-3.59558 5.48146 -1.14648 67 62 133 255 
-3.45122 5.24914 -1.15298 58 84 140 255 
-3.30647 5.033 -1.16182 61 77 138 255 
-3.13582 4.77497 -1.15912 62 74 137 255 
-3.0145 4.59387 -1.17093 66 63 133 255 
-2.8955 4.40894 -1.17034 64 69 136 255 
-2.76723 4.21539 -1.16787 66 64 134 255 
-2.66213 4.05676 -1.17298 63 71 136 255 
-2.56168 3.90083 -1.17741 66 65 134 255 
-2.46365 3.7585 -1.17478 63 71 136 255 
-2.38821 3.64356 -1.182 63 72 137 255 
-2.29014 3.49123 -1.17678 65 66 135 255 
-2.22944 3.39234 -1.18935 66 64 134 255 
-9.36967 14.3607 5.15089 63 72 137 255 
-9.38318 14.3545 4.9596 67 61 132 255 
-9.39225 14.3572 4.78048 67 62 133 255 
-9.38502 14.3468 4.60327 67 61 132 255 
-9.37918 14.3589 4.45145 65 68 135 255 
-9.38136 14.3572 4.26974 66 64 134 255 
-9.39405 14.3818 4.10189 66 63 133 255 
-9.40362 14.4026 3.93947 62 76 138 255 
-9.39874 14.3834 3.79026 59 82 139 255 
-9.41137 14.4086 3.6173 57 86 140 255 
-9.40395 14.4135 3.44826 57 86 140 255 
-9.39423 14.4101 3.28142 60 80 139 255 
-9.42912 14.4299 3.14501 57 86 140 255 
-9.41517 14.4199 2.97158 56 88 140 255 
-9.40744 14.4298 2.80227 56 89 140 255 
-9.40648 14.4564 2.64537 58 83 139 255 
-9.43302 14.4413 2.50409 60 79 138 255 
-9.41124 14.4194 2.33115 62 74 137 255 
-9.40459 14.442 2.16801 63 71 136 255 
-8.44466 12.9881 1.80619 70 51 127 255 
-8.46781 12.9637 1.67939 66 63 133 255 
-8.45263 12.9655 1.53121 69 56 130 255 
-7.85999 12.0746 1.28837 66 63 133 255 
-7.85766 12.0991 1.15568 68 59 132 255 
-7.89052 12.0845 1.04212 64 70 136 255 
-7.32302 11.2371 0.841501 62 74 137 255 
-7.31589 11.2517 0.715108 69 55 129 255 
-5.02239 7.73933 0.404435 46 109 142 255 
-6.22691 9.5439 0.409893 55 90 140 255 
-6.01135 9.23139 0.292315 59 82 139 255 
-5.99263 9.22004 0.188103 62 76 138 255 
-5.81542 8.9682 0.0839503 56 89 140 255 
-5.64694 8.65827 -0.00180415 53 94 141 255 
-5.63148 8.65464 -0.099121 53 94 141 255 
-5.4441 8.3825 -0.188428 54 92 141 255 
-5.4253 8.37298 -0.282169 60 79 138 255 
-5.25358 8.06436 -0.349556 55 91 141 255 
-5.22319 8.0333 -0.436794 58 83 139 255 
-5.0499 7.7785 -0.510377 59 81 139 255 
-5.06485 7.81967 -0.600848 58 83 139 255 
-4.8772 7.48946 -0.648488 52 97 141 255 
-4.86467 7.48761 -0.73097 53 94 141 255 
-4.68031 7.21749 -0.785887 57 86 140 255 
-4.67707 7.22098 -0.867828 53 95 141 255 
-4.64701 7.14415 -0.928853 64 70 136 255 
-4.49955 6.92827 -0.979235 53 95 141 255 
-4.48673 6.9216 -1.05667 58 84 140 255 
-4.35024 6.72151 -1.10244 67 62 133 255 
-4.14786 6.38407 -1.11201 65 66 135 255 
-3.93477 6.06326 -1.12414 67 62 133 255 
-3.75039 5.78788 -1.13804 61 78 138 255 
-3.55492 5.49267 -1.14424 63 71 136 255 
-3.40342 5.24629 -1.14774 60 79 138 255 
-3.27285 5.04908 -1.16088 58 84 140 255 
-3.10646 4.79412 -1.15912 62 76 138 255 
-2.97616 4.59668 -1.16697 62 74 137 255 
-2.86043 4.41434 -1.16709 64 69 136 255 
-2.73548 4.2233 -1.16539 64 69 136 255 
-2.63084 4.06322 -1.17016 66 65 134 255 
-2.52029 3.88962 -1.16933 65 66 135 255 
-2.44265 3.7768 -1.1758 65 68 135 255 
-2.3569 3.64437 -1.17755 62 73 137 255 
-2.26973 3.50683 -1.17732 63 72 137 255 
-2.19814 3.38985 -1.18372 64 70 136 255 
-9.30574 14.4558 5.16441 63 72 137 255 
-9.3095 14.4344 4.96738 66 64 134 255 
-9.2998 14.4081 4.77833 66 65 134 255 
-9.3031 14.4138 4.60639 68 59 132 255 
-9.28723 14.4105 4.44969 68 59 132 255 
-9.28889 14.408 4.26781 66 65 134 255 
-9.29035 14.4155 4.09516 67 62 133 255 
-9.28393 14.4116 3.9263 61 77 138 255 
-9.30131 14.4268 3.7866 58 83 139 255 
-9.30423 14.4373 3.6101 56 88 140 255 
-9.29517 14.4396 3.44079 56 88 140 255 
-9.27747 14.4237 3.27149 60 80 139 255 
-9.29455 14.4163 3.12957 55 91 141 255 
-9.29823 14.4335 2.96256 58 83 139 255 
-9.29149 14.4449 2.79408 53 94 141 255 
-9.28663 14.4656 2.63658 57 86 140 255 
-9.30778 14.4424 2.49432 60 80 139 255 
-9.29308 14.4311 2.32377 60 80 139 255 
-9.28362 14.4493 2.16053 60 80 139 255 
-8.37983 13.0631 1.80944 70 48 126 255 
-8.40695 13.0446 1.68316 67 62 133 255 
-8.40683 13.0699 1.53742 66 64 134 255 
-7.83312 12.1964 1.29621 64 69 136 255 
-7.81661 12.1992 1.16063 66 65 134 255 
-7.82811 12.1511 1.04371 69 56 130 255 
-7.29333 11.3431 0.846072 58 83 139 255 
-7.26666 11.3274 0.717076 60 80 139 255 
-4.95919 7.7456 0.403165 49 104 142 255 
-6.18392 9.60629 0.410935 56 88 140 255 
-5.98378 9.31352 0.293748 56 89 140 255 
-5.94134 9.26505 0.188274 61 77 138 255 
-5.77644 9.02898 0.084186 60 80 139 255 
-5.60561 8.71126 -0.00180799 58 84 140 255 
-5.59826 8.72017 -0.0994761 54 92 141 255 
-5.39742 8.42332 -0.188597 57 85 140 255 
-5.38244 8.41959 -0.282621 62 74 137 255 
-5.22183 8.12418 -0.350754 51 98 141 255 
-5.17003 8.05931 -0.436475 60 80 139 255 
-5.03116 7.85474 -0.513345 59 81 139 255 
-5.02752 7.86742 -0.602135 58 83 139 255 
-4.85325 7.55364 -0.651455 52 97 141 255 
-4.83531 7.54333 -0.7335 56 89 140 255 
-4.6515 7.27039 -0.788525 57 85 140 255 
-4.64714 7.27217 -0.870538 51 98 141 255 
-4.59396 7.1583 -0.927012 66 63 133 255 
-4.47035 6.97665 -0.982178 55 90 140 255 
-4.45326 6.96321 -1.05883 58 83 139 255 
-4.30732 6.74558 -1.10203 68 59 132 255 
-4.11342 6.4169 -1.11331 63 72 137 255 
-3.90015 6.09145 -1.12491 67 61 132 255 
-3.73766 5.84653 -1.14504 58 83 139 255 
-3.52115 5.51438 -1.14424 63 71 136 255 
-3.36003 5.24968 -1.14395 62 73 137 255 
-3.22911 5.04921 -1.15633 61 77 138 255 
-3.07698 4.81309 -1.15912 61 78 138 255 
-2.94211 4.60579 -1.16467 61 77 138 255 
-2.84539 4.45072 -1.17208 65 66 135 255 
-2.69955 4.2244 -1.1611 65 66 135 255 
-2.6111 4.08748 -1.17251 64 70 136 255 
-2.50839 3.9238 -1.17496 66 64 134 255 
-2.42047 3.79334 -1.1763 66 65 134 255 
-2.33605 3.6612 -1.17834 65 68 135 255 
-2.24091 3.50933 -1.17352 62 73 137 255 
-2.16385 3.38225 -1.17641 66 64 134 255 
-9.28567 14.621 5.20296 64 69 136 255 
-9.28986 14.5999 5.00461 68 58 131 255 
-9.27072 14.5583 4.8092 66 64 134 255 
-9.27985 14.5733 4.63906 67 61 132 255 
-9.26615 14.5734 4.48235 68 58 131 255 
-9.26124 14.5605 4.29607 67 61 132 255 
-9.24765 14.5445 4.1156 66 65 134 255 
-9.27166 14.5884 3.95889 63 72 137 255 
-9.27446 14.5809 3.81202 61 77 138 255 
-9.25327 14.5536 3.62491 59 82 139 255 
-9.24897 14.5634 3.45671 59 82 139 255 
-9.23089 14.5467 3.28648 63 71 136 255 
-9.23285 14.5154 3.13873 59 82 139 255 
-9.2465 14.5485 2.97447 56 89 140 255 
-9.22172 14.5317 2.79986 58 84 140 255 
-9.20668 14.5365 2.63915 59 81 139 255 
-9.22642 14.5109 2.49633 61 78 138 255 
-9.21498 14.5045 2.32645 64 70 136 255 
-9.20381 14.5203 2.16265 62 73 137 255 
-8.32448 13.1537 1.81488 68 58 131 255 
-8.36143 13.1505 1.69017 68 58 131 255 
-8.35314 13.1632 1.54234 63 71 136 255 
-7.78106 12.2804 1.30004 62 73 137 255 
-7.75706 12.2713 1.16295 66 64 134 255 
-7.77855 12.2385 1.04709 66 64 134 255 
-7.24177 11.4163 0.848201 58 83 139 255 
-7.23547 11.4326 0.720907 62 76 138 255 
-7.22543 11.4392 0.593099 63 71 136 255 
-4.8626 7.65653 0.326246 49 104 142 255 
-5.94632 9.3813 0.294729 56 89 140 255 
-5.87101 9.28021 0.187847 62 76 138 255 
-5.73801 9.09132 0.0844373 58 83 139 255 
-5.57081 8.77504 -0.0018141 53 95 141 255 
-5.56498 8.78646 -0.0998409 58 83 139 255 
-5.34937 8.4622 -0.188729 58 84 140 255 
-5.30988 8.41948 -0.281518 66 65 134 255 
-5.19382 8.19067 -0.352242 55 90 140 255 
-5.11033 8.07485 -0.43561 60 80 139 255 
-4.99247 7.90065 -0.514334 57 86 140 255 
-4.98234 7.90318 -0.602521 59 81 139 255 
-4.81749 7.60013 -0.652903 54 93 141 255 
-4.8145 7.61329 -0.737416 52 96 141 255 
-4.61531 7.31227 -0.789981 58 84 140 255 
-4.61676 7.32328 -0.873247 51 98 141 255 
-4.53347 7.16032 -0.923653 64 69 136 255 
-4.4386 7.02158 -0.98465 51 99 141 255 
-4.4295 7.0206 -1.0634 54 92 141 255 
-4.26109 6.76433 -1.10081 65 66 135 255 
-4.07079 6.437 -1.11244 63 72 137 255 
-3.86165 6.1136 -1.1246 64 69 136 255 
-3.67645 5.82929 -1.13722 57 86 140 255 
-3.4841 5.53088 -1.1432 62 73 137 255 
-3.32828 5.27103 -1.14413 62 73 137 255 
-3.18288 5.04485 -1.15084 61 77 138 255 
-3.03328 4.8095 -1.15376 59 82 139 255 
-2.90858 4.61548 -1.16259 64 69 136 255 
-2.8123 4.45901 -1.16969 66 65 134 255 
-2.68293 4.25572 -1.16516 64 69 136 255 
-2.58804 4.10671 -1.17345 62 74 137 255 
-2.48479 3.93994 -1.1752 66 64 134 255 
-2.39766 3.80894 -1.17655 66 64 134 255 
-2.29554 3.64688 -1.16917 66 65 134 255 
-2.22447 3.53116 -1.17624 64 69 136 255 
-2.14408 3.39709 -1.17697 66 65 134 255 
-9.21612 14.7101 5.21447 72 38 119 255 
-9.25271 14.7404 5.03322 71 45 123 255 
-9.27038 14.7568 4.8559 69 55 129 255 
-9.25344 14.7305 4.67096 68 58 131 255 
-9.25113 14.7489 4.51878 67 61 132 255 
-9.23464 14.7173 4.32555 66 64 134 255 
-9.22645 14.7097 4.14626 68 58 131 255 
-9.22392 14.712 3.97698 64 69 136 255 
-9.22842 14.707 3.83012 60 80 139 255 
-9.24024 14.732 3.65514 58 83 139 255 
-9.237 14.7437 3.48598 58 83 139 255 
-9.22329 14.7338 3.3159 59 82 139 255 
-9.21211 14.681 3.16224 60 80 139 255 
-9.21045 14.6902 2.99181 58 84 140 255 
-9.22037 14.7285 2.82684 57 86 140 255 
-9.19692 14.7202 2.6622 59 82 139 255 
-9.19821 14.6645 2.51299 63 72 137 255 
-9.18318 14.6523 2.34108 62 74 137 255 
-9.19661 14.7077 2.18212 61 77 138 255 
-8.28727 13.2745 1.82449 71 47 125 255 
-8.3239 13.2706 1.69901 69 55 129 255 
-8.29492 13.2505 1.54657 68 57 131 255 
-7.74779 12.3955 1.30716 63 72 137 255 
-7.73014 12.3965 1.1703 65 68 135 255 
-7.72662 12.3232 1.05026 62 73 137 255 
-7.19594 11.4994 0.851081 59 81 139 255 
-7.18581 11.5098 0.722982 60 79 138 255 
-7.16145 11.4934 0.593624 66 64 134 255 
-4.81076 7.6786 0.325923 43 117 142 255 
-5.9003 9.43625 0.295313 69 55 129 255 
-5.79173 9.28043 0.187128 62 73 137 255 
-5.69534 9.14758 0.0846336 61 78 138 255 
-5.54659 8.85651 -0.00182387 53 94 141 255 
-5.53481 8.8586 -0.100273 56 89 140 255 
-5.32433 8.53813 -0.189691 57 85 140 255 
-5.23964 8.4222 -0.280529 64 70 136 255 
-5.15354 8.23849 -0.352931 52 97 141 255 
-5.05381 8.09503 -0.435018 60 79 138 255 
-4.9534 7.94639 -0.515323 57 85 140 255 
-4.93376 7.9336 -0.602521 61 78 138 255 
-4.78135 7.64646 -0.65435 50 100 142 255 
-4.78194 7.66552 -0.739619 50 101 142 255 
-4.59194 7.37511 -0.793711 57 85 140 255 
-4.5917 7.38357 -0.877061 55 91 141 255 
-4.47681 7.16777 -0.921053 62 74 137 255 
-4.4133 7.07733 -0.988652 51 99 141 255 
-4.40521 7.07796 -1.06798 52 96 141 255 
-4.21219 6.77857 -1.0989 66 65 134 255 
-4.0286 6.45766 -1.11172 62 74 137 255 
-3.8272 6.14221 -1.12552 66 63 133 255 
-3.63748 5.84672 -1.13625 62 76 138 255 
-3.45373 5.55801 -1.14441 64 69 136 255 
-3.30784 5.31055 -1.14828 61 77 138 255 
-3.15913 5.07595 -1.15349 64 70 136 255 
-3.00319 4.82719 -1.15356 59 81 139 255 
-2.88588 4.64238 -1.16488 61 77 138 255 
-2.77766 4.46458 -1.16666 64 70 136 255 
-2.65883 4.27541 -1.16606 63 72 137 255 
-2.56382 4.12417 -1.17392 61 77 138 255 
-2.46108 3.95594 -1.17545 65 68 135 255 
-2.37475 3.8244 -1.17681 63 71 136 255 
-2.27923 3.67074 -1.17231 66 65 134 255 
-2.18244 3.51204 -1.16539 65 66 135 255 
-2.12726 3.4167 -1.17922 64 69 136 255 
-11.3607 18.3829 6.49155 70 8 92 255 
-12.8715 20.7877 7.07102 71 19 101 255 
-9.57646 15.4538 5.06581 70 10 93 255 
-11.0512 17.8344 5.63357 72 29 111 255 
-11.1151 17.9645 5.48298 72 22 104 255 
-12.5398 20.2599 5.93183 71 14 97 255 
-11.0521 17.8628 5.01583 71 42 122 255 
-12.3328 19.9414 5.37006 72 26 108 255 
-12.5537 20.2817 5.26178 71 19 101 255 
-12.3585 19.9747 4.93702 72 29 111 255 
-13.1984 21.3568 5.03035 72 33 115 255 
-9.13891 14.8001 3.31815 70 8 92 255 
-9.14256 14.7707 3.16942 72 40 120 255 
-9.14864 14.7925 3.00116 71 45 123 255 
-9.14901 14.8159 2.83278 72 36 117 255 
-9.11576 14.7915 2.66493 72 35 116 255 
-9.15961 14.804 2.52722 65 66 135 255 
-9.14156 14.7868 2.35355 68 59 132 255 
-9.14161 14.8213 2.19061 69 53 129 255 
-8.2515 13.3995 1.83468 70 48 126 255 
-8.25225 13.3375 1.70106 68 57 131 255 
-8.24796 13.357 1.55307 66 64 134 255 
-7.70139 12.4911 1.31224 63 71 136 255 
-7.67117 12.4717 1.17293 65 66 135 255 
-7.68496 12.4255 1.05494 64 70 136 255 
-7.15618 11.5935 0.854776 57 86 140 255 
-7.1449 11.6021 0.726015 60 79 138 255 
-7.12898 11.5993 0.596821 62 73 137 255 
-6.07383 9.82815 0.415572 55 90 140 255 
-4.68832 7.60131 0.236982 35 138 141 255 
-5.71371 9.28173 0.186444 61 78 138 255 
-5.68201 9.25222 0.0852777 57 85 140 255 
-5.51632 8.92952 -0.0018319 52 96 141 255 
-5.49609 8.91793 -0.100561 57 86 140 255 
-5.29856 8.61407 -0.190652 58 84 140 255 
-5.15492 8.40051 -0.278748 66 65 134 255 
-5.1328 8.31843 -0.355 56 89 140 255 
-4.98781 8.09952 -0.433607 61 77 138 255 
-4.93802 8.03107 -0.51884 57 85 140 255 
-4.86881 7.93736 -0.600526 62 74 137 255 
-4.76471 7.72489 -0.658547 51 98 141 255 
-4.74683 7.71424 -0.741495 50 100 142 255 
-4.55702 7.42012 -0.795531 54 93 141 255 
-4.56608 7.44384 -0.880875 53 95 141 255 
-4.41501 7.16632 -0.917369 64 70 136 255 
-4.3854 7.12965 -0.992184 51 99 141 255 
-4.37675 7.12938 -1.07166 52 97 141 255 
-4.17259 6.80767 -1.09944 66 63 133 255 
-3.97905 6.46624 -1.10897 64 69 136 255 
-3.80496 6.19083 -1.13013 56 89 140 255 
-3.60619 5.87649 -1.13771 58 84 140 255 
-3.40361 5.55306 -1.13907 65 68 135 255 
-3.27777 5.33494 -1.14918 61 78 138 255 
-3.11405 5.07265 -1.14837 63 71 136 255 
-2.97454 4.84719 -1.15395 61 77 138 255 
-2.85632 4.65833 -1.16446 61 77 138 255 
-2.74715 4.47655 -1.16536 64 70 136 255 
-2.62796 4.28417 -1.16403 60 80 139 255 
-2.53796 4.13899 -1.17369 61 77 138 255 
-2.43017 3.96022 -1.17227 64 69 136 255 
-2.35124 3.8389 -1.17681 64 70 136 255 
-2.26423 3.697 -1.17624 64 69 136 255 
-2.15934 3.52291 -1.16457 66 65 134 255 
-2.10274 3.42396 -1.17726 68 58 131 255 
-9.331 15.3079 5.38536 72 20 103 255 
-9.29694 15.2226 5.15852 71 19 101 255 
-9.49653 15.5369 5.07386 71 19 101 255 
-10.8731 17.7898 5.5983 71 47 125 255 
-11.1337 18.2439 5.54729 72 37 118 255 
-11.176 18.3065 5.33971 72 36 117 255 
-12.1223 19.864 5.55675 71 14 97 255 
-13.3077 21.8158 5.85273 71 14 97 255 
-12.4382 20.3734 5.26566 72 29 111 255 
-12.2418 20.0602 4.93948 70 50 126 255 
-11.9924 19.6742 4.6166 72 36 117 255 
-12.0549 19.7931 4.42089 70 8 92 255 
-12.1398 19.8846 4.25066 70 48 126 255 
-13.2766 21.7644 4.39904 72 32 113 255 
-13.3682 21.9485 4.18077 71 13 96 255 
-28.9356 47.6031 8.54435 69 4 87 255 
-28.8462 47.2677 8.03879 70 7 90 255 
-28.6068 46.9138 7.43899 70 7 90 255 
-28.4412 46.7512 6.88398 70 8 92 255 
-8.18614 13.4779 1.8385 70 52 128 255 
-8.21117 13.4549 1.70958 68 59 132 255 
-8.21451 13.4873 1.56232 67 62 133 255 
-7.64478 12.5713 1.31571 60 79 138 255 
-7.60794 12.5407 1.17501 66 63 133 255 
-7.62416 12.4979 1.05711 63 71 136 255 
-7.11812 11.6917 0.858783 54 92 141 255 
-7.09639 11.6833 0.728356 60 80 139 255 
-7.09341 11.7018 0.599843 64 70 136 255 
-6.03161 9.8951 0.41683 57 85 140 255 
-5.82666 9.57798 0.297488 68 59 132 255 
-4.55811 7.50731 0.150236 43 117 142 255 
-5.63187 9.29803 0.0853798 57 86 140 255 
-5.47755 8.98967 -0.00183731 51 99 141 255 
-5.45944 8.98139 -0.100897 54 93 141 255 
-5.26531 8.6789 -0.191368 57 86 140 255 
-5.10121 8.42857 -0.278635 63 72 137 255 
-5.08582 8.3566 -0.355291 56 88 140 255 
-4.93127 8.11888 -0.433015 61 78 138 255 
-4.90884 8.09452 -0.520983 56 89 140 255 
-4.80813 7.94744 -0.599046 65 68 135 255 
-4.73432 7.7821 -0.660936 50 101 142 255 
-4.72216 7.78071 -0.745085 49 104 142 255 
-4.53514 7.48713 -0.799716 49 103 142 255 
-4.52856 7.48533 -0.882481 55 91 141 255 
-4.37199 7.19498 -0.917585 62 76 138 255 
-4.35238 7.17425 -0.994656 49 103 142 255 
-4.35244 7.18834 -1.07649 53 95 141 255 
-4.13432 6.83908 -1.1004 64 69 136 255 
-3.9393 6.49054 -1.10897 62 73 137 255 
-3.75154 6.18871 -1.12552 59 82 139 255 
-3.56035 5.88247 -1.13462 62 73 137 255 
-3.36692 5.56963 -1.13821 65 66 135 255 
-3.24242 5.35074 -1.14828 59 82 139 255 
-3.07321 5.0757 -1.14478 61 78 138 255 
-2.94373 4.86368 -1.15356 61 78 138 255 
-2.81503 4.65484 -1.15925 63 71 136 255 
-2.72216 4.4975 -1.16644 61 77 138 255 
-2.60011 4.29772 -1.16335 59 81 139 255 
-2.48988 4.11706 -1.16311 64 69 136 255 
-2.40431 3.97257 -1.17154 64 70 136 255 
-2.30863 3.82179 -1.1672 62 74 137 255 
-2.23402 3.69843 -1.17231 64 70 136 255 
-2.14914 3.55504 -1.17081 64 70 136 255 
-2.07771 3.43024 -1.17501 68 58 131 255 
-9.23838 15.3673 5.38622 72 26 108 255 
-9.17312 15.2292 5.14157 72 20 103 255 
-9.38162 15.5627 5.06339 72 24 106 255 
-10.7503 17.8338 5.5913 72 27 109 255 
-12.0917 20.0898 6.08592 70 11 94 255 
-11.0514 18.3548 5.33392 72 28 110 255 
-12.4025 20.6063 5.74302 72 24 106 255 
-12.3213 20.4805 5.47409 71 13 96 255 
-12.2842 20.4016 5.25338 72 24 106 255 
-12.1296 20.1534 4.94401 72 20 103 255 
-11.8052 19.6373 4.59087 72 32 113 255 
-11.7602 19.5787 4.3568 71 16 99 255 
-13.1025 21.7605 4.63441 72 23 105 255 
-13.1403 21.8412 4.39819 70 48 126 255 
-0 0 0 69 4 87 255 
-0 0 0 69 4 87 255 
-29.662 49.2821 8.35026 69 4 87 255 
-28.3072 47.0697 7.43604 70 8 92 255 
-15.7578 26.2641 3.853 72 41 121 255 
-15.7559 26.3034 3.57475 72 31 112 255 
-8.14435 13.5315 1.71292 67 61 132 255 
-8.15568 13.5775 1.56695 69 53 129 255 
-8.16329 13.6114 1.4193 67 61 132 255 
-7.93311 13.2595 1.23777 64 69 136 255 
-7.72164 12.8342 1.08152 62 73 137 255 
-7.06063 11.7591 0.860536 57 86 140 255 
-7.05536 11.778 0.731549 60 80 139 255 
-7.02916 11.7579 0.6005 64 70 136 255 
-5.98469 9.95505 0.417801 58 84 140 255 
-5.81407 9.6907 0.299875 57 85 140 255 
-4.48577 7.49139 0.149364 50 101 142 255 
-4.38398 7.33905 0.067143 68 59 132 255 
-5.43105 9.03768 -0.00184028 51 99 141 255 
-5.42531 9.04989 -0.10129 52 96 141 255 
-5.23198 8.7445 -0.192103 58 84 140 255 
-5.05709 8.47258 -0.279059 63 72 137 255 
-5.04937 8.41249 -0.356343 53 95 141 255 
-4.89009 8.16355 -0.433789 59 81 139 255 
-4.87805 8.15619 -0.523016 57 85 140 255 
-4.74547 7.95366 -0.597308 65 66 135 255 
-4.70034 7.83409 -0.662889 48 106 142 255 
-4.68354 7.82493 -0.746554 55 91 141 255 
-4.50699 7.54474 -0.8029 54 93 141 255 
-4.49784 7.53861 -0.885491 55 91 141 255 
-4.34565 7.25151 -0.921378 61 78 138 255 
-4.32868 7.23491 -0.999364 50 100 142 255 
-4.31995 7.2345 -1.07941 53 94 141 255 
-4.09127 6.86261 -1.10012 66 63 133 255 
-3.90702 6.52732 -1.11114 62 73 137 255 
-3.71298 6.21077 -1.12537 52 97 141 255 
-3.49891 5.86185 -1.12648 66 65 134 255 
-3.32915 5.58426 -1.137 64 70 136 255 
-3.20751 5.36716 -1.14756 59 82 139 255 
-3.03596 5.08435 -1.1425 63 71 136 255 
-2.90931 4.87407 -1.15177 62 76 138 255 
-2.78091 4.66279 -1.15696 64 70 136 255 
-2.672 4.47639 -1.1567 62 74 137 255 
-2.58068 4.3253 -1.16651 61 77 138 255 
-2.4571 4.11974 -1.15959 65 68 135 255 
-2.3784 3.98475 -1.1708 62 74 137 255 
-2.29009 3.8442 -1.16973 63 72 137 255 
-2.20387 3.69963 -1.16839 64 70 136 255 
-2.14256 3.59378 -1.17922 61 77 138 255 
-2.06105 3.45033 -1.17754 63 72 137 255 
-9.14342 15.4229 5.38594 71 19 101 255 
-9.08785 15.2992 5.14629 71 19 101 255 
-9.35832 15.7417 5.10285 72 23 105 255 
-10.6278 17.8779 5.58456 70 51 127 255 
-12.1105 20.4034 6.15827 72 27 109 255 
-11.9106 20.0593 5.8079 72 31 112 255 
-12.4188 20.9229 5.80991 72 23 105 255 
-13.0439 21.9859 5.85496 71 13 96 255 
-12.077 20.3389 5.21805 72 24 106 255 
-12.183 20.5262 5.01703 72 33 115 255 
-11.833 19.9599 4.64922 72 35 116 255 
-12.7622 21.5453 4.77691 70 7 90 255 
-11.8506 19.9576 4.23486 72 33 115 255 
-13.005 21.9198 4.39785 70 11 94 255 
-27.9372 47.1618 8.91743 69 5 89 255 
-28.0822 47.5028 8.46385 69 4 87 255 
-0 0 0 68 2 86 255 
-15.6495 26.3875 4.15343 63 71 136 255 
-15.5974 26.362 3.85325 67 62 133 255 
-15.5891 26.391 3.5736 70 50 126 255 
-8.72084 14.6926 1.85309 70 51 127 255 
-8.34102 14.0811 1.61913 63 72 137 255 
-8.15821 13.7941 1.43311 61 78 138 255 
-7.82627 13.265 1.23378 68 59 132 255 
-7.72723 13.0237 1.09347 60 79 138 255 
-7.02089 11.8572 0.864544 58 84 140 255 
-7.00124 11.852 0.733464 62 76 138 255 
-6.9924 11.8611 0.603566 64 69 136 255 
-5.94184 10.0225 0.419095 54 93 141 255 
-5.76977 9.752 0.300671 59 81 139 255 
-5.60087 9.4852 0.188428 62 76 138 255 
-4.36779 7.41492 0.0675907 35 137 142 255 
-5.39792 9.10869 -0.00184795 57 85 140 255 
-5.38647 9.11141 -0.101607 54 93 141 255 
-5.2143 8.83758 -0.193442 54 92 141 255 
-5.01109 8.51379 -0.279398 61 77 138 255 
-5.02056 8.48202 -0.357976 53 94 141 255 
-4.84397 8.20028 -0.434153 57 86 140 255 
-4.84617 8.21693 -0.524994 55 91 141 255 
-4.6814 7.95682 -0.595377 66 65 134 255 
-4.65777 7.87223 -0.663686 51 98 141 255 
-4.65419 7.88528 -0.749573 50 101 142 255 
-4.47476 7.59627 -0.805448 52 97 141 255 
-4.46562 7.59008 -0.888302 56 88 140 255 
-4.31321 7.29858 -0.923978 57 86 140 255 
-4.30489 7.2964 -1.00419 49 103 142 255 
-4.29058 7.28651 -1.08323 52 96 141 255 
-4.05009 6.8893 -1.1004 63 71 136 255 
-3.85885 6.53754 -1.10883 64 69 136 255 
-3.68434 6.24961 -1.12829 56 88 140 255 
-3.46588 5.88831 -1.12745 63 72 137 255 
-3.28934 5.59524 -1.13511 64 69 136 255 
-3.15205 5.34861 -1.13944 60 80 139 255 
-3.01318 5.11726 -1.14572 61 77 138 255 
-2.87388 4.88254 -1.14958 60 80 139 255 
-2.74381 4.66543 -1.15342 63 72 137 255 
-2.63705 4.48008 -1.15345 60 80 139 255 
-2.53927 4.31587 -1.15974 63 72 137 255 
-2.43325 4.13725 -1.16029 64 69 136 255 
-2.34407 3.98255 -1.16591 63 72 137 255 
-2.27087 3.86568 -1.172 62 73 137 255 
-2.19042 3.72889 -1.17336 61 78 138 255 
-2.12486 3.61433 -1.18166 61 78 138 255 
-2.04472 3.47118 -1.18035 64 70 136 255 
-9.40243 16.0839 5.59653 72 23 105 255 
-9.2754 15.8354 5.30743 70 10 93 255 
-9.18945 15.6758 5.06312 70 8 92 255 
-11.1172 18.9651 5.90275 72 26 108 255 
-11.8565 20.2576 6.0922 72 28 110 255 
-11.7908 20.1378 5.80959 72 20 103 255 
-12.7839 21.8424 6.04333 70 10 93 255 
-12.9802 22.1875 5.88733 71 19 101 255 
-11.8864 20.3005 5.1894 72 24 106 255 
-11.7346 20.0499 4.88292 72 37 118 255 
-11.7024 20.0186 4.64607 72 27 109 255 
-0 0 0 68 2 86 255 
-11.714 20.0062 4.22984 72 40 120 255 
-12.5224 21.4046 4.27899 72 35 116 255 
-12.816 21.9412 4.13372 71 13 96 255 
-27.8454 47.769 8.48068 69 5 89 255 
-27.7258 47.3713 7.96825 69 5 89 255 
-15.4933 26.4933 4.15504 64 69 136 255 
-15.4493 26.4812 3.85674 66 64 134 255 
-15.4264 26.4853 3.57348 71 44 122 255 
-8.58583 14.6694 1.8435 72 41 121 255 
-8.264 14.1483 1.621 64 70 136 255 
-8.05686 13.8155 1.43017 65 66 135 255 
-7.80238 13.4119 1.24296 64 70 136 255 
-7.64667 13.07 1.0934 61 78 138 255 
-6.95857 11.9181 0.865859 58 83 139 255 
-6.9505 11.9327 0.735805 62 76 138 255 
-6.95011 11.9565 0.606237 64 69 136 255 
-5.90393 10.0994 0.420784 57 85 140 255 
-5.72544 9.81399 0.301493 59 82 139 255 
-5.54357 9.52112 0.188462 62 74 137 255 
-5.52355 9.50994 0.0863772 64 69 136 255 
-5.35152 9.15804 -0.00185127 68 59 132 255 
-5.35262 9.1823 -0.10203 56 89 140 255 
-5.16852 8.8841 -0.193762 57 85 140 255 
-4.9708 8.56513 -0.280077 63 72 137 255 
-4.99512 8.55841 -0.3599 56 89 140 255 
-4.80764 8.25402 -0.435428 60 80 139 255 
-4.80369 8.26032 -0.525873 55 91 141 255 
-4.62998 7.98108 -0.595055 68 58 131 255 
-4.63501 7.94459 -0.667376 49 103 142 255 
-4.61123 7.92317 -0.75047 53 94 141 255 
-4.44607 7.65459 -0.808723 53 94 141 255 
-4.44044 7.65434 -0.892617 56 89 140 255 
-4.28686 7.35669 -0.927987 53 95 141 255 
-4.27502 7.34843 -1.00772 50 101 142 255 
-4.25326 7.32556 -1.08513 53 94 141 255 
-4.00525 6.90973 -1.09971 62 73 137 255 
-3.81368 6.55254 -1.10738 60 80 139 255 
-3.64344 6.26782 -1.12752 52 96 141 255 
-3.43463 5.918 -1.12908 57 86 140 255 
-3.25445 5.61447 -1.13493 66 65 134 255 
-3.10978 5.35169 -1.13601 60 79 138 255 
-2.98961 5.14924 -1.14875 63 72 137 255 
-2.83944 4.89246 -1.14779 61 77 138 255 
-2.7225 4.69487 -1.15654 60 79 138 255 
-2.62372 4.52067 -1.15973 63 71 136 255 
-2.51861 4.34148 -1.16245 59 82 139 255 
-2.41806 4.16976 -1.16523 62 73 137 255 
-2.31472 3.98848 -1.16346 62 74 137 255 
-2.24372 3.87368 -1.17023 64 69 136 255 
-2.1675 3.74226 -1.17336 65 68 135 255 
-2.09444 3.61314 -1.17705 61 77 138 255 
-2.01567 3.47039 -1.17585 63 71 136 255 
-9.30834 16.1496 5.5994 65 68 135 255 
-9.3539 16.1965 5.40911 60 79 138 255 
-8.95619 15.4951 4.98689 70 10 93 255 
-9.32891 16.1406 5.00575 70 51 127 255 
-9.32609 16.1609 4.84286 67 61 132 255 
-9.35765 16.2095 4.65966 68 57 131 255 
-9.33702 16.18 4.46073 67 62 133 255 
-9.33318 16.1805 4.27814 70 48 126 255 
-9.35802 16.2097 4.1289 71 47 125 255 
-9.35548 16.2123 3.93427 66 63 133 255 
-9.35201 16.2256 3.75238 66 65 134 255 
-9.31691 16.1784 3.56137 69 53 129 255 
-9.35164 16.1986 3.41263 72 37 118 255 
-9.34841 16.2066 3.22833 72 40 120 255 
-9.33996 16.2177 3.04457 72 36 117 255 
-9.29952 16.1808 2.86247 71 45 123 255 
-9.31157 16.1357 2.7045 70 8 92 255 
-15.2993 26.5338 4.14659 69 56 130 255 
-15.2628 26.5342 3.85075 71 47 125 255 
-15.2577 26.5691 3.57209 71 47 125 255 
-8.48274 14.6995 1.84069 71 42 122 255 
-8.16611 14.1798 1.61884 63 71 136 255 
-7.93222 13.7956 1.42304 65 68 135 255 
-7.70952 13.4413 1.24128 66 63 133 255 
-7.55537 13.0977 1.09182 62 73 137 255 
-6.91071 12.0047 0.869052 61 78 138 255 
-6.90052 12.0159 0.738306 66 65 134 255 
-6.88705 12.0171 0.607157 65 68 135 255 
-5.86581 10.1769 0.42251 55 90 140 255 
-5.6706 9.85847 0.301785 53 95 141 255 
-5.48504 9.55495 0.188462 60 79 138 255 
-5.48 9.56968 0.0866128 58 84 140 255 
-4.24536 7.36851 -0.00148423 32 147 140 255 
-5.30216 9.22538 -0.102145 64 69 136 255 
-5.12883 8.94167 -0.194327 57 85 140 255 
-4.93602 8.6267 -0.281094 62 74 137 255 
-4.96045 8.62008 -0.361207 56 88 140 255 
-4.77581 8.31628 -0.437158 55 91 141 255 
-4.76434 8.30956 -0.527137 55 91 141 255 
-4.58984 8.02493 -0.596214 64 70 136 255 
-4.60259 8.00141 -0.669764 54 92 141 255 
-4.57047 7.96514 -0.751776 59 81 139 255 
-4.41931 7.71716 -0.812453 50 100 142 255 
-4.41166 7.7134 -0.89633 54 93 141 255 
-4.25105 7.39923 -0.930045 50 102 142 255 
-4.25209 7.41329 -1.01302 49 104 142 255 
-4.21118 7.35669 -1.08589 62 74 137 255 
-3.95934 6.92816 -1.09876 65 68 135 255 
-3.77094 6.57152 -1.10666 64 69 136 255 
-3.59951 6.28063 -1.12583 52 96 141 255 
-3.39826 5.93896 -1.12908 50 100 142 255 
-3.23216 5.65571 -1.13924 64 70 136 255 
-3.0808 5.3775 -1.13745 62 73 137 255 
-2.93455 5.12658 -1.13966 62 73 137 255 
-2.79623 4.88682 -1.14242 62 73 137 255 
-2.69558 4.71489 -1.15738 63 71 136 255 
-2.59448 4.53414 -1.15908 61 77 138 255 
-2.49385 4.36023 -1.16335 59 81 139 255 
