ply
format ascii 1.0
comment VTK generated PLY File
obj_info vtkPolyData points and polygons: vtk4.0
element vertex 1191
property float x
property float y
property float z
property uchar red
property uchar green
property uchar blue
property uchar alpha
element face 0
property list uchar int vertex_indices
end_header
-5.66231 31.3144 6.07041 71 19 101 255 
-5.74148 31.5595 5.8526 71 17 100 255 
-5.68313 31.3031 5.48966 71 19 101 255 
-5.66891 31.3478 5.18241 71 13 96 255 
-5.58753 31.0553 4.83971 70 11 94 255 
-2.80395 15.4279 2.27638 69 56 130 255 
-5.84194 32.2099 4.43181 70 7 90 255 
-8.26609 45.8466 5.86038 70 10 93 255 
-3.81743 21.2597 2.51827 70 8 92 255 
-8.60479 47.3452 5.21909 69 4 87 255 
-0 0 0 68 2 86 255 
-0 0 0 68 2 86 255 
-2.75959 15.4148 1.25446 67 62 133 255 
-2.80439 15.4456 1.13352 60 79 138 255 
-2.78751 15.4304 0.983765 56 89 140 255 
-2.76841 15.4162 0.834558 70 52 128 255 
-2.74528 15.3657 0.684234 69 53 129 255 
-2.70185 14.9104 0.54505 71 45 123 255 
-2.62095 14.5374 0.391973 69 56 130 255 
-2.45144 13.6648 0.237481 62 73 137 255 
-2.44056 13.6877 0.109201 63 71 136 255 
-2.33832 12.9171 -0.00229109 69 55 129 255 
-2.24233 12.4623 -0.121554 59 82 139 255 
-2.22158 12.4085 -0.237641 61 77 138 255 
-2.10583 11.8343 -0.339954 57 85 140 255 
-2.10869 11.6834 -0.431183 54 92 141 255 
-2.07033 11.5294 -0.533971 58 84 140 255 
-1.94046 10.8492 -0.60654 61 77 138 255 
-1.89101 10.6378 -0.696806 58 84 140 255 
-1.9135 10.6125 -0.782441 56 88 140 255 
-1.8541 10.346 -0.860455 56 89 140 255 
-1.83929 10.3147 -0.957203 54 92 141 255 
-1.76679 9.93896 -1.01827 64 69 136 255 
-1.65863 9.22659 -1.02171 62 74 137 255 
-1.54702 8.64116 -1.04056 50 100 142 255 
-1.44887 8.13345 -1.05832 59 82 139 255 
-1.35113 7.6161 -1.06507 55 90 140 255 
-1.29526 7.22694 -1.0724 53 94 141 255 
-1.22282 6.84404 -1.08126 50 102 142 255 
-1.15302 6.47921 -1.08594 56 89 140 255 
-1.09382 6.16569 -1.09514 55 91 141 255 
-1.05365 5.90255 -1.10044 53 94 141 255 
-1.00061 5.61736 -1.10083 56 88 140 255 
-0.957432 5.38011 -1.10881 55 91 141 255 
-0.916775 5.16249 -1.11736 59 82 139 255 
-0.884695 4.9711 -1.12031 56 89 140 255 
-0.84403 4.74792 -1.11687 56 89 140 255 
-0.814815 4.58799 -1.12646 57 85 140 255 
-0.786151 4.41798 -1.13215 61 77 138 255 
-0.753868 4.25748 -1.13027 63 71 136 255 
-0.732074 4.13488 -1.13932 57 86 140 255 
-0.706856 3.98414 -1.14043 61 77 138 255 
-0.685268 3.84327 -1.1438 62 76 138 255 
-1.77005 10.1218 3.08668 72 35 116 255 
-1.93181 10.9912 3.22741 69 53 129 255 
-1.79441 10.1881 2.88251 70 52 128 255 
-1.77272 10.0661 2.74443 62 76 138 255 
-2.45233 13.9803 3.68396 70 52 128 255 
-2.27369 12.9496 3.27321 71 46 124 255 
-2.41601 13.7736 3.33916 72 33 115 255 
-0 0 0 69 4 87 255 
-0 0 0 68 1 84 255 
-0 0 0 68 1 84 255 
-0 0 0 68 2 86 255 
-5.48627 31.4414 6.08839 69 5 89 255 
-5.43952 30.9778 5.73844 72 23 105 255 
-5.54792 31.6626 5.54662 71 13 96 255 
-5.54823 31.7932 5.25033 70 10 93 255 
-5.37676 30.9732 4.82167 72 24 106 255 
-2.70804 15.438 2.27537 54 93 141 255 
-6.0235 34.4121 4.72965 70 10 93 255 
-3.7062 21.3036 2.72019 70 51 127 255 
-3.68708 21.2837 2.51839 71 13 96 255 
-3.74439 21.346 2.3505 70 51 127 255 
-3.72398 21.3408 2.14319 71 45 123 255 
-3.71683 21.3868 1.94115 72 33 115 255 
-2.66309 15.4206 1.25358 63 71 136 255 
-2.70354 15.4281 1.131 69 53 129 255 
-2.68986 15.4305 0.982701 59 82 139 255 
-2.67257 15.426 0.834186 59 81 139 255 
-2.65383 15.399 0.684978 71 47 125 255 
-2.66247 15.225 0.555941 61 77 138 255 
-2.41383 13.8757 0.373723 64 70 136 255 
-2.38017 13.7525 0.238746 65 66 135 255 
-2.33805 13.595 0.108345 66 65 134 255 
-2.26883 12.9873 -0.00230104 69 53 129 255 
-2.1636 12.463 -0.121429 62 76 138 255 
-2.12056 12.278 -0.234889 62 76 138 255 
-2.03166 11.8381 -0.339699 59 82 139 255 
-2.03833 11.704 -0.431473 55 90 140 255 
-1.94771 11.2427 -0.520128 58 83 139 255 
-1.8803 10.8982 -0.608628 63 71 136 255 
-1.81997 10.6157 -0.694617 56 89 140 255 
-1.81911 10.456 -0.770066 58 83 139 255 
-1.78481 10.3238 -0.85768 54 92 141 255 
-1.7736 10.312 -0.955929 56 88 140 255 
-1.70056 9.91921 -1.01516 64 69 136 255 
-1.60368 9.24639 -1.02279 62 74 137 255 
-1.49244 8.64168 -1.0395 55 91 141 255 
-1.39457 8.11677 -1.05502 56 88 140 255 
-1.30571 7.63206 -1.06616 51 99 141 255 
-1.24802 7.21818 -1.06995 52 96 141 255 
-1.18029 6.84849 -1.0808 49 104 142 255 
-1.11124 6.47449 -1.08398 56 88 140 255 
-1.05563 6.17034 -1.09479 57 85 140 255 
-1.01574 5.89921 -1.09864 52 96 141 255 
-0.965792 5.62145 -1.10045 57 85 140 255 
-0.923905 5.38299 -1.10822 52 97 141 255 
-0.881945 5.14971 -1.1134 59 81 139 255 
-0.859626 5.00818 -1.12746 55 90 140 255 
-0.816034 4.75973 -1.11845 54 93 141 255 
-0.781725 4.56416 -1.11941 62 76 138 255 
-0.75952 4.42559 -1.13288 62 74 137 255 
-0.730173 4.27633 -1.13407 60 80 139 255 
-0.703928 4.12312 -1.13487 59 82 139 255 
-0.679962 3.97417 -1.13636 60 79 138 255 
-0.65907 3.83227 -1.1393 63 72 137 255 
-1.72447 10.2307 3.1166 63 72 137 255 
-1.71701 10.1334 2.97237 57 85 140 255 
-2.1294 12.5399 3.54416 72 36 117 255 
-1.70979 10.0701 2.74262 66 65 134 255 
-2.24515 13.2773 3.49504 66 65 134 255 
-2.26139 13.3604 3.37347 62 73 137 255 
-2.3321 13.792 3.34009 72 38 119 255 
-2.33708 13.8377 3.21413 72 38 119 255 
-0 0 0 68 1 84 255 
-0 0 0 68 1 84 255 
-0 0 0 68 2 86 255 
-5.21228 30.993 5.99527 70 11 94 255 
-5.24523 30.9864 5.73396 72 23 105 255 
-5.36388 31.7573 5.55734 72 20 103 255 
-5.38383 32.0097 5.28051 70 11 94 255 
-5.19297 31.0436 4.82759 72 26 108 255 
-2.6131 15.4533 2.27523 43 117 142 255 
-2.87595 17.0454 2.34027 72 29 111 255 
-2.8393 16.9353 2.16015 72 38 119 255 
-2.83555 16.9873 2.00793 70 48 126 255 
-2.8734 16.9927 1.86916 70 8 92 255 
-2.85684 16.9863 1.70409 72 23 105 255 
-2.84108 16.9641 1.53812 72 32 113 255 
-2.56351 15.4072 1.25118 64 69 136 255 
-2.60251 15.4071 1.12826 57 85 140 255 
-2.58653 15.3955 0.979445 55 91 141 255 
-2.57573 15.4293 0.833494 58 84 140 255 
-2.55585 15.3943 0.684058 68 57 131 255 
-2.38678 14.16 0.516509 68 59 132 255 
-2.33707 13.9405 0.375076 64 69 136 255 
-2.28538 13.7047 0.237669 64 70 136 255 
-2.1513 12.9856 0.103381 62 73 137 255 
-2.13397 12.6736 -0.0022431 66 65 134 255 
-2.06679 12.3547 -0.120249 60 79 138 255 
-2.04207 12.272 -0.234531 61 78 138 255 
-1.95083 11.8011 -0.338286 59 81 139 255 
-1.93224 11.5123 -0.42396 59 82 139 255 
-1.87375 11.2249 -0.518761 58 84 140 255 
-1.80063 10.8328 -0.604342 57 85 140 255 
-1.75171 10.608 -0.693395 58 84 140 255 
-1.76036 10.4995 -0.772454 58 83 139 255 
-1.71259 10.2815 -0.853275 55 91 141 255 
-1.71045 10.3237 -0.95602 52 97 141 255 
-1.64404 9.95597 -1.01787 62 73 137 255 
-1.54692 9.25605 -1.02279 62 74 137 255 
-1.44347 8.67516 -1.04245 53 95 141 255 
-1.34231 8.11049 -1.05311 55 91 141 255 
-1.25627 7.62429 -1.06398 57 85 140 255 
-1.20517 7.23448 -1.07125 50 102 142 255 
-1.13744 6.85073 -1.08003 50 102 142 255 
-1.07294 6.48995 -1.08545 52 96 141 255 
-1.01519 6.16115 -1.09204 57 85 140 255 
-0.976145 5.88495 -1.09485 52 97 141 255 
-0.931442 5.62824 -1.10064 58 83 139 255 
-0.894535 5.4108 -1.11279 57 86 140 255 
-0.852877 5.17046 -1.11673 58 84 140 255 
-0.826014 4.99603 -1.12356 57 85 140 255 
-0.785702 4.75792 -1.11687 56 89 140 255 
-0.755129 4.5775 -1.12152 60 80 139 255 
-0.731086 4.42252 -1.13093 62 76 138 255 
-0.702978 4.275 -1.13255 59 81 139 255 
-0.676737 4.11593 -1.13173 62 73 137 255 
-0.655721 3.97922 -1.13663 63 71 136 255 
-0.636641 3.84287 -1.14127 63 72 137 255 
-1.66043 10.2335 3.1143 67 61 132 255 
-1.81674 11.1364 3.26325 56 88 140 255 
-1.74853 10.6942 3.01941 72 37 118 255 
-2.03051 12.4203 3.37926 71 45 123 255 
-2.15228 13.2211 3.4767 72 38 119 255 
-2.18796 13.4267 3.38675 63 72 137 255 
-2.23368 13.7215 3.31965 72 32 113 255 
-2.25041 13.8412 3.21168 72 37 118 255 
-0 0 0 68 1 84 255 
-0 0 0 68 1 84 255 
-0 0 0 68 2 86 255 
-0 0 0 68 2 86 255 
-5.18539 31.8181 5.88186 71 19 101 255 
-5.13255 31.5659 5.51823 72 23 105 255 
-5.16129 31.8813 5.25402 71 14 97 255 
-5.05125 31.3784 4.87473 72 22 104 255 
-2.5141 15.4437 2.27149 43 117 142 255 
-2.74748 16.916 2.32015 54 92 141 255 
-2.73011 16.9201 2.15603 59 81 139 255 
-2.71158 16.8818 1.99345 62 73 137 255 
-2.76381 16.9776 1.8656 54 92 141 255 
-2.74573 16.9613 1.69986 54 92 141 255 
-2.73488 16.9684 1.53696 57 85 140 255 
-2.46152 15.3763 1.24743 64 70 136 255 
-2.50296 15.3922 1.12603 58 83 139 255 
-2.48947 15.3954 0.978443 54 93 141 255 
-2.47705 15.4202 0.832164 56 89 140 255 
-2.30109 14.4064 0.63952 66 63 133 255 
-2.31058 14.2404 0.518917 66 64 134 255 
-2.25818 13.996 0.37619 65 68 135 255 
-2.13535 13.3078 0.230554 64 70 136 255 
-2.07363 13.0114 0.103483 64 70 136 255 
-2.02945 12.5216 -0.00221395 59 82 139 255 
-1.99683 12.4037 -0.120604 61 78 138 255 
-1.96578 12.2784 -0.234418 63 72 137 255 
-1.87807 11.8108 -0.338229 61 77 138 255 
-1.85885 11.5071 -0.423343 58 83 139 255 
-1.79787 11.1928 -0.516758 57 86 140 255 
-1.73649 10.8584 -0.605166 60 79 138 255 
-1.67892 10.5703 -0.690241 61 78 138 255 
-1.69654 10.514 -0.772744 59 81 139 255 
-1.64442 10.2603 -0.850664 55 91 141 255 
-1.64426 10.3163 -0.954382 55 91 141 255 
-1.58245 9.96292 -1.01757 66 63 133 255 
-1.48757 9.24967 -1.02106 60 79 138 255 
-1.3877 8.66817 -1.04056 58 84 140 255 
-1.29065 8.10682 -1.05159 54 93 141 255 
-1.21195 7.64751 -1.06616 55 91 141 255 
-1.16139 7.24565 -1.07183 50 102 142 255 
-1.09772 6.87222 -1.08234 49 103 142 255 
-1.03682 6.5198 -1.08936 51 98 141 255 
-0.975979 6.15851 -1.09049 54 92 141 255 
-0.939707 5.88889 -1.09449 55 91 141 255 
-0.894883 5.62125 -1.09817 54 92 141 255 
-0.862241 5.42199 -1.11398 58 83 139 255 
-0.815159 5.13792 -1.10861 62 76 138 255 
-0.792584 4.98365 -1.11966 55 90 140 255 
-0.758021 4.77227 -1.11913 56 88 140 255 
-0.726876 4.58109 -1.12129 59 82 139 255 
-0.702565 4.4183 -1.12873 62 73 137 255 
-0.676885 4.28019 -1.1328 62 74 137 255 
-0.650716 4.11524 -1.13042 62 76 138 255 
-0.630087 3.97556 -1.13446 61 77 138 255 
-0.617128 3.8723 -1.14886 64 69 136 255 
-1.62728 10.4337 3.17212 69 55 129 255 
-1.73647 11.0714 3.24102 69 55 129 255 
-1.60643 10.2184 2.88225 72 41 121 255 
-1.61878 10.2983 2.79915 66 64 134 255 
-1.64085 10.4848 2.75443 67 62 133 255 
-2.13317 13.6162 3.43121 71 45 123 255 
-2.09259 13.3717 3.23186 61 78 138 255 
-1.87056 11.9681 2.77433 62 73 137 255 
-0 0 0 68 1 84 255 
-0 0 0 68 2 86 255 
-0 0 0 68 1 84 255 
-5.50823 35.404 6.83492 70 10 93 255 
-5.12924 32.7376 6.04591 71 19 101 255 
-4.99005 31.9249 5.57553 72 24 106 255 
-4.96952 31.9378 5.2582 71 16 99 255 
-5.13257 33.1797 5.1496 70 10 93 255 
-2.41439 15.4275 2.2669 44 115 142 255 
-2.63293 16.864 2.31076 62 74 137 255 
-5.52387 35.6231 4.53486 70 8 92 255 
-7.23645 46.8885 5.53138 69 5 89 255 
-2.66773 17.0463 1.87132 71 44 122 255 
-12.0209 77.2597 7.73542 69 5 89 255 
-0 0 0 68 2 86 255 
-2.36485 15.3764 1.24623 66 65 134 255 
-2.40601 15.3915 1.12488 60 80 139 255 
-2.39373 15.4025 0.977942 55 91 141 255 
-2.37858 15.4104 0.830834 61 78 138 255 
-2.23644 14.5753 0.646396 69 55 129 255 
-2.25288 14.4449 0.525855 65 68 135 255 
-2.1528 13.8841 0.372821 65 66 135 255 
-2.0829 13.5104 0.233838 67 62 133 255 
-1.96606 12.843 0.102046 64 69 136 255 
-1.93318 12.4093 -0.00219196 59 82 139 255 
-1.90754 12.3308 -0.119778 61 78 138 255 
-1.88083 12.228 -0.233231 58 84 140 255 
-1.85371 12.1374 -0.347247 63 72 137 255 
-1.8086 11.6497 -0.428171 59 82 139 255 
-1.72825 11.1976 -0.516484 54 92 141 255 
-1.66604 10.8442 -0.603793 62 76 138 255 
-1.61342 10.5764 -0.689984 56 88 140 255 
-1.62099 10.4533 -0.767533 56 89 140 255 
-1.58143 10.2702 -0.850664 52 97 141 255 
-1.57656 10.2976 -0.951744 54 93 141 255 
-1.51829 9.95277 -1.01556 65 68 135 255 
-1.42957 9.25076 -1.02019 60 80 139 255 
-1.33192 8.65983 -1.03856 57 85 140 255 
-1.23879 8.10086 -1.04981 56 88 140 255 
-1.1662 7.66263 -1.06725 55 90 140 255 
-1.1145 7.23699 -1.06951 53 94 141 255 
-1.05014 6.84366 -1.07681 52 96 141 255 
-0.993222 6.50263 -1.08545 55 91 141 255 
-0.938617 6.1673 -1.091 59 82 139 255 
-0.902811 5.88968 -1.09359 54 92 141 255 
-0.85993 5.62372 -1.0976 52 97 141 255 
-0.824073 5.39521 -1.10742 61 77 138 255 
-0.785828 5.15733 -1.11173 62 73 137 255 
-0.760221 4.97684 -1.11706 55 90 140 255 
-0.731517 4.79513 -1.12342 56 89 140 255 
-0.697142 4.57489 -1.1187 60 79 138 255 
-0.671197 4.39473 -1.12163 60 79 138 255 
-0.650029 4.28044 -1.13179 62 76 138 255 
-0.624873 4.11534 -1.12937 62 74 137 255 
-0.604378 3.97079 -1.13202 64 69 136 255 
-0.588419 3.84376 -1.1393 66 65 134 255 
-1.55585 10.3942 3.15716 72 20 103 255 
-1.53292 10.1813 2.97765 67 61 132 255 
-1.97053 13.0561 3.67917 69 55 129 255 
-1.56002 10.3376 2.80719 63 72 137 255 
-1.8678 12.4339 3.26341 66 64 134 255 
-1.85174 12.3135 3.1 71 45 123 255 
-2.00993 13.3805 3.23093 70 50 126 255 
-2.01199 13.4118 3.10608 70 10 93 255 
-0 0 0 68 1 84 255 
-0 0 0 68 1 84 255 
-0 0 0 68 1 84 255 
-5.31453 35.5955 6.86546 71 13 96 255 
-5.33735 35.4884 6.54776 70 10 93 255 
-4.87273 32.4792 5.66701 71 13 96 255 
-4.81704 32.2595 5.30621 71 14 97 255 
-4.98635 33.5978 5.20963 70 7 90 255 
-2.3163 15.4195 2.26359 47 108 142 255 
-2.52691 16.8632 2.30848 53 95 141 255 
-0 0 0 69 4 87 255 
-0 0 0 69 4 87 255 
-2.60149 17.318 1.89935 70 8 92 255 
-0 0 0 68 2 86 255 
-2.91165 19.5928 1.7713 69 5 89 255 
-2.26653 15.364 1.24408 68 58 131 255 
-2.3093 15.3912 1.1238 59 82 139 255 
-2.29403 15.3823 0.97575 53 94 141 255 
-2.27798 15.3842 0.828652 57 86 140 255 
-2.14871 14.6006 0.646921 68 57 131 255 
-2.12722 14.2114 0.516868 60 80 139 255 
-2.05742 13.8289 0.370991 62 76 138 255 
-1.96193 13.2657 0.229391 65 66 135 255 
-1.87197 12.7509 0.101221 66 63 133 255 
-1.85183 12.3863 -0.00218585 53 95 141 255 
-1.82303 12.2829 -0.119202 59 82 139 255 
-1.79569 12.1711 -0.23193 68 59 132 255 
-1.74096 11.8874 -0.339784 64 70 136 255 
-1.72604 11.5864 -0.425449 58 83 139 255 
-1.65761 11.1952 -0.515893 56 89 140 255 
-1.58317 10.7435 -0.597638 61 77 138 255 
-1.5394 10.5239 -0.685929 55 90 140 255 
-1.54655 10.3939 -0.762468 57 85 140 255 
-1.52115 10.2984 -0.852214 55 90 140 255 
-1.5116 10.2953 -0.950652 51 98 141 255 
-1.45503 9.94713 -1.01405 65 66 135 255 
-1.37322 9.26231 -1.02051 58 84 140 255 
-1.27644 8.65212 -1.03668 55 90 140 255 
-1.18762 8.0985 -1.04854 54 93 141 255 
-1.11787 7.66082 -1.06602 57 85 140 255 
-1.07007 7.24369 -1.06951 50 100 142 255 
-1.00842 6.85193 -1.07711 53 94 141 255 
-0.954448 6.51641 -1.08675 52 97 141 255 
-0.900758 6.17294 -1.091 61 78 138 255 
-0.866655 5.89511 -1.09359 53 95 141 255 
-0.825407 5.62889 -1.0976 51 99 141 255 
-0.789107 5.38756 -1.10484 61 78 138 255 
-0.754734 5.16593 -1.11257 60 79 138 255 
-0.731791 4.9959 -1.12031 57 85 140 255 
-0.698696 4.77639 -1.118 57 86 140 255 
-0.670323 4.58774 -1.12082 57 86 140 255 
-0.646326 4.41316 -1.1253 60 80 139 255 
-0.623334 4.28147 -1.13103 60 80 139 255 
-0.600583 4.12578 -1.1312 58 83 139 255 
-0.580002 3.97443 -1.13202 63 71 136 255 
-0.564126 3.84255 -1.13789 63 72 137 255 
-1.78599 12.4532 3.77916 64 70 136 255 
-1.88734 13.08 3.82194 69 53 129 255 
-1.89066 13.0699 3.67971 61 77 138 255 
-1.50749 10.4225 2.82768 70 48 126 255 
-1.95959 13.613 3.56965 69 53 129 255 
-1.78999 12.4206 3.12415 64 70 136 255 
-1.92876 13.3993 3.23256 72 20 103 255 
-0 0 0 68 2 86 255 
-0 0 0 68 1 84 255 
-0 0 0 68 1 84 255 
-0 0 0 68 2 86 255 
-1.74235 12.1811 2.34733 71 42 122 255 
-5.08764 35.2995 6.50702 71 16 99 255 
-4.64194 32.29 5.62892 70 10 93 255 
-4.98047 34.8152 5.72144 71 13 96 255 
-4.95065 34.8275 5.3955 70 10 93 255 
-2.21502 15.3874 2.25684 56 88 140 255 
-2.4255 16.8931 2.31049 45 112 142 255 
-4.92783 34.5763 4.39357 70 10 93 255 
-6.67557 47.08 5.54388 70 7 90 255 
-2.20692 15.3311 1.67993 72 23 105 255 
-6.71761 46.9614 4.69327 70 7 90 255 
-2.80597 19.7128 1.78056 71 13 96 255 
-2.16831 15.3499 1.24184 68 58 131 255 
-2.21255 15.3893 1.12264 57 86 140 255 
-2.19819 15.3862 0.975124 51 99 141 255 
-2.18018 15.3742 0.827375 57 85 140 255 
-2.05142 14.5591 0.644513 65 66 135 255 
-2.01189 14.0283 0.509751 64 70 136 255 
-1.96054 13.7571 0.368736 64 69 136 255 
-1.87854 13.2637 0.229151 61 77 138 255 
-1.80539 12.8453 0.101881 62 74 137 255 
-1.77367 12.3826 -0.00218323 62 76 138 255 
-1.73623 12.2136 -0.118425 59 82 139 255 
-1.71455 12.1363 -0.231063 60 80 139 255 
-1.64814 11.7563 -0.335741 64 69 136 255 
-1.63755 11.4751 -0.420984 61 78 138 255 
-1.57416 11.1013 -0.511111 54 92 141 255 
-1.51359 10.7274 -0.596209 59 81 139 255 
-1.47853 10.5598 -0.687667 58 83 139 255 
-1.48485 10.4181 -0.763553 57 85 140 255 
-1.45654 10.2977 -0.851398 55 90 140 255 
-1.44633 10.2896 -0.949287 55 90 140 255 
-1.39618 9.97164 -1.01566 64 70 136 255 
-1.3158 9.26662 -1.02008 50 100 142 255 
-1.22249 8.65389 -1.03597 57 86 140 255 
-1.13983 8.11938 -1.05032 52 96 141 255 
-1.07084 7.66754 -1.06602 55 90 140 255 
-1.02588 7.25208 -1.0698 49 104 142 255 
-0.965941 6.85506 -1.07665 50 101 142 255 
-0.91335 6.51433 -1.08545 55 91 141 255 
-0.86232 6.17445 -1.09032 57 86 140 255 
-0.830878 5.90324 -1.09413 51 99 141 255 
-0.790854 5.63385 -1.0976 52 97 141 255 
-0.755762 5.39036 -1.10444 58 83 139 255 
-0.722886 5.16949 -1.11236 58 84 140 255 
-0.699497 4.98869 -1.11771 57 86 140 255 
-0.669916 4.78445 -1.11891 56 89 140 255 
-0.642564 4.59465 -1.12152 60 80 139 255 
-0.619235 4.41704 -1.1253 59 81 139 255 
-0.596651 4.28234 -1.13027 60 79 138 255 
-0.576322 4.13704 -1.1333 62 76 138 255 
-0.556936 3.98744 -1.13473 65 68 135 255 
-0.541874 3.85544 -1.1407 62 73 137 255 
-1.73245 12.6309 3.82979 68 59 132 255 
-1.71063 12.3928 3.61802 60 79 138 255 
-1.81267 13.0975 3.68427 72 24 106 255 
-1.8854 13.625 3.6933 67 62 133 255 
-1.7065 12.3935 3.24708 64 70 136 255 
-1.71229 12.4208 3.1215 70 50 126 255 
-1.7876 12.9831 3.12943 71 47 125 255 
-0 0 0 68 1 84 255 
-0 0 0 68 1 84 255 
-0 0 0 68 1 84 255 
-1.73897 12.6789 2.56419 62 76 138 255 
-1.66757 12.1916 2.34733 72 23 105 255 
-4.92604 35.7296 6.58061 70 8 92 255 
-4.77421 34.7214 6.04755 70 10 93 255 
-4.63565 33.8868 5.56408 70 11 94 255 
-6.44878 47.4548 7.34546 69 4 87 255 
-2.11719 15.3762 2.25325 71 45 123 255 
-2.31655 16.8693 2.30526 47 107 142 255 
-4.71049 34.5686 4.38883 71 17 100 255 
-0 0 0 69 4 87 255 
-2.11796 15.3818 1.68402 70 51 127 255 
-10.5337 77.0065 7.68935 69 4 87 255 
-2.66817 19.6063 1.76943 72 23 105 255 
-2.06822 15.3195 1.23833 72 36 117 255 
-2.114 15.3729 1.12048 59 82 139 255 
-2.10023 15.3737 0.973496 53 94 141 255 
-2.08379 15.3724 0.826577 59 82 139 255 
-1.95125 14.4912 0.640965 64 69 136 255 
-1.91233 13.9424 0.506192 64 70 136 255 
-1.84087 13.5104 0.361813 62 76 138 255 
-1.74749 12.9083 0.222823 64 70 136 255 
-1.69991 12.658 0.10031 62 76 138 255 
-1.69915 12.4042 -0.00218515 60 79 138 255 
-1.6587 12.2052 -0.118242 63 71 136 255 
-1.6363 12.1189 -0.230535 62 73 137 255 
-1.58858 11.8603 -0.338427 64 70 136 255 
-1.56117 11.4414 -0.419387 57 86 140 255 
-1.52077 11.2196 -0.51612 58 83 139 255 
-1.43746 10.6602 -0.591978 62 74 137 255 
-1.40829 10.5282 -0.685028 56 88 140 255 
-1.40528 10.3123 -0.755158 56 89 140 255 
-1.38785 10.266 -0.848053 56 89 140 255 
-1.37998 10.2746 -0.947104 50 100 142 255 
-1.33813 10.0037 -1.01807 64 70 136 255 
-1.25638 9.25581 -1.01802 56 88 140 255 
-1.16871 8.65631 -1.03538 58 84 140 255 
-1.08867 8.11639 -1.04905 53 95 141 255 
-1.02286 7.66709 -1.06507 55 91 141 255 
-0.980968 7.2553 -1.06937 48 105 142 255 
-0.923861 6.86086 -1.07665 54 93 141 255 
-0.872445 6.51296 -1.08431 54 92 141 255 
-0.823766 6.17475 -1.08945 62 76 138 255 
-0.793723 5.9014 -1.09286 53 94 141 255 
-0.756662 5.64151 -1.09817 51 98 141 255 
-0.720201 5.37644 -1.10066 60 79 138 255 
-0.693225 5.18934 -1.11569 59 82 139 255 
-0.667707 4.98418 -1.11576 58 84 140 255 
-0.639384 4.77978 -1.11687 56 89 140 255 
-0.616677 4.61585 -1.12575 59 82 139 255 
-0.592894 4.42652 -1.12677 61 77 138 255 
-0.569215 4.27729 -1.128 63 72 137 255 
-0.550545 4.13763 -1.13251 63 71 136 255 
-0.534241 4.00414 -1.13853 65 68 135 255 
-0.517568 3.85394 -1.1393 65 68 135 255 
-1.65368 12.6318 3.82692 66 63 133 255 
-1.6205 12.2964 3.5869 54 92 141 255 
-1.77076 13.3996 3.76614 69 55 129 255 
-1.78506 13.5099 3.65907 65 66 135 255 
-1.57731 11.9998 3.14131 63 71 136 255 
-1.77444 13.4826 3.38555 72 40 120 255 
-1.64225 12.4942 3.00912 65 66 135 255 
-1.75019 13.3354 3.0804 72 38 119 255 
-1.7596 13.3685 2.97448 69 5 89 255 
-1.64532 12.5185 2.65384 69 5 89 255 
-1.64561 12.5708 2.54022 57 85 140 255 
-4.63123 35.4788 6.82536 70 7 90 255 
-4.64214 35.2686 6.49032 69 5 89 255 
-4.62455 35.2337 6.13172 71 17 100 255 
-4.52743 34.679 5.68949 70 11 94 255 
-4.438 34.2309 5.29423 70 8 92 255 
-2.01648 15.3408 2.24621 71 14 97 255 
-2.20681 16.8361 2.29882 54 92 141 255 
-2.56276 19.7104 2.50039 59 82 139 255 
-2.54793 19.7064 2.31666 65 68 135 255 
-2.02885 15.4349 1.68844 56 89 140 255 
-2.57273 19.7078 1.96627 59 81 139 255 
-2.54538 19.6036 1.76774 72 38 119 255 
-2.51177 19.5069 1.57554 72 26 108 255 
-2.01535 15.353 1.11811 59 81 139 255 
-2.00302 15.3645 0.972118 53 94 141 255 
-1.98738 15.3691 0.825726 62 74 137 255 
-1.86153 14.4969 0.640703 68 59 132 255 
-1.82143 13.9132 0.504718 62 74 137 255 
-1.75278 13.4818 0.360752 62 73 137 255 
-1.68707 13.0646 0.225337 62 76 138 255 
-1.62539 12.693 0.100506 65 66 135 255 
-1.61082 12.3211 -0.00216875 58 84 140 255 
-1.58494 12.2241 -0.118329 58 83 139 255 
-1.56268 12.1346 -0.230648 57 86 140 255 
-1.50438 11.7806 -0.335883 65 68 135 255 
-1.4921 11.4597 -0.419714 58 83 139 255 
-1.4273 11.0385 -0.507377 58 84 140 255 
-1.37215 10.6699 -0.592033 61 78 138 255 
-1.33848 10.496 -0.682389 58 84 140 255 
-1.33786 10.2891 -0.752843 56 88 140 255 
-1.32076 10.2427 -0.845442 52 97 141 255 
-1.31362 10.2572 -0.944738 53 95 141 255 
-1.27735 10.0166 -1.01857 65 68 135 255 
-1.20033 9.26926 -1.01867 57 86 140 255 
-1.1138 8.64953 -1.03374 57 86 140 255 
-1.0342 8.08652 -1.04434 57 86 140 255 
-0.97467 7.66438 -1.06384 55 91 141 255 
-0.934786 7.24842 -1.06749 50 100 142 255 
-0.881494 6.86443 -1.07634 54 93 141 255 
-0.831466 6.51037 -1.08301 55 91 141 255 
-0.780271 6.13571 -1.0817 65 68 135 255 
-0.758124 5.91104 -1.09377 55 91 141 255 
-0.722779 5.6519 -1.09931 54 92 141 255 
-0.687323 5.38173 -1.10086 57 85 140 255 
-0.658529 5.17118 -1.1109 62 76 138 255 
-0.63773 4.99303 -1.11684 58 84 140 255 
-0.610783 4.78941 -1.11823 55 91 141 255 
-0.586378 4.60412 -1.12199 58 83 139 255 
-0.56609 4.43296 -1.1275 61 78 138 255 
-0.542229 4.27494 -1.12648 61 77 138 255 
-0.525511 4.1438 -1.1333 62 73 137 255 
-0.507841 3.99302 -1.13446 64 70 136 255 
-0.495374 3.86846 -1.14267 63 71 136 255 
-1.55173 12.446 3.76765 68 58 131 255 
-1.55172 12.3595 3.60246 60 79 138 255 
-1.6902 13.4236 3.7699 71 14 97 255 
-1.67885 13.3356 3.60902 71 44 122 255 
-1.54562 12.3444 3.22899 71 42 122 255 
-1.70797 13.6233 3.41816 66 65 134 255 
-1.63358 13.0474 3.13989 72 40 120 255 
-1.57112 12.5682 2.90091 68 59 132 255 
-1.67802 13.3829 2.97534 62 74 137 255 
-1.64871 13.1692 2.78959 70 50 126 255 
-1.56299 12.5368 2.53138 58 84 140 255 
-0 0 0 68 2 86 255 
-4.47216 35.6673 6.55853 70 8 92 255 
-4.36696 34.9309 6.07425 71 14 97 255 
-4.32881 34.8207 5.70827 70 11 94 255 
-4.23054 34.279 5.29756 70 8 92 255 
-4.47167 35.7139 5.22511 71 14 97 255 
-2.09868 16.811 2.29358 65 66 135 255 
-4.29348 34.6848 4.39656 71 16 99 255 
-4.36853 35.4989 4.16999 70 11 94 255 
-1.93287 15.4372 1.68737 45 112 142 255 
-6.46194 51.9832 5.18238 70 8 92 255 
-2.45499 19.861 1.78956 72 20 103 255 
-2.4535 20.0236 1.61602 72 31 112 255 
-1.91728 15.3344 1.11587 59 81 139 255 
-1.9076 15.3676 0.971555 55 90 140 255 
-1.88999 15.3562 0.824396 61 77 138 255 
-1.76576 14.4525 0.63825 65 68 135 255 
-1.73392 13.9073 0.504107 60 79 138 255 
-1.66229 13.4298 0.359081 62 76 138 255 
-1.61029 13.1025 0.225816 61 78 138 255 
-1.54252 12.662 0.100184 66 64 134 255 
-1.56385 12.561 -0.00220924 59 81 139 255 
-1.50353 12.182 -0.11783 66 64 134 255 
-1.48977 12.1569 -0.230893 62 76 138 255 
-1.44653 11.9087 -0.339275 66 64 134 255 
-1.39692 11.2683 -0.412382 56 89 140 255 
-1.33905 10.8805 -0.499727 55 90 140 255 
-1.30848 10.6929 -0.592857 57 85 140 255 
-1.28055 10.5575 -0.685865 57 86 140 255 
-1.27679 10.314 -0.754073 56 89 140 255 
-1.25837 10.2545 -0.845768 56 88 140 255 
-1.25018 10.2611 -0.944375 56 88 140 255 
-1.21611 10.0263 -1.01877 66 63 133 255 
-1.14574 9.29519 -1.02073 55 90 140 255 
-1.05986 8.6493 -1.03291 54 92 141 255 
-0.98444 8.09173 -1.04422 53 95 141 255 
-0.927624 7.67021 -1.06384 56 89 140 255 
-0.888124 7.23634 -1.06489 51 99 141 255 
-0.835643 6.83931 -1.07158 54 93 141 255 
-0.791027 6.51143 -1.08236 55 90 140 255 
-0.743555 6.14821 -1.08308 63 71 136 255 
-0.719815 5.89898 -1.0907 53 94 141 255 
-0.68773 5.6533 -1.09874 55 91 141 255 
-0.654643 5.38876 -1.10146 57 85 140 255 
-0.624788 5.15862 -1.10736 63 72 137 255 
-0.607317 4.99878 -1.11727 57 86 140 255 
-0.582558 4.80274 -1.12048 53 94 141 255 
-0.554376 4.57675 -1.11447 59 81 139 255 
-0.539347 4.4402 -1.12848 59 81 139 255 
-0.514598 4.26666 -1.12344 59 81 139 255 
-0.499728 4.14407 -1.13251 62 74 137 255 
-0.48518 4.01135 -1.1388 63 71 136 255 
-0.471976 3.87429 -1.14352 64 69 136 255 
-1.47623 12.4629 3.76995 70 48 126 255 
-1.48599 12.4537 3.62719 63 72 137 255 
-1.49401 12.483 3.50309 66 65 134 255 
-1.52206 12.7195 3.43968 72 27 109 255 
-1.50416 12.642 3.30436 72 37 118 255 
-1.49795 12.5726 3.15218 72 31 112 255 
-1.60509 13.4909 3.24417 68 57 131 255 
-1.49064 12.5496 2.89444 69 56 130 255 
-1.46797 12.3196 2.73687 55 90 140 255 
-1.59319 13.3919 2.83464 53 95 141 255 
-1.48177 12.5102 2.52411 55 91 141 255 
-0 0 0 69 4 87 255 
-1.43927 12.0787 2.21938 72 41 121 255 
-4.19985 35.3553 6.14346 71 14 97 255 
-4.03497 34.1683 5.59716 70 11 94 255 
-4.01265 34.2405 5.28771 71 13 96 255 
-4.25023 35.7219 5.22238 71 13 96 255 
-1.98895 16.7684 2.28607 72 22 104 255 
-2.47777 21.0766 2.66964 72 23 105 255 
-2.46382 21.0877 2.47531 72 31 112 255 
-1.83694 15.4389 1.68629 42 119 142 255 
-0 0 0 69 4 87 255 
-2.46731 21.0192 1.89252 70 7 90 255 
-2.39462 20.5888 1.66042 72 20 103 255 
-1.82291 15.3439 1.11573 60 79 138 255 
-1.8114 15.3632 0.970553 58 84 140 255 
-1.79423 15.3546 0.823704 58 83 139 255 
-1.67199 14.4194 0.636323 66 64 134 255 
-1.64221 13.864 0.502166 63 72 137 255 
-1.59829 13.5966 0.363272 61 77 138 255 
-1.53497 13.1558 0.226569 64 69 136 255 
-1.46124 12.6404 0.0999409 63 72 137 255 
-1.48593 12.5634 -0.00220802 57 85 140 255 
-1.43015 12.2029 -0.117945 61 78 138 255 
-1.40614 12.0883 -0.229423 63 72 137 255 
-1.37584 11.9382 -0.339869 64 70 136 255 
-1.32635 11.2647 -0.411947 60 79 138 255 
-1.28907 11.0324 -0.50633 60 80 139 255 
-1.24584 10.7266 -0.594286 58 84 140 255 
-1.22475 10.6435 -0.690949 56 89 140 255 
-1.21162 10.3057 -0.752915 56 89 140 255 
-1.18851 10.2026 -0.840873 52 97 141 255 
-1.18479 10.2478 -0.942464 54 93 141 255 
-1.15024 9.99598 -1.01496 55 90 140 255 
-1.08788 9.29514 -1.01997 57 85 140 255 
-1.00654 8.65367 -1.03268 54 92 141 255 
-0.933406 8.08579 -1.04269 57 86 140 255 
-0.880882 7.67871 -1.06425 58 83 139 255 
-0.845423 7.2564 -1.06706 53 94 141 255 
-0.792638 6.83547 -1.0702 57 85 140 255 
-0.750155 6.50832 -1.08105 57 85 140 255 
-0.707612 6.16831 -1.08584 61 77 138 255 
-0.681003 5.88082 -1.08654 54 93 141 255 
-0.651003 5.63986 -1.09533 52 96 141 255 
-0.62179 5.39462 -1.10185 61 78 138 255 
-0.59491 5.1779 -1.11069 58 84 140 255 
-0.576298 4.99951 -1.11662 57 86 140 255 
-0.552966 4.80525 -1.12026 56 89 140 255 
-0.525285 4.57138 -1.11236 57 85 140 255 
-0.512648 4.44825 -1.1297 58 83 139 255 
-0.489398 4.27839 -1.12572 60 79 138 255 
-0.474182 4.1461 -1.13225 60 80 139 255 
-0.460228 4.01138 -1.13799 64 70 136 255 
-0.444559 3.84565 -1.13424 66 65 134 255 
-1.40647 12.5316 3.78808 68 57 131 255 
-1.42347 12.5857 3.66303 68 59 132 255 
-1.40675 12.3981 3.47679 61 77 138 255 
-1.43746 12.671 3.42412 65 66 135 255 
-1.42255 12.6154 3.29506 64 69 136 255 
-1.42393 12.6095 3.15918 65 66 135 255 
-1.52021 13.4821 3.23976 68 58 131 255 
-1.40347 12.4684 2.87368 62 74 137 255 
-1.42665 12.6321 2.8043 57 85 140 255 
-1.50244 13.3256 2.81859 72 37 118 255 
-1.50099 13.3745 2.6966 72 29 111 255 
-1.35761 12.1371 2.32971 70 11 94 255 
-1.36425 12.0795 2.21795 70 11 94 255 
-4.07841 36.2294 6.29088 70 8 92 255 
-3.77202 33.7167 5.51928 71 13 96 255 
-3.86571 34.8343 5.37564 70 8 92 255 
-4.03141 35.7513 5.22295 71 13 96 255 
-3.75534 33.4119 4.55189 70 7 90 255 
-2.3517 21.121 2.67339 72 27 109 255 
-2.34028 21.1558 2.48156 71 14 97 255 
-1.73515 15.3877 1.6795 48 105 142 255 
-2.36497 21.1413 2.10459 71 46 124 255 
-2.35018 21.1409 1.90214 72 33 115 255 
-2.32246 21.0956 1.70011 71 14 97 255 
-1.72572 15.328 1.11378 62 73 137 255 
-1.71222 15.3303 0.967798 55 90 140 255 
-1.68351 15.2164 0.815723 62 74 137 255 
-1.60342 14.6112 0.644337 68 59 132 255 
-1.56034 13.9027 0.503209 63 71 136 255 
-1.51318 13.5912 0.362874 61 78 138 255 
-1.5001 13.5804 0.233718 62 76 138 255 
-1.38245 12.6382 0.0998545 63 72 137 255 
-1.38476 12.3577 -0.00217032 60 79 138 255 
-1.3611 12.2641 -0.118454 60 79 138 255 
-1.3257 12.0401 -0.228349 68 59 132 255 
-1.27656 11.7079 -0.333084 64 69 136 255 
-1.25156 11.222 -0.410096 56 89 140 255 
-1.204 10.8832 -0.499135 57 86 140 255 
-1.18196 10.7519 -0.595275 55 91 141 255 
-1.14841 10.5496 -0.684384 57 86 140 255 
-1.13688 10.2099 -0.745389 54 93 141 255 
-1.12348 10.188 -0.839078 56 89 140 255 
-1.11853 10.2242 -0.939644 56 88 140 255 
-1.09072 10.0197 -1.01666 68 59 132 255 
-1.0306 9.29966 -1.01976 55 90 140 255 
-0.95418 8.66659 -1.0335 60 79 138 255 
-0.883129 8.08545 -1.04193 57 86 140 255 
-0.832788 7.67511 -1.06302 58 84 140 255 
-0.800774 7.26047 -1.06691 55 90 140 255 
-0.751867 6.85101 -1.07189 56 89 140 255 
-0.709779 6.50887 -1.0804 56 89 140 255 
-0.671345 6.18723 -1.08842 60 79 138 255 
-0.645764 5.89271 -1.08799 54 92 141 255 
-0.616705 5.64667 -1.0959 52 96 141 255 
-0.588465 5.39639 -1.10146 58 84 140 255 
-0.564713 5.19604 -1.11382 61 77 138 255 
-0.544341 4.9913 -1.11403 55 90 140 255 
-0.521995 4.795 -1.1171 56 88 140 255 
-0.499116 4.59191 -1.11659 57 86 140 255 
-0.484713 4.44552 -1.12824 60 80 139 255 
-0.462409 4.27458 -1.12395 59 82 139 255 
-0.44645 4.12782 -1.12649 60 80 139 255 
-0.434049 3.99978 -1.13392 62 73 137 255 
-0.42231 3.86071 -1.13789 65 68 135 255 
-1.40114 13.2153 3.99205 72 20 103 255 
-1.37838 12.8951 3.75054 72 27 109 255 
-1.32962 12.3969 3.4741 59 82 139 255 
-1.3535 12.622 3.40856 71 47 125 255 
-1.34203 12.595 3.28753 63 71 136 255 
-1.34818 12.6335 3.16305 66 64 134 255 
-1.33946 12.5714 3.01888 65 68 135 255 
-1.32683 12.4758 2.87345 66 64 134 255 
-1.34715 12.6221 2.80021 67 62 133 255 
-1.35585 12.7263 2.69004 68 58 131 255 
-1.4067 13.2684 2.67342 72 37 118 255 
-1.42089 13.4493 2.57987 70 8 92 255 
-3.6611 34.3027 6.29414 71 13 96 255 
-3.7169 34.9456 6.06388 70 8 92 255 
-3.56641 33.7519 5.52137 71 17 100 255 
-3.49339 33.3444 5.14232 70 10 93 255 
-3.82224 35.8718 5.23703 69 5 89 255 
-3.6257 34.1448 4.64861 71 16 99 255 
-3.71636 35.348 4.4712 70 10 93 255 
-3.71066 35.5378 4.16582 70 10 93 255 
-1.63818 15.3743 1.67691 58 84 140 255 
-1.76426 16.6981 1.66117 70 7 90 255 
-3.71792 35.4223 3.18499 70 7 90 255 
-3.68483 35.4699 2.85667 70 7 90 255 
-1.62815 15.3056 1.11141 63 71 136 255 
-1.61561 15.3167 0.966295 55 90 140 255 
-1.58389 15.1669 0.81253 63 72 137 255 
-1.51487 14.6317 0.644819 68 59 132 255 
-1.48438 14.0004 0.506408 65 66 135 255 
-1.46153 13.9025 0.370938 66 65 134 255 
-1.43779 13.7912 0.23719 66 63 133 255 
-1.28949 12.4973 0.0986764 62 73 137 255 
-1.30733 12.351 -0.0021677 60 80 139 255 
-1.27331 12.1529 -0.117302 61 77 138 255 
-1.24974 12.0281 -0.227972 62 74 137 255 
-1.22729 11.9353 -0.339332 61 77 138 255 
-1.17702 11.1758 -0.408136 62 74 137 255 
-1.15193 11.0315 -0.505601 61 78 138 255 
-1.12122 10.8096 -0.598078 60 79 138 255 
-1.10669 10.7808 -0.698929 58 83 139 255 
-1.08516 10.3208 -0.752987 60 80 139 255 
-1.06146 10.1996 -0.839486 53 94 141 255 
-1.05414 10.215 -0.938188 53 94 141 255 
-1.03084 10.042 -1.01827 65 68 135 255 
-0.973108 9.30186 -1.01932 56 88 140 255 
-0.900677 8.66932 -1.03315 61 77 138 255 
-0.834517 8.10058 -1.0432 54 92 141 255 
-0.783662 7.66036 -1.06029 58 83 139 255 
-0.754366 7.24753 -1.06431 56 89 140 255 
-0.710528 6.86238 -1.07296 55 90 140 255 
-0.669323 6.5082 -1.07959 61 78 138 255 
-0.63006 6.15889 -1.08274 58 84 140 255 
-0.609999 5.90047 -1.08871 55 90 140 255 
-0.580939 5.63961 -1.09382 52 96 141 255 
-0.552034 5.36773 -1.09489 60 79 138 255 
-0.531424 5.18579 -1.1109 59 82 139 255 
-0.512706 4.98484 -1.11186 57 86 140 255 
-0.49336 4.80586 -1.11891 58 84 140 255 
-0.473013 4.61519 -1.12152 54 92 141 255 
-0.456832 4.44263 -1.12677 60 80 139 255 
-0.434602 4.26194 -1.1199 59 81 139 255 
-0.421211 4.13144 -1.12675 61 78 138 255 
-0.407539 3.98322 -1.12849 64 70 136 255 
-0.398909 3.86609 -1.13874 64 69 136 255 
-1.2423 12.445 3.75701 70 10 93 255 
-1.20781 11.9953 3.48661 55 91 141 255 
-1.20258 11.9007 3.33291 69 55 129 255 
-1.35807 13.442 3.62769 72 28 110 255 
-1.30754 13.0297 3.39882 72 26 108 255 
-1.27384 12.6734 3.17102 71 46 124 255 
-1.25142 12.471 2.99287 66 63 133 255 
-1.26784 12.6593 2.91386 69 55 129 255 
-1.26284 12.5621 2.78513 68 57 131 255 
-1.2581 12.5387 2.64869 64 70 136 255 
-1.23294 12.3519 2.48718 64 69 136 255 
-1.35827 13.6581 2.61828 72 33 115 255 
-3.43933 34.2129 6.27368 70 10 93 255 
-1.40746 14.052 2.43681 72 26 108 255 
-3.55121 35.7031 5.83689 70 7 90 255 
-3.40188 34.5132 5.31924 70 7 90 255 
-3.51975 35.0743 5.11736 70 10 93 255 
-3.36673 33.6724 4.5814 71 17 100 255 
-3.57383 36.1226 4.56631 69 5 89 255 
-3.6405 37.0664 4.3423 70 11 94 255 
-1.54043 15.3504 1.67324 72 35 116 255 
-1.66522 16.7433 1.66462 72 32 113 255 
-0 0 0 68 2 86 255 
-0 0 0 68 2 86 255 
-1.53222 15.2954 1.10997 62 73 137 255 
-1.51835 15.2936 0.964229 54 92 141 255 
-1.49782 15.2479 0.816361 61 78 138 255 
-1.43716 14.765 0.650293 70 48 126 255 
-1.40828 14.1077 0.509966 62 74 137 255 
-1.38053 13.9549 0.372105 65 66 135 255 
-1.35558 13.8247 0.237617 70 50 126 255 
-1.21452 12.5229 0.0988178 69 55 129 255 
-1.2334 12.3777 -0.00217102 54 93 141 255 
-1.19862 12.1595 -0.117292 65 66 135 255 
-1.17435 12.0196 -0.22767 58 84 140 255 
-1.15635 11.9665 -0.34001 54 92 141 255 
-1.10784 11.1768 -0.407918 62 74 137 255 
-1.08392 11.0354 -0.505464 55 90 140 255 
-1.05991 10.8679 -0.600935 60 80 139 255 
-1.03036 10.6821 -0.692107 55 90 140 255 
-1.02083 10.3174 -0.752264 57 85 140 255 
-0.997693 10.194 -0.838507 55 90 140 255 
-0.9901 10.2074 -0.936914 53 94 141 255 
-0.968347 10.0392 -1.01737 61 77 138 255 
-0.911633 9.26313 -1.01445 62 76 138 255 
-0.848045 8.68061 -1.03385 59 82 139 255 
-0.785084 8.10851 -1.04358 58 84 140 255 
-0.735223 7.65024 -1.05825 60 79 138 255 
-0.7094 7.2471 -1.06359 55 91 141 255 
-0.66927 6.87546 -1.07435 56 88 140 255 
-0.628903 6.50727 -1.07877 61 77 138 255 
-0.592069 6.16068 -1.08239 59 81 139 255 
-0.573878 5.90508 -1.08889 54 92 141 255 
-0.545946 5.63915 -1.09306 51 99 141 255 
-0.520407 5.38467 -1.09768 58 83 139 255 
-0.498282 5.17532 -1.10798 58 84 140 255 
-0.483988 5.00732 -1.11619 59 82 139 255 
-0.46564 4.82723 -1.12319 56 89 140 255 
-0.445244 4.62381 -1.12293 55 91 141 255 
-0.428165 4.43087 -1.1231 60 80 139 255 
-0.408904 4.26934 -1.12117 60 79 138 255 
-0.397325 4.14932 -1.13094 60 80 139 255 
-0.385393 4.00959 -1.13528 64 70 136 255 
-0.375828 3.87515 -1.1407 63 72 137 255 
-1.08994 11.641 3.51218 72 31 112 255 
-1.15768 12.2511 3.55884 70 10 93 255 
-1.09752 11.5703 3.23843 67 62 133 255 
-1.26927 13.3837 3.6098 72 27 109 255 
-1.22603 13.0211 3.39455 60 80 139 255 
-1.25966 13.3553 3.33965 61 78 138 255 
-1.14779 12.1908 2.92389 67 62 133 255 
-1.1813 12.5727 2.89221 72 28 110 255 
-1.19435 12.661 2.80538 69 53 129 255 
-1.19233 12.665 2.67379 70 52 128 255 
-1.16361 12.4285 2.50113 64 70 136 255 
-1.18359 12.6921 2.43165 70 51 127 255 
-1.23065 13.0458 2.39079 72 31 112 255 
-1.34638 14.3282 2.48323 62 73 137 255 
-3.28652 35.2358 5.75709 70 8 92 255 
-3.39271 36.7273 5.65717 70 8 92 255 
-3.32136 35.2746 5.14351 70 10 93 255 
-3.2017 34.1364 4.64177 71 14 97 255 
-3.30237 35.6073 4.49854 70 11 94 255 
-3.27801 35.6212 4.17056 70 7 90 255 
-0 0 0 69 4 87 255 
-1.56347 16.7641 1.6657 63 71 136 255 
-0 0 0 69 4 87 255 
-0 0 0 68 2 86 255 
-1.4376 15.2966 1.10939 60 80 139 255 
-1.42244 15.2808 0.962851 55 91 141 255 
-1.40671 15.2836 0.817798 63 72 137 255 
-1.32151 14.4989 0.638206 68 59 132 255 
-1.31749 14.0713 0.508349 64 70 136 255 
-1.29709 13.987 0.372742 63 71 136 255 
-1.2711 13.8367 0.237686 71 19 101 255 
-1.13485 12.4992 0.0985743 66 64 134 255 
-1.15166 12.3233 -0.00216019 60 79 138 255 
-1.12629 12.1915 -0.117532 61 78 138 255 
-1.1004 12.0246 -0.227633 60 80 139 255 
-1.07353 11.8698 -0.33707 63 72 137 255 
-1.03896 11.1804 -0.407809 54 92 141 255 
-1.01271 11.004 -0.503734 57 86 140 255 
-0.993663 10.8792 -0.60121 60 80 139 255 
-0.933844 10.3454 -0.669904 60 79 138 255 
-0.955665 10.3036 -0.750816 60 79 138 255 
-0.93558 10.2049 -0.838915 53 95 141 255 
-0.925288 10.1895 -0.934731 56 88 140 255 
-0.906461 10.042 -1.01707 62 76 138 255 
-0.854414 9.26459 -1.01401 60 80 139 255 
-0.791056 8.64511 -1.02903 59 81 139 255 
-0.734779 8.10725 -1.04282 58 83 139 255 
-0.689066 7.66348 -1.05947 60 79 138 255 
-0.664467 7.24639 -1.06287 54 92 141 255 
-0.627608 6.88534 -1.07527 56 88 140 255 
-0.586118 6.47956 -1.07357 62 76 138 255 
-0.556021 6.18382 -1.08584 59 82 139 255 
-0.537991 5.91241 -1.08961 55 91 141 255 
-0.511334 5.6424 -1.09306 52 97 141 255 
-0.487623 5.39069 -1.09828 55 90 140 255 
-0.46801 5.19484 -1.11152 59 82 139 255 
-0.450176 4.97617 -1.10861 59 82 139 255 
-0.436362 4.83387 -1.12409 55 91 141 255 
-0.416952 4.62742 -1.12317 58 84 140 255 
-0.401494 4.43921 -1.12457 57 86 140 255 
-0.383477 4.28044 -1.12344 58 84 140 255 
-0.369361 4.1238 -1.12335 60 80 139 255 
-0.361214 4.01668 -1.13663 62 73 137 255 
-0.351349 3.86974 -1.13845 62 74 137 255 
-0.881587 10.0818 3.04007 57 86 140 255 
-1.05164 11.9087 3.45744 67 62 133 255 
-0.954015 10.7593 3.00974 68 59 132 255 
-1.15693 13.0507 3.518 68 58 131 255 
-1.13347 12.8847 3.35712 72 27 109 255 
-1.188 13.4797 3.36888 67 62 133 255 
-1.0584 12.032 2.88417 64 69 136 255 
-1.05248 11.9912 2.75692 71 47 125 255 
-1.15986 13.1584 2.91395 70 48 126 255 
-1.14744 13.0455 2.75257 70 50 126 255 
-1.11526 12.7549 2.56537 70 52 128 255 
-1.10552 12.6971 2.43127 69 55 129 255 
-1.11931 12.6983 2.32582 62 73 137 255 
-1.11997 12.7587 2.20998 69 53 129 255 
-1.11005 12.7466 2.08147 71 13 96 255 
-2.97937 34.5671 5.32152 70 7 90 255 
-2.97833 33.856 4.9339 70 7 90 255 
-1.3428 15.3279 2.08309 72 37 118 255 
-3.06355 35.3927 4.46896 71 16 99 255 
-3.06329 35.6862 4.17589 70 8 92 255 
-0 0 0 68 2 86 255 
-1.45989 16.7654 1.66491 49 103 142 255 
-0 0 0 69 4 87 255 
-0 0 0 68 1 84 255 
-1.34118 15.2763 1.1073 60 79 138 255 
-1.32796 15.2812 0.96235 57 86 140 255 
-1.31265 15.289 0.817638 56 88 140 255 
-1.23531 14.5396 0.639652 64 69 136 255 
-1.23313 14.102 0.509176 63 71 136 255 
-1.21495 14.0376 0.373882 61 77 138 255 
-1.18643 13.8472 0.237737 70 8 92 255 
-1.05477 12.4661 0.0982602 70 51 127 255 
-1.08124 12.3899 -0.00217067 55 91 141 255 
-1.047 12.1464 -0.117033 61 77 138 255 
-1.02456 12.0072 -0.22718 64 70 136 255 
-0.973406 11.5524 -0.327882 63 72 137 255 
-0.965415 11.1298 -0.40574 58 83 139 255 
-0.946798 11.0289 -0.504599 53 95 141 255 
-0.924943 10.8622 -0.599946 61 77 138 255 
-0.90254 10.7337 -0.694682 59 82 139 255 
-0.890791 10.2904 -0.749441 56 88 140 255 
-0.869804 10.1737 -0.835896 52 97 141 255 
-0.859223 10.1533 -0.930909 50 102 142 255 
-0.844827 10.0474 -1.01707 63 71 136 255 
-0.797551 9.26966 -1.01401 55 90 140 255 
-0.737151 8.6399 -1.02785 57 86 140 255 
-0.68477 8.10864 -1.04244 59 82 139 255 
-0.642362 7.67152 -1.06002 59 82 139 255 
-0.620835 7.26019 -1.06431 53 94 141 255 
-0.584345 6.87725 -1.07342 56 89 140 255 
-0.547012 6.4909 -1.07487 64 69 136 255 
-0.517985 6.18613 -1.08566 56 89 140 255 
-0.502285 5.92246 -1.09088 54 93 141 255 
-0.476869 5.64739 -1.09344 51 98 141 255 
-0.454043 5.38772 -1.09708 55 91 141 255 
-0.435308 5.18787 -1.10944 61 77 138 255 
-0.420209 4.98565 -1.11013 59 82 139 255 
-0.402122 4.78209 -1.11146 57 86 140 255 
-0.3866 4.60665 -1.11753 55 91 141 255 
-0.37498 4.45028 -1.12677 56 88 140 255 
-0.359779 4.31357 -1.13154 57 86 140 255 
-0.343891 4.12407 -1.12282 62 74 137 255 
-0.337124 4.02553 -1.13853 60 80 139 255 
-0.327437 3.86991 -1.13789 63 71 136 255 
-0.820563 10.0975 3.04324 61 77 138 255 
-0.875388 10.6588 3.09294 72 31 112 255 
-0.877368 10.6363 2.97377 67 61 132 255 
-0.872993 10.5858 2.85205 55 91 141 255 
-1.06252 12.9907 3.38299 69 53 129 255 
-1.04543 12.7565 3.18648 70 50 126 255 
-0.984074 12.0324 2.88278 60 79 138 255 
-0.970879 11.8993 2.73437 64 70 136 255 
-1.04105 12.701 2.81119 71 44 122 255 
-1.03953 12.7119 2.68078 65 68 135 255 
-1.03674 12.7585 2.56478 71 42 122 255 
-1.0352 12.7977 2.44926 72 40 120 255 
-1.04225 12.7157 2.32779 70 50 126 255 
-1.0407 12.7535 2.20794 63 72 137 255 
-1.03174 12.7521 2.08131 66 65 134 255 
-1.02628 12.8265 1.97361 72 35 116 255 
-2.74907 33.6113 4.89568 71 19 101 255 
-1.24655 15.3092 2.07947 62 74 137 255 
-2.83058 35.215 4.44424 69 5 89 255 
-2.91028 36.533 4.27282 69 5 89 255 
-3.72602 45.5558 4.9574 70 7 90 255 
-1.35707 16.775 1.66501 51 99 141 255 
-0 0 0 69 4 87 255 
-0 0 0 69 4 87 255 
-1.24572 15.2634 1.10579 60 79 138 255 
-1.23177 15.2593 0.960472 57 86 140 255 
-1.21143 15.2042 0.81269 61 77 138 255 
-1.14765 14.5668 0.640527 65 66 135 255 
-1.1499 14.1502 0.510649 68 59 132 255 
-1.13896 14.1713 0.377251 63 71 136 255 
-1.10295 13.8732 0.238062 72 27 109 255 
-0.973955 12.4175 0.0978282 69 55 129 255 
-0.995257 12.2737 -0.0021492 60 80 139 255 
-0.973009 12.1596 -0.1171 57 86 140 255 
-0.948653 11.9854 -0.226652 59 81 139 255 
-0.892543 11.4306 -0.324263 64 70 136 255 
-0.897668 11.1425 -0.405994 58 83 139 255 
-0.86935 10.9121 -0.498998 57 85 140 255 
-0.855289 10.8298 -0.597858 59 82 139 255 
-0.836739 10.7401 -0.694746 57 86 140 255 
-0.825396 10.2678 -0.747415 59 82 139 255 
-0.806496 10.1679 -0.834998 50 102 142 255 
-0.797219 10.1623 -0.931273 50 101 142 255 
-0.783162 10.0524 -1.01707 58 84 140 255 
-0.740105 9.26744 -1.01326 55 91 141 255 
-0.6824 8.62249 -1.02526 60 80 139 255 
-0.635236 8.11565 -1.04282 62 76 138 255 
-0.594972 7.67136 -1.05947 58 84 140 255 
-0.574867 7.2461 -1.06171 55 90 140 255 
-0.539109 6.84229 -1.06743 57 85 140 255 
-0.50802 6.50496 -1.07666 62 76 138 255 
-0.479333 6.18036 -1.08411 58 83 139 255 
-0.464394 5.90582 -1.08727 50 101 142 255 
-0.442438 5.65314 -1.09401 52 97 141 255 
-0.420976 5.39041 -1.09708 56 89 140 255 
-0.400284 5.14949 -1.10069 59 81 139 255 
-0.391586 5.01344 -1.11576 56 88 140 255 
-0.374361 4.80487 -1.1162 54 92 141 255 
-0.357799 4.60215 -1.11588 54 92 141 255 
-0.347742 4.45347 -1.12701 58 84 140 255 
-0.332857 4.30991 -1.13002 54 92 141 255 
-0.32014 4.14631 -1.12832 61 78 138 255 
-0.31078 4.00641 -1.13256 60 80 139 255 
-0.303085 3.86419 -1.13564 63 71 136 255 
-0.76024 10.1243 3.04985 52 97 141 255 
-0.858206 11.2991 3.27714 69 56 130 255 
-1.03301 13.5365 3.78278 71 45 123 255 
-0.82382 10.798 2.90781 59 81 139 255 
-0.839887 11.1072 2.89109 61 77 138 255 
-1.01208 13.3559 3.33457 66 64 134 255 
-1.02749 13.5891 3.25416 72 33 115 255 
-0.901367 11.9517 2.74508 67 61 132 255 
-0.962654 12.7013 2.8099 71 44 122 255 
-0.968744 12.8137 2.70094 66 65 134 255 
-0.955422 12.7246 2.55672 69 53 129 255 
-0.958775 12.8322 2.4547 70 50 126 255 
-0.965923 12.7445 2.33192 70 50 126 255 
-0.960422 12.7331 2.20335 65 66 135 255 
-0.952811 12.7494 2.07987 69 53 129 255 
-0.941884 12.7557 1.96178 67 61 132 255 
-0.965046 12.7624 1.85802 66 64 134 255 
-0.962603 12.7918 1.73669 67 62 133 255 
-0.951739 12.8254 1.61784 68 59 132 255 
-0.941219 12.8075 1.49723 69 55 129 255 
-0.968652 12.8101 1.39333 72 28 110 255 
-0.960014 12.8473 1.27455 72 41 121 255 
-0.948769 12.8156 1.14916 71 45 123 255 
-0.938647 12.8645 1.03327 70 50 126 255 
-1.15001 15.2439 1.10385 71 47 125 255 
-1.13396 15.2108 0.956965 69 53 129 255 
-1.11373 15.1516 0.809497 72 40 120 255 
-0.932928 12.8478 0.564677 71 44 122 255 
-1.05572 14.0593 0.507127 70 52 128 255 
-1.01774 13.7165 0.36497 71 46 124 255 
-0.94753 12.9214 0.221626 68 59 132 255 
-0.894789 12.3823 0.0975062 68 57 131 255 
-0.922095 12.3085 -0.00215426 58 84 140 255 
-0.894183 12.1085 -0.116553 60 79 138 255 
-0.867962 11.8933 -0.224805 66 65 134 255 
-0.830706 11.5515 -0.327543 63 72 137 255 
-0.82943 11.1498 -0.406067 54 92 141 255 
-0.801793 10.9092 -0.498634 56 89 140 255 
-0.78353 10.7622 -0.593847 58 84 140 255 
-0.769324 10.7241 -0.693395 57 85 140 255 
-0.764962 10.3075 -0.749948 57 85 140 255 
-0.74271 10.1538 -0.833448 53 95 141 255 
-0.735064 10.17 -0.931546 55 91 141 255 
-0.721111 10.052 -1.01656 63 72 137 255 
-0.682861 9.26685 -1.01271 59 82 139 255 
-0.628686 8.61562 -1.02397 61 78 138 255 
-0.585998 8.12731 -1.04384 60 80 139 255 
-0.546338 7.65313 -1.05647 56 89 140 255 
-0.529095 7.23173 -1.05911 55 90 140 255 
-0.497473 6.85039 -1.0682 56 88 140 255 
-0.467106 6.49418 -1.07438 62 73 137 255 
-0.439578 6.15763 -1.07963 58 84 140 255 
-0.429427 5.92622 -1.09052 50 101 142 255 
-0.406542 5.6391 -1.09079 53 95 141 255 
-0.388456 5.40071 -1.09867 55 90 140 255 
-0.369448 5.16258 -1.10298 60 79 138 255 
-0.360396 5.0099 -1.11446 53 95 141 255 
-0.344942 4.80805 -1.11642 55 91 141 255 
-0.33122 4.62753 -1.12152 54 92 141 255 
-0.320062 4.45068 -1.12579 58 83 139 255 
-0.305035 4.29257 -1.12496 56 88 140 255 
-0.294214 4.14146 -1.12649 61 77 138 255 
-0.285848 4.00344 -1.13121 60 79 138 255 
-0.279715 3.87076 -1.13705 64 70 136 255 
-0.70673 10.2539 3.08754 55 90 140 255 
-0.85306 12.2241 3.54384 67 62 133 255 
-0.88543 12.6229 3.52591 70 50 126 255 
-0.736808 10.5071 2.8282 61 78 138 255 
-0.87955 12.6648 3.29506 71 42 122 255 
-0.899856 12.9272 3.2261 72 40 120 255 
-0.885128 12.7461 3.05093 72 31 112 255 
-0.868756 12.5454 2.88015 72 37 118 255 
-0.877919 12.6096 2.78836 72 32 113 255 
-0.884341 12.7364 2.68346 70 51 127 255 
-0.875912 12.7096 2.5526 69 53 129 255 
-0.871623 12.7153 2.43127 69 55 129 255 
-0.887706 12.7501 2.33192 67 62 133 255 
-0.881662 12.7299 2.20182 66 63 133 255 
-0.873754 12.7432 2.07794 68 58 131 255 
-0.862531 12.7455 1.95935 67 62 133 255 
-0.886513 12.7651 1.85759 65 66 135 255 
-0.882388 12.7728 1.73334 62 74 137 255 
-0.869928 12.7854 1.61209 65 68 135 255 
-0.860948 12.7882 1.49433 66 63 133 255 
-0.890033 12.8158 1.39333 67 62 133 255 
-0.876947 12.7914 1.26845 67 62 133 255 
-0.869239 12.8083 1.148 66 65 134 255 
-0.856439 12.8213 1.02936 68 57 131 255 
-0.88855 12.8268 0.928406 64 70 136 255 
-0.877941 12.8387 0.807375 60 79 138 255 
-0.863138 12.8177 0.684513 65 68 135 255 
-0.852488 12.8294 0.563626 67 62 133 255 
-0.884296 12.8302 0.46259 64 70 136 255 
-0.872902 12.8308 0.341256 62 74 137 255 
-0.860188 12.8073 0.219573 60 80 139 255 
-0.818137 12.3776 0.0974276 66 64 134 255 
-0.844428 12.283 -0.00214885 63 72 137 255 
-0.813388 12.018 -0.115632 57 86 140 255 
-0.79657 11.9223 -0.225258 59 81 139 255 
-0.754959 11.4826 -0.325451 64 69 136 255 
-0.761068 11.1557 -0.406103 57 85 140 255 
-0.731954 10.8711 -0.496676 53 94 141 255 
-0.716351 10.7499 -0.592912 60 79 138 255 
-0.697827 10.642 -0.687795 58 84 140 255 
-0.693509 10.1916 -0.741192 59 82 139 255 
-0.678729 10.1333 -0.831408 57 86 140 255 
-0.672648 10.1743 -0.931546 54 92 141 255 
-0.658182 10.0374 -1.01466 62 73 137 255 
-0.625519 9.26392 -1.01196 58 83 139 255 
-0.575413 8.61337 -1.02326 58 83 139 255 
-0.536118 8.13076 -1.04384 58 84 140 255 
-0.497499 7.62767 -1.05252 58 84 140 255 
-0.483588 7.21806 -1.05665 59 82 139 255 
-0.455496 6.8543 -1.06835 52 97 141 255 
