ply
format ascii 1.0
comment VTK generated PLY File
obj_info vtkPolyData points and polygons: vtk4.0
element vertex 1177
property float x
property float y
property float z
property uchar red
property uchar green
property uchar blue
property uchar alpha
element face 0
property list uchar int vertex_indices
end_header
-3.7811 3.57029 -1.20442 60 80 139 255 
-3.65251 3.45001 -1.21457 60 80 139 255 
-3.51566 3.31852 -1.21973 58 83 139 255 
-3.37368 3.18991 -1.21373 60 80 139 255 
-3.27485 3.09659 -1.22285 62 76 138 255 
-3.15028 2.97667 -1.22154 62 76 138 255 
-3.0409 2.86838 -1.22477 64 70 136 255 
-16.645 15.8056 6.89518 71 44 122 255 
-16.7071 15.8373 6.65762 71 44 122 255 
-16.7509 15.8674 6.42909 71 42 122 255 
-16.7335 15.8516 6.18904 71 45 123 255 
-16.7233 15.8633 5.98267 71 42 122 255 
-16.7584 15.8914 5.74968 70 50 126 255 
-16.7005 15.8418 5.4966 71 47 125 255 
-16.771 15.9149 5.29527 70 50 126 255 
-16.7598 15.8924 5.09505 70 48 126 255 
-16.7665 15.9047 4.85741 70 50 126 255 
-16.7552 15.9104 4.62957 70 52 128 255 
-16.732 15.9 4.40309 71 46 124 255 
-16.8176 15.9472 4.22858 69 55 129 255 
-16.7576 15.9018 3.98619 68 57 131 255 
-16.7257 15.8934 3.75349 70 51 127 255 
-16.7513 15.9461 3.54727 70 52 128 255 
-16.8225 15.9574 3.36608 68 58 131 255 
-16.8121 15.9591 3.13825 68 57 131 255 
-10.8659 10.3361 1.88656 62 73 137 255 
-10.6375 10.1333 1.71286 69 56 130 255 
-10.4392 9.90233 1.56056 69 56 130 255 
-10.1693 9.66352 1.38787 67 62 133 255 
-9.95019 9.46832 1.22825 69 53 129 255 
-9.72141 9.27032 1.07607 68 58 131 255 
-9.46788 8.98412 0.94245 68 57 131 255 
-9.2887 8.82976 0.804056 62 76 138 255 
-9.01997 8.59215 0.663762 67 61 132 255 
-9.00346 8.59168 0.545539 67 61 132 255 
-7.49471 7.11674 0.371754 51 99 141 255 
-6.98288 6.64251 0.255736 66 64 134 255 
-6.79472 6.47471 0.16055 49 103 142 255 
-6.78718 6.48128 0.0737089 56 89 140 255 
-6.80736 6.46631 -0.00163869 52 97 141 255 
-6.79294 6.46634 -0.0900306 51 99 141 255 
-6.78501 6.46997 -0.176742 55 90 140 255 
-6.09081 5.82035 -0.238264 59 82 139 255 
-6.10571 5.80589 -0.306002 51 98 141 255 
-6.11778 5.82771 -0.385155 53 95 141 255 
-6.11014 5.82847 -0.464714 56 88 140 255 
-6.10557 5.83649 -0.544727 50 102 142 255 
-6.12234 5.82373 -0.6131 52 96 141 255 
-5.89824 5.62252 -0.667085 62 76 138 255 
-5.42619 5.18148 -0.685445 53 95 141 255 
-5.42425 5.1852 -0.756928 53 95 141 255 
-5.43405 5.17442 -0.817798 51 99 141 255 
-5.42812 5.17618 -0.889069 52 96 141 255 
-5.41233 5.17005 -0.95883 58 84 140 255 
-5.40761 5.1729 -1.03042 51 98 141 255 
-5.43336 5.17918 -1.0964 51 99 141 255 
-5.43156 5.18308 -1.16763 47 108 142 255 
-5.16957 4.93988 -1.17988 54 92 141 255 
-4.91363 4.70037 -1.1892 56 88 140 255 
-4.69285 4.47957 -1.1907 48 105 142 255 
-4.46523 4.26543 -1.19138 49 103 142 255 
-4.286 4.09557 -1.20287 50 100 142 255 
-4.09062 3.91171 -1.20615 62 73 137 255 
-3.94416 3.76885 -1.21042 60 79 138 255 
-3.76546 3.59948 -1.20645 59 81 139 255 
-3.63548 3.47639 -1.21598 60 79 138 255 
-3.50014 3.34472 -1.22144 58 84 140 255 
-3.34915 3.20587 -1.21196 61 77 138 255 
-3.24742 3.10862 -1.21971 61 77 138 255 
-3.13613 2.99994 -1.22317 62 73 137 255 
-3.01977 2.88367 -1.22337 64 70 136 255 
-16.4276 15.7919 6.84512 72 41 121 255 
-16.4627 15.7985 6.59873 71 46 124 255 
-16.471 15.7952 6.35876 71 44 122 255 
-16.5202 15.843 6.146 71 45 123 255 
-16.4888 15.8342 5.93343 71 42 122 255 
-16.4988 15.8387 5.69387 72 41 121 255 
-16.5279 15.8719 5.47175 71 42 122 255 
-16.5219 15.8723 5.24727 71 42 122 255 
-16.4971 15.8367 5.04464 69 53 129 255 
-16.5302 15.8744 4.8171 68 58 131 255 
-16.5024 15.8641 4.58654 70 51 127 255 
-16.506 15.8791 4.36917 70 48 126 255 
-16.5364 15.8743 4.18227 69 55 129 255 
-16.5645 15.9129 3.9634 65 68 135 255 
-16.5403 15.9116 3.73374 69 56 130 255 
-16.5058 15.9066 3.51589 70 50 126 255 
-16.5315 15.8752 3.32729 69 56 130 255 
-16.5588 15.9129 3.10914 70 51 127 255 
-10.823 10.4226 1.89018 64 70 136 255 
-10.5873 10.2101 1.71483 69 55 129 255 
-10.3933 9.98066 1.56283 68 59 132 255 
-10.1472 9.76161 1.39299 68 59 132 255 
-9.91917 9.55546 1.23163 70 51 127 255 
-9.66865 9.33395 1.07655 70 52 128 255 
-9.46508 9.09249 0.947707 65 66 135 255 
-9.22716 8.87967 0.80343 63 71 136 255 
-9.0023 8.6813 0.66637 66 64 134 255 
-8.91321 8.61066 0.543262 69 55 129 255 
-7.46387 7.17506 0.372401 47 108 142 255 
-6.86782 6.61381 0.253004 64 69 136 255 
-6.76997 6.53085 0.160909 48 106 142 255 
-6.75951 6.53462 0.0738424 56 89 140 255 
-6.77549 6.51558 -0.00164061 53 95 141 255 
-6.77257 6.52663 -0.0902897 49 103 142 255 
-6.77611 6.54134 -0.177552 54 93 141 255 
-6.06001 5.86248 -0.238462 59 81 139 255 
-6.08077 5.85364 -0.306547 57 86 140 255 
-6.0855 5.86861 -0.385383 50 100 142 255 
-6.09222 5.8832 -0.466087 52 96 141 255 
-6.08326 5.88703 -0.54595 55 90 140 255 
-6.09511 5.86949 -0.613969 50 100 142 255 
-5.84642 5.64199 -0.665127 62 76 138 255 
-5.40718 5.22714 -0.687083 50 102 142 255 
-5.39662 5.22254 -0.75753 51 99 141 255 
-5.41007 5.21526 -0.81899 52 96 141 255 
-5.40412 5.21698 -0.890364 49 103 142 255 
-5.39548 5.21765 -0.961498 53 94 141 255 
-5.39213 5.22184 -1.03356 54 92 141 255 
-5.40788 5.21861 -1.0977 50 100 142 255 
-5.40179 5.21837 -1.16809 47 108 142 255 
-5.12001 4.95299 -1.17548 56 88 140 255 
-4.87055 4.71672 -1.18575 57 86 140 255 
-4.67023 4.51307 -1.19197 48 106 142 255 
-4.4298 4.28387 -1.18891 49 103 142 255 
-4.25727 4.11839 -1.20188 48 106 142 255 
-4.07356 3.94353 -1.20823 59 81 139 255 
-3.92517 3.79705 -1.21172 59 82 139 255 
-3.7496 3.62861 -1.20848 61 78 138 255 
-3.59732 3.4824 -1.21034 60 80 139 255 
-3.48164 3.36816 -1.22217 58 84 140 255 
-3.35304 3.24925 -1.22056 57 86 140 255 
-3.21859 3.11908 -1.21604 60 79 138 255 
-3.10522 3.00707 -1.21828 61 78 138 255 
-2.99236 2.89281 -1.21943 64 70 136 255 
-16.2672 15.831 6.81866 71 47 125 255 
-16.2945 15.8303 6.57011 72 41 121 255 
-16.2743 15.7993 6.32011 71 45 123 255 
-16.2571 15.7833 6.08402 71 47 125 255 
-16.2484 15.7961 5.88167 71 46 124 255 
-16.2657 15.8078 5.64677 70 52 128 255 
-16.2656 15.813 5.41693 71 47 125 255 
-16.2782 15.8313 5.20061 71 46 124 255 
-16.2876 15.8287 5.01017 69 55 129 255 
-16.2859 15.833 4.77411 69 53 129 255 
-16.279 15.8426 4.55138 71 45 123 255 
-16.2696 15.8451 4.33226 71 45 123 255 
-16.3159 15.8562 4.15104 70 51 127 255 
-16.2814 15.8342 3.91885 70 52 128 255 
-16.3038 15.8778 3.70227 70 52 128 255 
-16.255 15.8585 3.48314 70 51 127 255 
-16.3614 15.906 3.31264 68 57 131 255 
-16.3493 15.9057 3.08808 69 55 129 255 
-10.7866 10.5158 1.89505 64 70 136 255 
-10.5365 10.2866 1.71679 70 51 127 255 
-10.3561 10.0678 1.56649 70 51 127 255 
-10.0999 9.83619 1.39476 67 61 132 255 
-9.88887 9.64396 1.2352 68 57 131 255 
-9.63258 9.414 1.07895 69 55 129 255 
-9.4177 9.15874 0.948571 67 61 132 255 
-9.19395 8.95702 0.805309 65 68 135 255 
-8.96887 8.75591 0.667859 67 62 133 255 
-8.89807 8.70221 0.545583 68 57 131 255 
-7.42973 7.23048 0.372904 51 98 141 255 
-6.81351 6.64256 0.2525 64 70 136 255 
-6.74551 6.58764 0.161285 53 95 141 255 
-6.71857 6.57527 0.0738345 55 90 140 255 
-6.73395 6.55564 -0.00164026 54 93 141 255 
-6.75172 6.58692 -0.0905489 52 96 141 255 
-6.74228 6.58909 -0.177722 49 103 142 255 
-6.04035 5.91564 -0.239112 58 84 140 255 
-6.0612 5.90688 -0.307381 59 82 139 255 
-6.06367 5.91979 -0.386293 49 103 142 255 
-6.06171 5.92605 -0.466527 49 103 142 255 
-6.04346 5.92075 -0.545628 50 100 142 255 
-6.05684 5.90469 -0.613752 54 93 141 255 
-5.7568 5.62413 -0.658844 60 80 139 255 
-5.38426 5.26927 -0.688265 49 104 142 255 
-5.37514 5.266 -0.759036 49 103 142 255 
-5.38295 5.25322 -0.819749 49 104 142 255 
-5.37982 5.25767 -0.891659 48 105 142 255 
-5.3662 5.25343 -0.962006 56 89 140 255 
-5.36282 5.2576 -1.0341 55 90 140 255 
-5.38001 5.25584 -1.09856 48 105 142 255 
-5.37391 5.25556 -1.16901 47 107 142 255 
-5.1001 4.99467 -1.17793 53 94 141 255 
-4.8387 4.74376 -1.18507 60 79 138 255 
-4.63472 4.53407 -1.18998 48 106 142 255 
-4.40062 4.30822 -1.18816 50 100 142 255 
-4.22842 4.141 -1.20088 51 99 141 255 
-4.03811 3.9575 -1.2049 63 72 137 255 
-3.89622 3.8156 -1.20998 61 77 138 255 
-3.73979 3.66382 -1.21254 57 85 140 255 
-3.56686 3.49557 -1.20729 61 77 138 255 
-3.44221 3.37114 -1.21557 60 80 139 255 
-3.31923 3.25621 -1.2155 60 79 138 255 
-3.19594 3.1354 -1.21473 63 71 136 255 
-3.09015 3.02944 -1.21964 61 77 138 255 
-2.97113 2.90776 -1.21803 65 66 135 255 
-16.2189 15.9789 6.83937 71 42 122 255 
-16.232 15.9643 6.58428 71 46 124 255 
-16.221 15.9421 6.33729 71 46 124 255 
-16.2253 15.947 6.10865 70 50 126 255 
-16.1677 15.9118 5.8877 69 55 129 255 
-16.158 15.8971 5.64314 69 53 129 255 
-16.1849 15.9289 5.42251 70 51 127 255 
-16.1898 15.9398 5.20351 70 51 127 255 
-16.1929 15.9311 5.01103 68 59 132 255 
-16.1919 15.936 4.77514 69 55 129 255 
-16.1696 15.9305 4.54804 70 50 126 255 
-16.1728 15.9453 4.33244 72 40 120 255 
-16.1433 15.8822 4.13184 69 55 129 255 
-16.1482 15.8985 3.91018 67 61 132 255 
-16.1604 15.9325 3.69183 66 63 133 255 
-16.1328 15.9336 3.47784 68 57 131 255 
-16.1606 15.9047 3.29166 68 57 131 255 
-16.1208 15.8771 3.06326 67 61 132 255 
-10.7388 10.5985 1.89804 64 70 136 255 
-10.4824 10.3602 1.7183 70 48 126 255 
-10.2998 10.1367 1.56736 69 55 129 255 
-10.0514 9.90985 1.39643 68 59 132 255 
-9.83802 9.71285 1.23627 68 58 131 255 
-9.60157 9.49957 1.08198 70 50 126 255 
-9.38904 9.24364 0.95138 67 62 133 255 
-9.14734 9.02167 0.80606 64 70 136 255 
-8.92634 8.82201 0.668711 67 61 132 255 
-8.81468 8.72713 0.543743 69 56 130 255 
-7.3952 7.28575 0.373407 48 106 142 255 
-6.74203 6.65405 0.251359 60 80 139 255 
-6.71492 6.63875 0.161524 53 95 141 255 
-6.69372 6.63186 0.0740073 54 93 141 255 
-6.70713 6.61017 -0.00164358 50 102 142 255 
-6.7062 6.62331 -0.0904817 47 108 142 255 
-6.71097 6.63947 -0.177967 44 114 142 255 
-6.01387 5.96244 -0.239508 57 85 140 255 
-6.0405 5.9594 -0.30818 43 117 142 255 
-6.03789 5.96742 -0.386976 50 102 142 255 
-6.04014 5.97788 -0.467681 46 110 142 255 
-6.02686 5.9774 -0.54743 47 108 142 255 
-6.04037 5.96136 -0.615778 48 106 142 255 
-5.71651 5.65374 -0.658191 60 79 138 255 
-5.3582 5.30852 -0.689084 52 96 141 255 
-5.35191 5.30799 -0.76034 50 100 142 255 
-5.36051 5.29593 -0.821266 51 99 141 255 
-5.35734 5.30036 -0.893307 50 102 142 255 
-5.35711 5.3093 -0.966199 55 90 140 255 
-5.33398 5.29389 -1.03479 56 88 140 255 
-5.35117 5.29223 -1.09929 51 99 141 255 
-5.3528 5.29956 -1.17147 47 107 142 255 
-5.06305 5.01961 -1.17646 57 85 140 255 
-4.8102 4.77405 -1.18524 57 86 140 255 
-4.59143 4.5472 -1.18601 47 107 142 255 
-4.38945 4.35035 -1.19232 53 95 141 255 
-4.1897 4.15376 -1.19711 51 99 141 255 
-4.01653 3.98496 -1.20573 63 71 136 255 
-3.8769 3.84356 -1.21128 60 79 138 255 
-3.70479 3.67435 -1.20848 57 86 140 255 
-3.5419 3.51396 -1.20611 60 80 139 255 
-3.4249 3.39561 -1.21679 59 81 139 255 
-3.30056 3.27788 -1.21601 59 81 139 255 
-3.1876 3.16583 -1.21892 64 69 136 255 
-3.07423 3.05105 -1.22073 62 73 137 255 
-2.94096 2.91377 -1.21296 66 63 133 255 
-16.185 16.1424 6.8667 71 42 122 255 
-16.197 16.1267 6.61012 70 50 126 255 
-16.1693 16.0875 6.35554 69 55 129 255 
-16.1758 16.0946 6.12707 69 55 129 255 
-16.1788 16.1193 5.92765 70 51 127 255 
-16.1633 16.0987 5.67938 67 61 132 255 
-16.1185 16.0594 5.43319 69 56 130 255 
-16.1573 16.1042 5.22472 70 51 127 255 
-16.153 16.088 5.02913 66 63 133 255 
-16.1375 16.0786 4.78809 69 53 129 255 
-16.15 16.1077 4.57024 69 55 129 255 
-16.117 16.0865 4.34387 72 38 119 255 
-10.8973 10.8534 2.80613 54 92 141 255 
-10.8952 10.8592 2.65429 50 100 142 255 
-10.8675 10.8466 2.49783 52 97 141 255 
-10.8511 10.8494 2.35353 52 97 141 255 
-10.8573 10.8174 2.22495 64 69 136 255 
-10.8455 10.8135 2.07343 61 78 138 255 
-10.7073 10.6978 1.90403 62 74 137 255 
-10.4467 10.4524 1.72293 70 51 127 255 
-10.2444 10.2068 1.56843 70 50 126 255 
-10.0115 9.99243 1.39939 68 57 131 255 
-9.79233 9.78711 1.23805 69 55 129 255 
-9.55014 9.56536 1.08278 70 50 126 255 
-9.36959 9.33839 0.955197 68 58 131 255 
-9.12218 9.10795 0.808753 63 72 137 255 
-8.87275 8.87732 0.668764 69 53 129 255 
-8.73345 8.75346 0.542035 70 48 126 255 
-7.36238 7.34299 0.374019 52 97 141 255 
-6.71451 6.70872 0.251863 58 84 140 255 
-6.68254 6.68831 0.16173 55 90 140 255 
-6.67197 6.69192 0.0742194 55 91 141 255 
-6.67848 6.66321 -0.00164654 58 84 140 255 
-6.6718 6.67069 -0.0905681 48 106 142 255 
-6.68282 6.69326 -0.178306 46 109 142 255 
-5.99481 6.01694 -0.240215 56 88 140 255 
-6.02008 6.0126 -0.309015 45 112 142 255 
-6.02376 6.02697 -0.388434 49 103 142 255 
-6.00899 6.02048 -0.468121 48 106 142 255 
-6.00275 6.027 -0.548589 48 106 142 255 
-6.01356 6.00818 -0.616791 54 92 141 255 
-5.67256 5.67954 -0.657131 58 84 140 255 
-5.34099 5.35681 -0.691086 50 101 142 255 
-5.32907 5.3506 -0.761745 55 91 141 255 
-5.34549 5.34629 -0.823974 51 98 141 255 
-5.33173 5.34016 -0.894484 50 102 142 255 
-5.33494 5.35261 -0.968105 55 90 140 255 
-5.32865 5.35391 -1.0401 50 100 142 255 
-5.34238 5.34877 -1.1042 47 108 142 255 
-5.3139 5.32601 -1.17009 58 84 140 255 
-5.03773 5.05618 -1.17776 58 84 140 255 
-4.77109 4.7937 -1.18283 57 86 140 255 
-4.56553 4.57737 -1.18655 47 108 142 255 
-4.35643 4.37094 -1.19062 50 100 142 255 
-4.15653 4.17175 -1.19492 51 99 141 255 
-3.99891 4.01646 -1.20782 61 77 138 255 
-3.84152 3.85552 -1.2076 59 81 139 255 
-3.69661 3.71151 -1.21322 58 83 139 255 
-3.51821 3.53356 -1.20541 60 80 139 255 
-3.40058 3.41313 -1.21557 62 74 137 255 
-3.26605 3.28367 -1.2107 63 71 136 255 
-3.1722 3.18943 -1.22049 63 72 137 255 
-3.04663 3.06099 -1.2172 65 66 135 255 
-2.92777 2.93652 -1.21493 68 58 131 255 
-16.1692 16.3257 6.90237 71 42 122 255 
-16.206 16.3349 6.65457 71 47 125 255 
-16.1809 16.2979 6.39929 70 50 126 255 
-16.1387 16.256 6.15066 69 53 129 255 
-16.1341 16.2733 5.94775 70 51 127 255 
-16.1715 16.3057 5.71731 68 57 131 255 
-16.1567 16.2962 5.47964 69 55 129 255 
-16.1357 16.2813 5.24995 70 52 128 255 
-16.1124 16.2458 5.04744 68 59 132 255 
-16.1281 16.2677 4.81483 69 53 129 255 
-16.1185 16.2747 4.58949 69 55 129 255 
-16.1224 16.2906 4.37217 71 47 125 255 
-10.5326 10.6197 2.72895 72 31 112 255 
-16.1169 16.2621 3.95065 69 55 129 255 
-16.124 16.2917 3.72892 66 63 133 255 
-16.1104 16.3069 3.51589 66 64 134 255 
-16.0791 16.2178 3.31537 65 66 135 255 
-16.0921 16.2427 3.09545 66 65 134 255 
-10.6317 10.7535 1.90229 69 55 129 255 
-10.4152 10.5495 1.72837 70 48 126 255 
-10.2124 10.3005 1.57318 70 52 128 255 
-9.96754 10.0714 1.40185 69 56 130 255 
-9.74889 9.86402 1.24018 68 57 131 255 
-9.50317 9.63584 1.08414 70 51 127 255 
-9.31211 9.39571 0.955197 70 52 128 255 
-9.06893 9.16659 0.809003 65 68 135 255 
-8.8553 8.96926 0.671584 66 64 134 255 
-8.72025 8.84816 0.544575 70 52 128 255 
-7.32211 7.39299 0.37427 53 94 141 255 
-6.67393 6.7505 0.25189 59 82 139 255 
-6.64769 6.73559 0.161884 51 98 141 255 
-6.65394 6.75625 0.0744785 52 96 141 255 
-6.65646 6.72325 -0.00165126 49 103 142 255 
-6.64831 6.72929 -0.0908081 46 109 142 255 
-6.66549 6.75834 -0.178947 47 108 142 255 
-5.969 6.065 -0.240667 57 86 140 255 
-5.9908 6.05724 -0.309414 46 111 142 255 
-6.00211 6.07945 -0.389435 50 101 142 255 
-5.97544 6.0608 -0.468395 48 105 142 255 
-5.96915 6.06727 -0.548911 50 102 142 255 
-5.97728 6.04567 -0.616864 53 95 141 255 
-5.6341 5.71069 -0.656723 55 90 140 255 
-5.31012 5.39161 -0.691359 55 90 140 255 
-5.30451 5.39171 -0.76295 54 92 141 255 
-5.32586 5.39243 -0.826033 54 93 141 255 
-5.30026 5.37419 -0.894719 53 94 141 255 
-5.2999 5.38312 -0.967724 55 90 140 255 
-5.30264 5.39357 -1.04147 54 93 141 255 
-5.31224 5.38427 -1.10478 50 102 142 255 
-5.27904 5.35641 -1.16963 58 83 139 255 
-5.0073 5.0877 -1.17793 56 88 140 255 
-4.72777 4.80884 -1.17938 59 82 139 255 
-4.54495 4.61301 -1.18854 47 108 142 255 
-4.33436 4.40249 -1.19195 50 101 142 255 
-4.14804 4.21464 -1.19989 52 96 141 255 
-3.97281 4.03953 -1.2074 63 71 136 255 
-3.81985 3.8811 -1.20825 60 80 139 255 
-3.66284 3.72301 -1.20961 59 81 139 255 
-3.50396 3.56271 -1.20799 62 74 137 255 
-3.39181 3.44637 -1.21997 61 78 138 255 
-3.23906 3.29674 -1.20817 62 73 137 255 
-3.13972 3.19576 -1.21552 66 64 134 255 
-3.02037 3.07208 -1.21422 66 63 133 255 
-2.92451 2.96947 -1.22112 69 56 130 255 
-16.121 16.478 6.92481 72 38 119 255 
-16.1371 16.4662 6.66762 71 46 124 255 
-16.1433 16.4608 6.42426 72 41 121 255 
-16.1367 16.4547 6.18827 70 51 127 255 
-16.122 16.4619 5.98041 71 45 123 255 
-16.1152 16.4497 5.73301 67 61 132 255 
-16.1319 16.4721 5.50542 69 56 130 255 
-16.09 16.4357 5.26781 70 51 127 255 
-16.1102 16.4441 5.07824 69 56 130 255 
-16.1101 16.4502 4.83952 69 55 129 255 
-16.0897 16.4462 4.60992 69 55 129 255 
-16.0997 16.4686 4.39334 70 50 126 255 
-16.1105 16.4444 4.20022 72 35 116 255 
-16.083 16.4283 3.96698 71 45 123 255 
-16.0569 16.4242 3.73663 68 59 132 255 
-16.0515 16.4479 3.52499 68 59 132 255 
-16.0444 16.3826 3.32887 65 68 135 255 
-16.076 16.4268 3.11169 63 72 137 255 
-10.5807 10.8341 1.90503 71 45 123 255 
-10.3558 10.6189 1.7293 69 55 129 255 
-10.149 10.363 1.57318 69 53 129 255 
-9.92364 10.1508 1.40441 68 58 131 255 
-9.70488 9.94075 1.24232 68 57 131 255 
-9.47377 9.72467 1.08757 68 58 131 255 
-9.28499 9.48403 0.958366 68 58 131 255 
-9.02787 9.23776 0.810381 64 69 136 255 
-8.80149 9.02485 0.67169 70 48 126 255 
-8.66092 8.89649 0.544269 69 53 129 255 
-7.285 7.44636 0.374701 56 88 140 255 
-6.63378 6.79276 0.251943 62 76 138 255 
-6.6181 6.78843 0.162174 54 93 141 255 
-6.62072 6.80555 0.0745728 56 89 140 255 
-6.64515 6.7947 -0.00165876 45 112 142 255 
-6.61737 6.78069 -0.0909521 48 105 142 255 
-6.61134 6.78622 -0.178608 49 104 142 255 
-5.94073 6.11083 -0.241035 52 97 141 255 
-5.95492 6.09531 -0.309486 51 98 141 255 
-5.96818 6.11974 -0.389663 47 107 142 255 
-5.9674 6.12739 -0.470703 48 106 142 255 
-5.9485 6.12096 -0.550455 49 104 142 255 
-5.95192 6.09437 -0.618094 58 84 140 255 
-5.59339 5.73945 -0.65607 59 81 139 255 
-5.27346 5.42052 -0.690904 58 84 140 255 
-5.27895 5.432 -0.764054 54 93 141 255 
-5.29892 5.43141 -0.827008 51 99 141 255 
-5.27827 5.41799 -0.896603 54 92 141 255 
-5.26885 5.41767 -0.968105 54 93 141 255 
-5.26738 5.42387 -1.04106 57 86 140 255 
-5.27357 5.41109 -1.10362 50 100 142 255 
-5.2378 5.3802 -1.16778 56 88 140 255 
-4.96842 5.11054 -1.17613 57 85 140 255 
-4.66386 4.80243 -1.17077 62 76 138 255 
-4.51793 4.64222 -1.1889 43 116 142 255 
-4.30521 4.42689 -1.19138 49 104 142 255 
-4.09204 4.20909 -1.19114 53 94 141 255 
-3.94046 4.05611 -1.20511 63 72 137 255 
-3.78303 3.89117 -1.20414 62 74 137 255 
-3.61752 3.72236 -1.20216 62 74 137 255 
-3.48 3.58205 -1.20729 62 76 138 255 
-3.36655 3.46294 -1.2185 63 72 137 255 
-3.20799 3.30545 -1.20412 65 68 135 255 
-3.12207 3.21704 -1.2163 68 59 132 255 
-2.98604 3.07467 -1.20798 67 61 132 255 
-2.90489 2.98599 -1.22056 66 65 134 255 
-18.723 19.3741 8.09343 70 11 94 255 
-18.4632 19.0725 7.67694 71 14 97 255 
-19.1044 19.7208 7.65065 70 10 93 255 
-15.9272 16.4417 6.14652 71 14 97 255 
-15.8148 16.3476 5.90353 72 27 109 255 
-16.0221 16.5566 5.73591 72 27 109 255 
-16.0278 16.568 5.5045 72 23 105 255 
-15.9862 16.5313 5.26692 72 20 103 255 
-16.0273 16.5615 5.08406 72 28 110 255 
-16.0552 16.5966 4.8535 72 26 108 255 
-16.0062 16.563 4.61503 72 26 108 255 
-16.0366 16.6066 4.40384 72 20 103 255 
-16.0168 16.5507 4.2022 72 40 120 255 
-10.079 10.4225 2.50176 69 55 129 255 
-15.9825 16.5501 3.74289 69 53 129 255 
-16.0045 16.6023 3.53696 70 50 126 255 
-16.0323 16.5725 3.3474 65 68 135 255 
-16.03 16.5822 3.12242 64 69 136 255 
-15.9877 16.5728 2.8968 72 37 118 255 
-10.3028 10.6951 1.73139 72 40 120 255 
-10.1177 10.4586 1.57825 70 52 128 255 
-9.88191 10.233 1.40736 68 57 131 255 
-9.66237 10.0195 1.24473 67 62 133 255 
-9.41946 9.78836 1.08821 69 53 129 255 
-9.23633 9.55086 0.959374 68 58 131 255 
-8.98557 9.30806 0.811696 64 70 136 255 
-8.7605 9.09379 0.672808 71 47 125 255 
-8.60132 8.94442 0.543962 71 47 125 255 
-7.25445 7.50673 0.375492 58 83 139 255 
-6.59891 6.84053 0.252208 59 81 139 255 
-6.5895 6.84259 0.162499 56 88 140 255 
-6.58577 6.85325 0.0746513 54 92 141 255 
-6.61514 6.84758 -0.00166173 55 90 140 255 
-6.59993 6.84636 -0.091288 49 104 142 255 
-6.5883 6.84612 -0.179117 51 99 141 255 
-5.91905 6.16375 -0.241685 57 85 140 255 
-5.92712 6.14181 -0.309995 50 101 142 255 
-5.92705 6.15265 -0.389435 50 100 142 255 
-5.93523 6.16965 -0.471143 50 101 142 255 
-5.90876 6.15518 -0.550262 51 98 141 255 
-5.92895 6.14585 -0.619614 53 95 141 255 
-5.53249 5.74709 -0.653051 60 79 138 255 
-5.25667 5.47001 -0.693087 54 92 141 255 
-5.25655 5.47577 -0.76566 56 88 140 255 
-5.27308 5.4717 -0.8282 55 91 141 255 
-5.26283 5.46888 -0.899663 51 98 141 255 
-5.24719 5.46206 -0.970265 55 91 141 255 
-5.258 5.48111 -1.04583 55 90 140 255 
-5.25057 5.45404 -1.10579 54 93 141 255 
-5.20195 5.40939 -1.16717 50 102 142 255 
-4.91989 5.12314 -1.17206 53 95 141 255 
-4.6234 4.81958 -1.16801 66 64 134 255 
-4.46755 4.64716 -1.18312 48 105 142 255 
-4.25892 4.43339 -1.18607 49 104 142 255 
-4.05935 4.22705 -1.18915 62 76 138 255 
-3.91685 4.08162 -1.20552 62 73 137 255 
-3.75503 3.91008 -1.20284 61 77 138 255 
-3.59663 3.74659 -1.20284 62 76 138 255 
-3.45594 3.60123 -1.20658 62 73 137 255 
-3.33113 3.46885 -1.21337 66 64 134 255 
-3.18899 3.32647 -1.20463 64 69 136 255 
-3.10494 3.23892 -1.21735 64 70 136 255 
-2.96978 3.09571 -1.20906 64 69 136 255 
-2.8945 3.01206 -1.22393 65 68 135 255 
-18.2037 19.0695 7.91938 72 20 103 255 
-18.8776 19.7415 7.89947 71 17 100 255 
-18.9511 19.8042 7.63776 71 13 96 255 
-19.3889 20.2625 7.53027 70 7 90 255 
-19.3633 20.2631 7.27446 71 13 96 255 
-15.8914 16.6245 5.72552 71 14 97 255 
-19.486 20.3917 6.73499 72 20 103 255 
-19.2724 20.176 6.39031 71 14 97 255 
-19.6569 20.5631 6.27532 71 17 100 255 
-19.3943 20.2961 5.90048 71 19 101 255 
-19.3111 20.2298 5.60362 72 27 109 255 
-19.3433 20.2785 5.34599 72 28 110 255 
-19.3043 20.1943 5.09713 71 17 100 255 
-19.3428 20.2493 4.83196 72 27 109 255 
-9.82137 10.2958 2.31478 66 65 134 255 
-19.3179 20.2872 4.29666 72 28 110 255 
-19.3851 20.2859 4.07334 71 17 100 255 
-19.2786 20.1891 3.77926 71 19 101 255 
-10.4696 10.9868 1.90915 72 26 108 255 
-10.2541 10.7762 1.73428 71 46 124 255 
-10.0664 10.5342 1.5803 69 53 129 255 
-9.82374 10.2985 1.40805 69 56 130 255 
-9.62201 10.1009 1.24749 68 59 132 255 
-9.36197 9.84886 1.08853 70 52 128 255 
-9.19133 9.62178 0.960815 66 64 134 255 
-8.93862 9.37386 0.812635 65 68 135 255 
-8.7541 9.19946 0.676639 70 51 127 255 
-8.55178 9.00282 0.544313 71 45 123 255 
-7.2255 7.56917 0.376391 59 82 139 255 
-6.56233 6.88668 0.25242 60 79 138 255 
-6.55566 6.89159 0.162705 57 86 140 255 
-6.56149 6.91239 0.0748555 56 89 140 255 
-6.5806 6.896 -0.00166365 58 83 139 255 
-6.57435 6.90411 -0.0915184 50 100 142 255 
-6.56476 6.90598 -0.179626 52 97 141 255 
-5.9052 6.22534 -0.242675 56 88 140 255 
-5.89967 6.18891 -0.310539 48 106 142 255 
-5.88987 6.18963 -0.389481 50 100 142 255 
-5.90139 6.21029 -0.471473 47 107 142 255 
-5.88667 6.20798 -0.551742 53 94 141 255 
-5.90971 6.2016 -0.621567 56 89 140 255 
-5.48064 5.7636 -0.651093 61 78 138 255 
-5.24974 5.53033 -0.696635 47 108 142 255 
-5.23791 5.52381 -0.767868 52 97 141 255 
-5.24489 5.50971 -0.829066 52 96 141 255 
-5.24355 5.51618 -0.902135 50 101 142 255 
-5.23679 5.51861 -0.974586 55 91 141 255 
-5.23654 5.52621 -1.04829 55 90 140 255 
-5.232 5.50193 -1.10897 53 95 141 255 
-5.16594 5.43834 -1.16655 49 103 142 255 
-4.86527 5.1289 -1.16653 55 90 140 255 
-4.60593 4.86073 -1.17111 66 65 134 255 
-4.44776 4.68376 -1.18547 47 108 142 255 
-4.23028 4.45802 -1.18569 51 98 141 255 
-4.04885 4.26824 -1.19373 56 89 140 255 
-3.88769 4.10132 -1.20427 63 71 136 255 
-3.73298 3.93517 -1.20349 62 73 137 255 
-3.56888 3.76364 -1.20126 65 66 135 255 
-3.4291 3.61743 -1.20494 65 68 135 255 
-3.29978 3.47867 -1.2097 62 74 137 255 
-3.18515 3.36353 -1.21095 62 76 138 255 
-3.08368 3.25651 -1.21683 66 65 134 255 
-2.95933 3.12296 -1.21259 60 79 138 255 
-2.85614 3.00888 -1.21549 63 71 136 255 
-19.2802 20.4469 8.44212 72 23 105 255 
-18.2455 19.3165 7.68444 70 11 94 255 
-18.8074 19.897 7.6289 72 20 103 255 
-19.2556 20.372 7.5269 71 17 100 255 
-19.0353 20.1661 7.19759 70 8 92 255 
-19.322 20.4632 7.00664 72 27 109 255 
-15.4461 16.3638 5.37327 72 26 108 255 
-19.2667 20.4193 6.42983 72 27 109 255 
-19.2877 20.4263 6.19734 72 36 117 255 
-19.2325 20.3756 5.88916 72 31 112 255 
-19.1381 20.2965 5.58947 72 32 113 255 
-19.1701 20.3453 5.3325 72 22 104 255 
-19.2368 20.3724 5.11221 71 44 122 255 
-19.2236 20.3733 4.83332 72 35 116 255 
-19.1843 20.3598 4.55088 72 31 112 255 
-9.53524 10.1375 2.13461 51 98 141 255 
-19.1937 20.3339 4.05926 72 35 116 255 
-9.49356 10.0648 1.87313 70 51 127 255 
-9.48323 10.0748 1.74053 68 57 131 255 
-9.56265 10.1737 1.62786 64 70 136 255 
-10.0077 10.6022 1.58127 69 56 130 255 
-9.74876 10.3463 1.40638 68 57 131 255 
-9.54961 10.1489 1.24615 66 65 134 255 
-9.35458 9.9628 1.09476 68 57 131 255 
-9.1506 9.69758 0.962759 65 68 135 255 
-8.92952 9.48011 0.81708 65 68 135 255 
-8.71048 9.26682 0.677649 68 58 131 255 
-8.49228 9.05076 0.54405 72 40 120 255 
-7.19538 7.63081 0.377254 56 88 140 255 
-7.18524 7.63362 0.278177 58 83 139 255 
-6.99595 7.44538 0.174762 61 78 138 255 
-6.7262 7.17355 0.0772353 59 82 139 255 
-6.65751 7.06286 -0.00169402 57 86 140 255 
-6.54488 6.95816 -0.0917008 49 104 142 255 
-6.53664 6.96143 -0.180021 50 100 142 255 
-5.8744 6.26948 -0.242986 57 86 140 255 
-5.87323 6.23736 -0.311156 52 96 141 255 
-5.88052 6.25622 -0.391393 50 101 142 255 
-5.87821 6.2624 -0.472681 52 97 141 255 
-5.8703 6.26729 -0.553802 53 95 141 255 
-5.89137 6.25881 -0.623666 54 93 141 255 
-5.43358 5.78477 -0.649706 60 79 138 255 
-5.22865 5.57624 -0.698364 46 109 142 255 
-5.20868 5.56093 -0.76857 57 86 140 255 
-5.21234 5.54324 -0.829283 53 94 141 255 
-5.22999 5.56997 -0.905666 50 101 142 255 
-5.21504 5.56367 -0.976873 50 101 142 255 
-5.20727 5.5633 -1.04924 53 95 141 255 
-5.21305 5.5498 -1.11215 44 115 142 255 
-5.12436 5.46129 -1.16471 47 108 142 255 
-4.83304 5.15793 -1.16637 54 92 141 255 
-4.56391 4.87595 -1.16801 65 66 135 255 
-4.41894 4.71096 -1.18547 46 111 142 255 
-4.20553 4.48676 -1.18645 50 101 142 255 
-4.03197 4.30301 -1.19651 56 89 140 255 
-3.84508 4.10654 -1.19885 62 73 137 255 
-3.71077 3.96014 -1.20414 62 73 137 255 
-3.54972 3.78974 -1.20261 60 79 138 255 
-3.40817 3.63982 -1.20541 59 82 139 255 
-3.26975 3.48965 -1.20652 62 73 137 255 
-3.16643 3.38513 -1.21171 60 80 139 255 
-3.04122 3.25141 -1.20792 63 72 137 255 
-2.94867 3.15019 -1.21611 61 78 138 255 
-2.8245 3.01235 -1.20987 63 71 136 255 
-18.078 19.4092 7.96771 71 17 100 255 
-18.3115 19.6261 7.76278 71 13 96 255 
-17.8402 19.1073 7.28399 72 26 108 255 
-18.6135 19.9363 7.32359 70 8 92 255 
-18.8954 20.2656 7.19156 71 14 97 255 
-19.2569 20.6467 7.02886 71 16 99 255 
-15.3487 16.4619 5.37443 72 24 106 255 
-19.1709 20.5693 6.43987 70 7 90 255 
-18.7916 20.1472 6.07756 71 16 99 255 
-18.7768 20.1389 5.78734 71 17 100 255 
-19.2832 20.7034 5.66884 72 29 111 255 
-18.6708 20.0606 5.22775 70 10 93 255 
-30.8794 33.107 8.26009 69 4 87 255 
-30.5176 32.7429 7.72327 70 7 90 255 
-30.0492 32.2849 7.17508 69 4 87 255 
-29.2872 31.5223 6.59955 69 5 89 255 
-9.43745 10.1218 2.00902 40 124 142 255 
-9.40258 10.0917 1.86736 46 111 142 255 
-9.38272 10.0914 1.73341 53 95 141 255 
-9.41151 10.1369 1.61269 62 73 137 255 
-9.43739 10.1217 1.50094 39 126 142 255 
-9.40509 10.105 1.36572 41 121 142 255 
-9.40782 10.1219 1.23573 47 108 142 255 
-9.29395 10.0207 1.09484 70 51 127 255 
-9.11948 9.78419 0.965784 62 73 137 255 
-8.89634 9.56176 0.819397 65 68 135 255 
-8.66365 9.33107 0.678448 68 59 132 255 
-8.43319 9.09903 0.543831 71 47 125 255 
-7.16613 7.69383 0.378188 59 82 139 255 
-7.14984 7.69001 0.278628 58 84 140 255 
-6.96101 7.49989 0.175036 57 86 140 255 
-6.69633 7.23009 0.0774002 60 80 139 255 
-6.71694 7.21409 -0.00172037 48 106 142 255 
-6.51704 7.0143 -0.091912 46 110 142 255 
-6.49788 7.00581 -0.180135 53 95 141 255 
-5.84465 6.31494 -0.243353 52 97 141 255 
-5.85254 6.29231 -0.3121 50 102 142 255 
-5.84882 6.29951 -0.391849 51 99 141 255 
-5.85325 6.313 -0.47378 49 103 142 255 
-5.83445 6.30612 -0.554059 55 90 140 255 
-5.8515 6.29338 -0.623521 54 92 141 255 
-5.38645 5.80558 -0.648319 59 81 139 255 
-5.20517 5.61991 -0.69982 44 114 142 255 
-5.19203 5.61177 -0.771179 50 100 142 255 
-5.20732 5.60644 -0.833942 50 101 142 255 
-5.20247 5.60924 -0.906843 50 102 142 255 
-5.18889 5.6043 -0.978397 56 88 140 255 
-5.1764 5.59878 -1.04993 53 94 141 255 
-5.19438 5.59836 -1.11547 44 113 142 255 
-5.09209 5.49408 -1.16502 47 108 142 255 
-4.80063 5.18677 -1.1662 55 90 140 255 
-4.54059 4.9111 -1.16973 61 78 138 255 
-4.37591 4.72284 -1.18168 48 106 142 255 
-4.17659 4.51104 -1.18607 52 97 141 255 
-4.00416 4.32623 -1.19611 63 72 137 255 
-3.83176 4.14298 -1.20261 61 77 138 255 
-3.67446 3.96994 -1.20024 58 83 139 255 
-3.52111 3.80573 -1.20081 59 81 139 255 
-3.39303 3.66851 -1.20799 58 84 140 255 
-3.24301 3.50396 -1.20456 62 74 137 255 
-3.13247 3.39029 -1.20665 61 77 138 255 
-3.04348 3.29411 -1.21683 64 69 136 255 
-2.93124 3.17035 -1.21693 60 79 138 255 
-2.79487 3.01765 -1.20509 66 64 134 255 
-19.339 21.0203 8.58021 71 13 96 255 
-17.9114 19.4351 7.6436 71 17 100 255 
-18.5363 20.0987 7.61844 71 19 101 255 
-15.644 16.9632 6.19605 72 29 111 255 
-15.719 17.0676 6.02236 72 26 108 255 
-15.1356 16.4288 5.56124 72 24 106 255 
-18.7621 20.372 6.61329 70 11 94 255 
-19.0087 20.6478 6.42782 71 16 99 255 
-18.9125 20.5279 6.15727 71 17 100 255 
-19.0141 20.646 5.89945 69 5 89 255 
-19.3722 21.0566 5.73289 71 16 99 255 
-30.2904 32.9483 8.53765 69 5 89 255 
-29.8198 32.3669 8.02962 69 5 89 255 
-30.8948 33.5581 7.8707 70 7 90 255 
-29.7924 32.4054 7.16111 70 7 90 255 
-29.8237 32.4974 6.76526 70 7 90 255 
-9.12778 9.9109 1.956 62 74 137 255 
-29.8098 32.3909 5.95962 70 7 90 255 
-28.9827 31.5578 5.39008 70 8 92 255 
-10.1339 11.0502 1.74806 71 46 124 255 
-9.95162 10.8054 1.59323 69 55 129 255 
-9.70526 10.5567 1.41868 70 52 128 255 
-9.49912 10.3468 1.25604 69 56 130 255 
-9.2397 10.0857 1.09572 69 55 129 255 
-9.07549 9.85757 0.967513 67 61 132 255 
-8.84966 9.62939 0.820524 65 66 135 255 
-8.61568 9.39436 0.679193 66 65 134 255 
-8.42442 9.20219 0.546896 69 55 129 255 
-7.14653 7.76781 0.379662 59 82 139 255 
-7.1086 7.74036 0.278867 55 90 140 255 
-6.925 7.55352 0.175293 59 81 139 255 
-6.66804 7.28875 0.0775887 60 80 139 255 
-6.68677 7.27063 -0.00172404 50 101 142 255 
-6.47523 7.05563 -0.0919312 48 106 142 255 
-6.44464 7.03449 -0.179852 56 88 140 255 
-5.81996 6.36618 -0.243947 51 99 141 255 
-5.82464 6.33987 -0.31268 48 105 142 255 
-5.82221 6.34853 -0.392668 49 104 142 255 
-5.82856 6.36425 -0.474934 51 99 141 255 
-5.82257 6.37127 -0.556634 54 93 141 255 
-5.83639 6.35488 -0.626054 46 109 142 255 
-5.34332 5.83043 -0.647421 58 84 140 255 
-5.17462 5.65615 -0.700366 50 101 142 255 
-5.16958 5.65674 -0.772986 54 93 141 255 
-5.18358 5.65 -0.835676 52 96 141 255 
-5.18271 5.65716 -0.909433 52 96 141 255 
-5.16579 5.64847 -0.980558 52 96 141 255 
-5.1366 5.62459 -1.04884 56 88 140 255 
-5.17731 5.6491 -1.11923 46 110 142 255 
-5.05495 5.52157 -1.16425 45 112 142 255 
-4.76405 5.21103 -1.16506 55 90 140 255 
-4.51436 4.94323 -1.17077 62 76 138 255 
-4.34153 4.74379 -1.18023 50 101 142 255 
-4.1263 4.51194 -1.17963 55 90 140 255 
-3.9696 4.34204 -1.19373 60 79 138 255 
-3.81022 4.17074 -1.20386 62 74 137 255 
-3.64015 3.9816 -1.19699 59 81 139 255 
-3.49835 3.82798 -1.20104 59 82 139 255 
-3.35931 3.67706 -1.204 62 76 138 255 
-3.22537 3.52808 -1.20603 62 74 137 255 
-3.10248 3.39944 -1.20311 60 80 139 255 
-3.01801 3.30702 -1.21473 63 71 136 255 
-2.89551 3.1705 -1.21015 62 73 137 255 
-2.77695 3.03545 -1.20537 65 68 135 255 
-19.859 21.853 8.87021 72 23 105 255 
-17.6651 19.4054 7.58915 71 19 101 255 
-15.3552 16.8558 6.35339 70 10 93 255 
-15.4576 16.9689 6.16337 72 27 109 255 
-15.5345 17.0764 5.99171 72 31 112 255 
-15.0854 16.5774 5.58009 72 23 105 255 
-18.9686 20.8515 6.73105 71 14 97 255 
-15.7739 17.3464 5.36983 72 40 120 255 
-18.5785 20.4153 6.0892 72 26 108 255 
-18.8706 20.7442 5.8943 72 20 103 255 
-19.6212 21.5916 5.84565 71 17 100 255 
-30.4383 33.5196 8.63715 69 4 87 255 
-19.2042 21.1029 5.2059 71 14 97 255 
-29.2231 32.1358 7.49491 70 7 90 255 
-29.3919 32.3662 7.11246 69 5 89 255 
-28.0564 30.9507 6.40732 69 4 87 255 
-28.164 30.9594 6.07589 71 14 97 255 
-8.82943 9.71286 1.77707 72 40 120 255 
-28.8391 31.7909 5.39957 69 5 89 255 
-10.0966 11.146 1.75339 71 47 125 255 
-9.89182 10.8736 1.59431 70 50 126 255 
-9.65234 10.6293 1.42046 69 55 129 255 
-9.44215 10.4122 1.25693 66 63 133 255 
-9.23181 10.202 1.10218 70 51 127 255 
-9.02692 9.92635 0.968809 68 58 131 255 
-8.7951 9.68868 0.820963 68 57 131 255 
-8.56056 9.45001 0.679405 67 62 133 255 
-8.3745 9.26111 0.547334 68 57 131 255 
-7.10276 7.81595 0.379878 59 82 139 255 
-7.05493 7.77717 0.278628 60 80 139 255 
-6.88792 7.60624 0.175532 57 86 140 255 
-6.64062 7.34882 0.0777929 61 78 138 255 
-6.66422 7.33594 -0.0017298 53 94 141 255 
-6.4439 7.10856 -0.092104 50 100 142 255 
-6.40538 7.07835 -0.179965 60 79 138 255 
-5.79485 6.41735 -0.24454 56 89 140 255 
-5.79638 6.38733 -0.313261 46 109 142 255 
-5.79924 6.4019 -0.393761 48 106 142 255 
-5.80883 6.42137 -0.476528 53 95 141 255 
-5.80075 6.42613 -0.558307 50 100 142 255 
-5.80666 6.40091 -0.627067 49 104 142 255 
-5.29206 5.84612 -0.645545 61 77 138 255 
-5.16185 5.71218 -0.703368 49 103 142 255 
-5.13878 5.69279 -0.773588 56 89 140 255 
-5.16283 5.69717 -0.837951 50 101 142 255 
-5.1539 5.69548 -0.910492 47 108 142 255 
-5.14034 5.69037 -0.982336 54 92 141 255 
-5.1292 5.68616 -1.05443 54 92 141 255 
-5.16115 5.7013 -1.12328 39 128 142 255 
-5.00507 5.5349 -1.16056 46 110 142 255 
-4.72868 5.2365 -1.16425 52 97 141 255 
-4.47602 4.96206 -1.1687 62 73 137 255 
-4.29652 4.75283 -1.1759 49 104 142 255 
-4.09788 4.53645 -1.17944 55 91 141 255 
-3.94026 4.3634 -1.19293 60 79 138 255 
-3.76687 4.17444 -1.19823 61 77 138 255 
-3.61958 4.00821 -1.19829 55 90 140 255 
-3.47218 3.84648 -1.20013 58 84 140 255 
-3.31715 3.67596 -1.19695 60 80 139 255 
-3.20236 3.54637 -1.20554 61 78 138 255 
-3.09776 3.43638 -1.20943 59 82 139 255 
-2.96277 3.28676 -1.20059 61 77 138 255 
-2.88309 3.19607 -1.21313 59 82 139 255 
-2.76921 3.06454 -1.21015 62 73 137 255 
-18.7918 20.9353 8.45075 70 8 92 255 
-17.5174 19.482 7.57692 71 19 101 255 
-15.2412 16.9383 6.3491 72 29 111 255 
-15.297 17.001 6.14081 72 28 110 255 
-14.8051 16.4766 5.74928 72 26 108 255 
-15.0781 16.775 5.61536 72 35 116 255 
-18.891 21.0239 6.74916 70 11 94 255 
-15.6215 17.3921 5.35421 72 29 111 255 
-18.8361 20.9552 6.21565 72 20 103 255 
-18.8725 21.0037 5.93503 72 23 105 255 
-20.1577 22.4573 6.04644 70 11 94 255 
-31.0801 34.6513 8.87944 69 4 87 255 
-29.0955 32.3689 7.94095 70 7 90 255 
-30.0836 33.4926 7.76816 70 7 90 255 
-0 0 0 68 2 86 255 
-30.9965 34.6187 7.12714 69 5 89 255 
-29.7138 33.0684 6.45388 70 10 93 255 
-8.76966 9.76686 1.77707 72 41 121 255 
-8.50546 9.49242 1.60336 71 13 96 255 
-10.036 11.2166 1.75478 71 45 123 255 
-9.85814 10.9711 1.5997 72 41 121 255 
-9.6381 10.7454 1.42804 70 50 126 255 
-9.40134 10.4959 1.26005 70 52 128 255 
-9.18299 10.2741 1.10386 70 48 126 255 
-8.9865 10.0046 0.971042 65 68 135 255 
-8.75814 9.76773 0.823092 67 62 133 255 
-8.52305 9.52542 0.681055 68 58 131 255 
-8.30687 9.3004 0.546634 68 58 131 255 
-7.06468 7.87054 0.380417 61 77 138 255 
-7.01175 7.82552 0.278814 58 83 139 255 
-6.83912 7.64613 0.175481 60 80 139 255 
-6.61738 7.41404 0.0780521 60 80 139 255 
-6.64914 7.41019 -0.00173765 54 92 141 255 
-6.41817 7.16808 -0.0923631 55 90 140 255 
-6.36982 7.12646 -0.180191 63 72 137 255 
-5.76335 6.46174 -0.24488 51 99 141 255 
-5.77309 6.44064 -0.314132 48 105 142 255 
-5.77984 6.4597 -0.395128 49 104 142 255 
-5.77198 6.45987 -0.476748 51 99 141 255 
-5.76121 6.4616 -0.558307 51 99 141 255 
-5.7786 6.44905 -0.628298 50 100 142 255 
-5.25277 5.87476 -0.645137 61 77 138 255 
-5.134 5.75191 -0.704369 50 101 142 255 
-5.11633 5.73832 -0.775495 55 91 141 255 
-5.11982 5.71985 -0.836651 54 93 141 255 
-5.1129 5.72034 -0.909433 51 99 141 255 
-5.13042 5.74993 -0.987165 49 103 142 255 
-5.11925 5.74563 -1.05961 48 105 142 255 
-5.13068 5.73802 -1.12429 44 115 142 255 
-4.96772 5.56182 -1.15979 46 111 142 255 
-4.68792 5.25584 -1.16213 52 96 141 255 
-4.43828 4.98134 -1.1668 59 82 139 255 
-4.2712 4.78351 -1.17698 46 111 142 255 
-4.06016 4.55052 -1.1766 56 88 140 255 
-3.89775 4.36995 -1.18816 61 77 138 255 
-3.74379 4.20039 -1.19906 60 79 138 255 
-3.58777 4.02233 -1.1959 56 88 140 255 
-3.44722 3.86626 -1.19968 56 88 140 255 
-3.29259 3.69407 -1.19624 58 84 140 255 
-3.16957 3.55365 -1.20138 60 79 138 255 
-3.06632 3.44376 -1.20539 61 78 138 255 
-2.94704 3.30993 -1.20243 60 80 139 255 
-2.85446 3.20364 -1.20933 62 76 138 255 
-2.74397 3.07431 -1.20734 64 70 136 255 
-18.8332 21.2423 8.52785 71 16 99 255 
-17.5124 19.7184 7.62693 71 13 96 255 
-15.1184 17.0106 6.34132 72 37 118 255 
-15.0737 16.961 6.09284 72 33 115 255 
-14.7481 16.6171 5.76661 72 28 110 255 
-15.069 16.9732 5.65063 72 35 116 255 
-15.4785 17.4403 5.56813 72 24 106 255 
-15.5339 17.5095 5.36091 71 19 101 255 
-19.0352 21.4399 6.32465 72 24 106 255 
-18.9174 21.3153 5.99016 72 26 108 255 
-19.2292 21.6892 5.80774 71 17 100 255 
-19.2007 21.673 5.52344 71 16 99 255 
-19.267 21.7011 5.29475 70 7 90 255 
-19.2933 21.7466 5.01628 70 11 94 255 
-30.3893 34.3011 7.45512 70 7 90 255 
-30.7966 34.8231 7.13018 70 7 90 255 
-30.3111 34.1523 6.62901 70 8 92 255 
-30.3336 34.2027 6.18916 70 7 90 255 
-8.47928 9.58084 1.60947 62 76 138 255 
-9.99855 11.3137 1.76034 71 46 124 255 
-9.82033 11.0648 1.60456 69 55 129 255 
-9.58057 10.814 1.42932 70 51 127 255 
-9.35062 10.5691 1.26192 70 51 127 255 
-9.13627 10.3489 1.10586 70 51 127 255 
-8.94282 10.0797 0.972986 64 69 136 255 
-8.71591 9.84146 0.824782 65 66 135 255 
-8.50479 9.62318 0.6843 69 56 130 255 
-8.28732 9.3939 0.54913 67 62 133 255 
-7.02819 7.9272 0.381064 60 79 138 255 
-6.97089 7.87663 0.279105 63 72 137 255 
-6.80399 7.70144 0.175789 59 81 139 255 
-6.59028 7.47551 0.078272 57 85 140 255 
-6.60951 7.45758 -0.00173922 55 90 140 255 
-6.38268 7.21707 -0.0924879 56 89 140 255 
-6.31274 7.15042 -0.179814 62 73 137 255 
-6.01301 6.8255 -0.257262 62 73 137 255 
-5.75466 6.49988 -0.315294 52 97 141 255 
-5.75464 6.51151 -0.396129 54 93 141 255 
-5.75536 6.52137 -0.478671 56 88 140 255 
-5.72937 6.50582 -0.559079 53 95 141 255 
-5.75412 6.50156 -0.629962 46 111 142 255 
-5.20409 5.89269 -0.643587 59 81 139 255 
-5.09597 5.78032 -0.704005 52 96 141 255 
-5.08826 5.77782 -0.776599 51 98 141 255 
-5.09582 5.76382 -0.838493 51 99 141 255 
-5.09216 5.76798 -0.912023 46 111 142 255 
-5.10488 5.79246 -0.989071 48 105 142 255 
-5.09307 5.78735 -1.06152 49 103 142 255 
-5.11241 5.78868 -1.12805 43 116 142 255 
-4.93416 5.59294 -1.15994 45 113 142 255 
-4.63797 5.26452 -1.15774 54 93 141 255 
-4.39202 4.99073 -1.16267 60 80 139 255 
-4.24177 4.80962 -1.17698 48 105 142 255 
-4.03411 4.57755 -1.17717 58 83 139 255 
-3.85985 4.38128 -1.18478 62 76 138 255 
-3.7076 4.21154 -1.19573 60 80 139 255 
-3.56367 4.045 -1.19612 58 84 140 255 
-3.41892 3.88222 -1.1981 57 85 140 255 
-3.275 3.72004 -1.19812 61 78 138 255 
-3.14258 3.56721 -1.19942 61 78 138 255 
-3.0413 3.45815 -1.20387 62 74 137 255 
-2.92859 3.33012 -1.20321 63 71 136 255 
-2.83793 3.22471 -1.21069 61 78 138 255 
-2.73203 3.09901 -1.21043 64 69 136 255 
-18.1965 20.7796 8.29712 70 7 90 255 
-14.7703 16.8379 6.4776 72 24 106 255 
-15.0119 17.1009 6.34051 72 35 116 255 
-15.1618 17.2723 6.17115 72 33 115 255 
-15.1142 17.2415 5.95101 72 20 103 255 
-18.8026 21.4422 7.09989 71 13 96 255 
-15.3257 17.483 5.55164 72 31 112 255 
-19.4002 22.1396 6.74193 70 8 92 255 
-15.7008 17.9044 5.25316 72 20 103 255 
-18.9804 21.6525 6.05207 72 20 103 255 
-19.0816 21.7905 5.80342 72 23 105 255 
-19.2174 21.9619 5.56691 71 13 96 255 
-19.1206 21.8041 5.29116 72 22 104 255 
-19.116 21.8149 5.00488 72 23 105 255 
-19.1525 21.887 4.73136 72 29 111 255 
-0 0 0 68 1 84 255 
-30.7474 35.0751 6.77138 70 7 90 255 
-30.0722 34.33 6.1787 70 8 92 255 
-30.2035 34.5522 5.77314 70 7 90 255 
-8.2359 9.43529 1.46017 61 77 138 255 
-9.7634 11.1376 1.60639 70 48 126 255 
-9.52386 10.8838 1.43079 70 52 128 255 
-9.30067 10.6435 1.26397 70 48 126 255 
-9.09487 10.4303 1.10857 70 50 126 255 
-8.90184 10.1583 0.975291 66 64 134 255 
-8.66784 9.90903 0.825972 64 69 136 255 
-8.4331 9.66089 0.683289 68 58 131 255 
-8.23871 9.45512 0.549743 69 56 130 255 
-6.99983 7.99348 0.382178 59 81 139 255 
-6.90861 7.90345 0.278548 62 76 138 255 
-6.76778 7.75585 0.176079 59 81 139 255 
-6.57318 7.54899 0.0786176 58 84 140 255 
-6.57746 7.5138 -0.00174289 54 92 141 255 
-6.35735 7.27794 -0.0927663 55 91 141 255 
-6.22078 7.13401 -0.178438 66 65 134 255 
-6.15409 7.07266 -0.26515 50 101 142 255 
-5.98175 6.8405 -0.330029 59 81 139 255 
-5.91297 6.77398 -0.409882 53 95 141 255 
-5.84711 6.70785 -0.489716 61 78 138 255 
-5.69262 6.54462 -0.559401 54 92 141 255 
-5.7279 6.55251 -0.631482 50 102 142 255 
-5.15342 5.90799 -0.641792 60 80 139 255 
-5.07283 5.82575 -0.705733 55 91 141 255 
-5.07099 5.82995 -0.779409 54 93 141 255 
-5.0754 5.8122 -0.840985 49 103 142 255 
-5.07756 5.82307 -0.915789 50 100 142 255 
-5.08292 5.83939 -0.991739 49 103 142 255 
-5.06721 5.8297 -1.06357 54 93 141 255 
-5.09436 5.84007 -1.13195 41 123 142 255 
-4.88871 5.61044 -1.15733 46 110 142 255 
-4.59976 5.28618 -1.15627 51 98 141 255 
-4.37617 5.03469 -1.16663 55 91 141 255 
-4.20443 4.82666 -1.17482 48 105 142 255 
-4.00853 4.60518 -1.17793 59 81 139 255 
-3.82582 4.39675 -1.18259 60 80 139 255 
-3.66886 4.21945 -1.19156 58 83 139 255 
-3.54647 4.07563 -1.19872 59 82 139 255 
-3.37969 3.88548 -1.19269 60 79 138 255 
-3.25466 3.743 -1.19906 62 76 138 255 
-3.12636 3.59301 -1.20163 62 76 138 255 
-3.01685 3.47309 -1.2026 61 77 138 255 
-2.91 3.35021 -1.204 63 71 136 255 
-2.80736 3.22971 -1.20608 60 79 138 255 
-2.70036 3.10124 -1.20481 63 72 137 255 
-18.7722 21.7043 8.6202 69 5 89 255 
-19.4147 22.4083 8.57456 72 20 103 255 
-14.99 17.2887 6.37594 72 35 116 255 
-15.022 17.3264 6.15741 72 31 112 255 
-14.7838 17.0749 5.86208 71 13 96 255 
-13.2084 15.2504 5.02276 70 52 128 255 
-13.2082 15.2552 4.81841 72 22 104 255 
-15.4557 17.858 5.40913 72 28 110 255 
-15.5145 17.9125 5.22753 72 20 103 255 
-29.3005 33.8421 9.40875 69 5 89 255 
-18.8295 21.7707 5.76727 72 24 106 255 
-28.7664 33.2845 8.39206 70 8 92 255 
-28.8335 33.2901 8.03537 70 7 90 255 
-28.7661 33.2367 7.58469 70 10 93 255 
-19.0205 22.0071 4.73201 72 27 109 255 
-29.2925 33.953 6.8779 70 10 93 255 
-30.7447 35.5093 6.81864 71 13 96 255 
-30.7642 35.5578 6.36558 70 10 93 255 
-32.1728 37.264 6.19313 70 8 92 255 
-9.8862 11.4672 1.7652 71 46 124 255 
-9.69032 11.192 1.60563 72 36 117 255 
-9.47773 10.9661 1.43394 72 38 119 255 
-8.01953 9.29186 1.09759 72 35 116 255 
-8.0309 9.32504 0.98584 69 53 129 255 
-8.85305 10.2286 0.976803 69 56 130 255 
-8.61014 9.9658 0.826285 64 70 136 255 
-8.35149 9.68674 0.68148 66 65 134 255 
-8.15121 9.47142 0.547772 64 69 136 255 
-6.9683 8.05669 0.383149 59 82 139 255 
-6.85215 7.93661 0.27823 62 74 137 255 
-6.75792 7.84116 0.177071 57 86 140 255 
-6.53326 7.59676 0.0786961 61 77 138 255 
-6.55151 7.57747 -0.0017483 55 90 140 255 
-6.32629 7.33271 -0.0929679 56 88 140 255 
-6.16906 7.16296 -0.178212 64 70 136 255 
-6.11123 7.11105 -0.265178 52 96 141 255 
-5.93052 6.86648 -0.329521 60 79 138 255 
-5.8863 6.82753 -0.410929 55 90 140 255 
-5.79933 6.73603 -0.489166 63 71 136 255 
-5.65886 6.58699 -0.560045 56 89 140 255 
-5.69606 6.59735 -0.632423 50 101 142 255 
-5.12293 5.94629 -0.642526 59 82 139 255 
-5.04349 5.86432 -0.706643 55 90 140 255 
-5.05587 5.88511 -0.782621 52 97 141 255 
-5.06366 5.87109 -0.844993 48 106 142 255 
-5.05405 5.86841 -0.918026 50 101 142 255 
-5.04829 5.87197 -0.991993 50 100 142 255 
-5.03521 5.86519 -1.06439 54 93 141 255 
-5.06101 5.87422 -1.13253 39 126 142 255 
-4.84259 5.62685 -1.15457 45 113 142 255 
-4.57109 5.31879 -1.15725 48 105 142 255 
-4.34648 5.06294 -1.16698 57 86 140 255 
-4.17281 4.85013 -1.17428 48 105 142 255 
-3.97444 4.62299 -1.17622 54 92 141 255 
-3.81155 4.43501 -1.18657 61 77 138 255 
-3.63844 4.23669 -1.1901 58 83 139 255 
-3.5144 4.08917 -1.19634 60 80 139 255 
-3.35642 3.90689 -1.19291 59 82 139 255 
-3.23164 3.7629 -1.19906 62 76 138 255 
-3.09857 3.60551 -1.19942 65 68 135 255 
-2.98981 3.48493 -1.20033 60 79 138 255 
-2.8919 3.37093 -1.20504 63 72 137 255 
-2.77557 3.233 -1.20092 65 66 135 255 
-2.67315 3.10829 -1.20115 66 65 134 255 
-18.7165 21.9101 8.65616 70 8 92 255 
-19.6591 22.9737 8.74459 70 7 90 255 
-14.9168 17.4192 6.39017 72 24 106 255 
-14.9116 17.4138 6.15585 72 29 111 255 
-14.9386 17.4691 5.96583 71 14 97 255 
-13.0667 15.2751 5.0044 69 56 130 255 
-13.1125 15.3338 4.81771 72 36 117 255 
-15.3724 17.9836 5.4185 71 19 101 255 
-28.0823 32.8277 9.52984 70 8 92 255 
-29.028 33.9461 9.38798 69 5 89 255 
-18.6637 21.8486 5.75744 72 22 104 255 
-29.0342 34.014 8.53091 70 8 92 255 
-28.6019 33.435 8.02783 70 8 92 255 
-29.0925 34.0335 7.72565 70 8 92 255 
-0 0 0 69 4 87 255 
-31.5794 37.061 7.4681 70 10 93 255 
-0 0 0 68 1 84 255 
-30.5461 35.7466 6.36572 69 5 89 255 
-31.9229 37.4365 6.18914 70 7 90 255 
-9.8311 11.5458 1.76798 69 53 129 255 
-8.01002 9.36687 1.33672 54 92 141 255 
-7.97595 9.34378 1.21538 51 98 141 255 
-7.96818 9.34772 1.09839 61 78 138 255 
-7.9477 9.34377 0.982646 66 63 133 255 
-8.05712 9.42527 0.895349 38 130 142 255 
-8.01048 9.38755 0.774251 38 130 142 255 
-8.04718 9.45041 0.661368 49 103 142 255 
-8.03471 9.45274 0.543831 53 94 141 255 
-6.93496 8.11829 0.384047 57 86 140 255 
-6.79294 7.96633 0.277806 62 76 138 255 
-6.722 7.89694 0.177396 56 89 140 255 
-6.48911 7.63975 0.0787275 59 82 139 255 
-6.51853 7.63349 -0.00175196 55 90 140 255 
-6.30129 7.39498 -0.0932655 55 90 140 255 
-6.10815 7.18087 -0.177722 63 72 137 255 
-6.07265 7.15451 -0.265404 56 89 140 255 
-5.88568 6.8997 -0.329376 57 85 140 255 
-5.87538 6.90003 -0.413115 55 91 141 255 
-5.74107 6.75171 -0.487738 62 74 137 255 
-5.65514 6.66496 -0.563713 58 83 139 255 
-5.6613 6.63901 -0.633074 58 84 140 255 
-5.07666 5.96623 -0.641302 54 92 141 255 
-5.03449 5.92703 -0.710464 54 93 141 255 
-5.03318 5.93195 -0.784728 57 85 140 255 
-5.04108 5.91794 -0.847269 53 95 141 255 
-5.02245 5.9046 -0.91885 50 100 142 255 
-5.01665 5.90813 -0.992883 56 88 140 255 
-5.00362 5.90127 -1.06534 59 82 139 255 
-5.03321 5.91496 -1.13441 45 113 142 255 
-4.80605 5.6542 -1.1541 42 118 142 255 
-4.53071 5.33771 -1.1553 52 97 141 255 
-4.30387 5.07599 -1.16388 56 89 140 255 
-4.13533 4.86665 -1.17211 51 99 141 255 
-3.94917 4.65103 -1.17717 60 79 138 255 
-3.7887 4.46354 -1.18796 64 70 136 255 
-3.61111 4.25744 -1.18968 63 71 136 255 
-3.48292 4.10321 -1.19417 62 73 137 255 
-3.35067 3.94895 -1.19946 61 78 138 255 
-3.19025 3.76116 -1.19225 61 77 138 255 
-3.07827 3.62667 -1.20016 64 70 136 255 
-2.98276 3.52019 -1.20615 62 76 138 255 
-2.85931 3.37463 -1.20007 65 66 135 255 
-2.75444 3.2485 -1.20038 63 72 137 255 
-2.6503 3.12025 -1.19947 67 62 133 255 
-18.4322 21.8474 8.58654 71 13 96 255 
-17.642 20.8744 7.90419 71 19 101 255 
-17.5057 20.6981 7.55348 70 10 93 255 
-14.6604 17.3346 6.09595 72 26 108 255 
-14.3596 17.0021 5.77616 71 19 101 255 
-12.823 15.1778 4.94666 69 53 129 255 
-15.2109 18.0103 5.62922 71 45 123 255 
-15.258 18.0731 5.41716 72 33 115 255 
-28.8288 34.122 9.85404 70 10 93 255 
-29.0781 34.4301 9.47231 70 11 94 255 
-28.607 33.9078 8.88881 70 10 93 255 
-28.4957 33.8009 8.43347 70 7 90 255 
-28.5035 33.7369 8.05816 70 8 92 255 
-28.871 34.1971 7.72242 71 13 96 255 
-0 0 0 69 4 87 255 
-31.3424 37.2435 7.46598 70 11 94 255 
-31.4733 37.2652 7.08112 71 19 101 255 
-30.8119 36.5089 6.46768 69 5 89 255 
