ply
format ascii 1.0
comment VTK generated PLY File
obj_info vtkPolyData points and polygons: vtk4.0
element vertex 1231
property float x
property float y
property float z
property uchar red
property uchar green
property uchar blue
property uchar alpha
element face 0
property list uchar int vertex_indices
end_header
14.3101 -21.3005 6.89026 72 22 104 255 
14.4218 -21.4979 6.71901 71 13 96 255 
14.7754 -22.0174 6.60126 72 20 103 255 
7.56873 -11.2825 3.24417 62 74 137 255 
7.74472 -11.5497 3.18489 70 48 126 255 
7.65963 -11.4136 3.03221 63 72 137 255 
7.69953 -11.4777 2.90499 57 86 140 255 
7.77566 -11.6041 2.79876 71 14 97 255 
21.4786 -32.0793 7.36446 70 8 92 255 
22.919 -34.1514 7.50408 70 10 93 255 
15.0068 -22.379 4.64934 72 35 116 255 
14.9358 -22.3065 4.36719 72 29 111 255 
15.2137 -22.7652 4.19963 72 26 108 255 
14.7721 -22.0201 3.84937 71 17 100 255 
12.4467 -18.5683 3.02636 72 27 109 255 
12.0997 -18.0912 2.73791 71 42 122 255 
12.4889 -18.7021 2.62192 72 23 105 255 
13.195 -19.6692 2.56884 72 28 110 255 
13.1268 -19.605 2.33418 72 26 108 255 
11.9081 -17.8115 1.91594 72 27 109 255 
11.9323 -17.8887 1.72255 72 37 118 255 
12.8973 -19.2326 1.67208 72 22 104 255 
11.7743 -17.5917 1.32809 70 48 126 255 
11.585 -17.3478 1.1115 72 41 121 255 
11.5488 -17.3269 0.912793 72 33 115 255 
11.5562 -17.2457 0.746707 70 48 126 255 
14.6297 -21.8744 0.698294 72 22 104 255 
14.5339 -21.7718 0.447784 72 27 109 255 
0 -0 0 68 1 84 255 
0 -0 -0 68 1 84 255 
0 -0 -0 68 2 86 255 
0 -0 -0 68 2 86 255 
0 -0 -0 68 1 84 255 
0 -0 -0 68 2 86 255 
23.6949 -35.4824 -1.94495 70 7 90 255 
19.0726 -28.6033 -1.89199 70 11 94 255 
16.7929 -25.2424 -1.95526 71 19 101 255 
10.3384 -15.4575 -1.3493 70 48 126 255 
8.74567 -13.1063 -1.28987 72 33 115 255 
7.8158 -11.7347 -1.2881 72 35 116 255 
7.11961 -10.7019 -1.29657 72 33 115 255 
6.60365 -9.88468 -1.29561 71 47 125 255 
6.09192 -9.13281 -1.30129 69 53 129 255 
5.6372 -8.46694 -1.30305 71 44 122 255 
5.25504 -7.90512 -1.30705 64 70 136 255 
4.86521 -7.29074 -1.28024 68 59 132 255 
4.54485 -6.81865 -1.27443 66 63 133 255 
4.25354 -6.39113 -1.26682 65 68 135 255 
4.02287 -6.05158 -1.27086 65 68 135 255 
3.81223 -5.72143 -1.26183 51 98 141 255 
3.59685 -5.40248 -1.25219 52 96 141 255 
3.39528 -5.10156 -1.24344 49 103 142 255 
3.25981 -4.90186 -1.2545 50 101 142 255 
3.10911 -4.67148 -1.24507 50 100 142 255 
2.97975 -4.47898 -1.24594 50 101 142 255 
2.8619 -4.30339 -1.24935 51 98 141 255 
2.7564 -4.14173 -1.2552 56 88 140 255 
2.62907 -3.95768 -1.24206 64 69 136 255 
2.54616 -3.83303 -1.24851 66 65 134 255 
2.45379 -3.69112 -1.24921 68 57 131 255 
2.33905 -3.51198 -1.2363 69 53 129 255 
7.88134 -11.9192 4.29241 72 24 106 255 
7.94102 -11.987 4.15837 69 53 129 255 
7.95674 -12.0014 4.01227 68 57 131 255 
0 -0 0 68 2 86 255 
14.3014 -21.6038 6.72453 71 16 99 255 
7.68462 -11.6044 3.46503 69 53 129 255 
7.53211 -11.3782 3.25834 67 62 133 255 
7.53493 -11.3872 3.12729 72 41 121 255 
7.47407 -11.2861 2.98611 59 82 139 255 
7.54037 -11.3909 2.87125 54 93 141 255 
7.5783 -11.461 2.75299 72 24 106 255 
7.54558 -11.4206 2.61116 69 5 89 255 
21.6074 -32.628 7.14007 71 13 96 255 
14.7528 -22.2948 4.61295 71 17 100 255 
14.765 -22.3467 4.35724 72 28 110 255 
14.2852 -21.6624 3.97996 72 31 112 255 
12.0693 -18.2319 3.17414 71 46 124 255 
12.0084 -18.1542 2.94681 71 45 123 255 
12.0245 -18.2197 2.74615 71 42 122 255 
13.0035 -19.7338 2.75532 72 31 112 255 
12.9846 -19.6146 2.55127 72 36 117 255 
12.9733 -19.6354 2.32828 72 26 108 255 
13.8637 -21.0144 2.25129 70 10 93 255 
11.7521 -17.855 1.71232 72 23 105 255 
11.6644 -17.627 1.52624 71 42 122 255 
11.665 -17.6619 1.32797 69 55 129 255 
11.5212 -17.4836 1.11565 70 48 126 255 
11.4516 -17.4116 0.913538 71 45 123 255 
11.8238 -17.8815 0.771078 72 40 120 255 
14.3697 -21.7735 0.692246 72 26 108 255 
14.2955 -21.7019 0.444534 72 26 108 255 
0 -0 0 68 1 84 255 
0 -0 -0 68 1 84 255 
0 -0 -0 68 1 84 255 
0 -0 -0 68 1 84 255 
0 -0 -0 68 1 84 255 
0 -0 -0 69 4 87 255 
23.4553 -35.5946 -1.94317 70 7 90 255 
19.1141 -29.0501 -1.91375 71 16 99 255 
16.6257 -25.3266 -1.95385 71 17 100 255 
10.1741 -15.4157 -1.34018 71 47 125 255 
8.67714 -13.178 -1.29166 72 32 113 255 
7.76935 -11.8215 -1.29237 71 44 122 255 
7.062 -10.7579 -1.29808 72 38 119 255 
6.54726 -9.93165 -1.29647 71 47 125 255 
6.04833 -9.18909 -1.304 69 55 129 255 
5.58841 -8.50634 -1.30381 71 44 122 255 
5.21676 -7.95295 -1.30965 66 63 133 255 
4.8378 -7.3469 -1.28486 67 62 133 255 
4.51596 -6.86622 -1.27812 68 57 131 255 
4.23212 -6.44432 -1.27219 64 69 136 255 
3.99377 -6.0885 -1.27344 66 63 133 255 
3.78083 -5.75047 -1.26309 52 96 141 255 
3.56633 -5.42855 -1.25313 51 98 141 255 
3.38382 -5.15261 -1.2508 48 105 142 255 
3.22592 -4.91604 -1.25304 50 101 142 255 
3.07878 -4.68802 -1.24442 48 106 142 255 
2.95648 -4.50369 -1.24774 49 103 142 255 
2.83491 -4.32005 -1.24911 49 103 142 255 
2.7304 -4.15775 -1.25495 54 93 141 255 
2.61322 -3.98668 -1.24611 62 73 137 255 
2.52471 -3.85181 -1.24956 67 61 132 255 
2.44377 -3.72543 -1.25572 66 65 134 255 
2.33274 -3.54952 -1.24445 70 51 127 255 
7.81747 -11.9817 4.29759 71 45 123 255 
8.00976 -12.2534 4.23366 72 40 120 255 
14.3489 -21.934 7.30332 71 14 97 255 
7.72595 -11.8105 3.78951 72 28 110 255 
14.1887 -21.7219 6.73408 71 14 97 255 
7.65202 -11.7106 3.48266 68 58 131 255 
7.47386 -11.4421 3.26345 71 44 122 255 
7.38072 -11.3043 3.09201 72 41 121 255 
7.47839 -11.4446 3.01584 63 71 136 255 
7.49014 -11.4673 2.87886 58 84 140 255 
7.61231 -11.6674 2.7913 68 58 131 255 
7.69101 -11.7975 2.68649 71 19 101 255 
21.5941 -33.0466 7.20254 69 5 89 255 
14.5548 -22.2917 4.59373 72 20 103 255 
14.3381 -21.9928 4.27101 72 23 105 255 
14.1871 -21.8035 3.98981 72 22 104 255 
12.8431 -19.6619 3.40932 72 22 104 255 
11.9292 -18.2774 2.95486 71 44 122 255 
12.0895 -18.565 2.78697 72 31 112 255 
12.8199 -19.7175 2.74201 72 32 113 255 
12.932 -19.798 2.56475 71 19 101 255 
11.477 -17.6047 2.0791 71 19 101 255 
12.025 -18.473 1.97108 71 14 97 255 
11.5658 -17.8089 1.70107 72 28 110 255 
11.5544 -17.6958 1.52603 71 45 123 255 
11.4986 -17.6445 1.32133 70 50 126 255 
11.418 -17.5606 1.11608 71 45 123 255 
11.3924 -17.5553 0.917392 70 48 126 255 
11.9422 -18.3036 0.786104 72 33 115 255 
14.2189 -21.8353 0.691424 72 31 112 255 
0 -0 0 68 2 86 255 
0 -0 0 68 1 84 255 
0 -0 -0 68 1 84 255 
0 -0 -0 68 2 86 255 
0 -0 -0 68 1 84 255 
0 -0 -0 68 1 84 255 
0 -0 -0 68 2 86 255 
0 -0 -0 69 4 87 255 
18.9311 -29.1601 -1.91331 71 19 101 255 
16.3837 -25.295 -1.94362 71 19 101 255 
9.96339 -15.2999 -1.32477 69 55 129 255 
8.83395 -13.597 -1.3274 72 37 118 255 
7.70317 -11.879 -1.29347 72 32 113 255 
7.05752 -10.8962 -1.30952 72 28 110 255 
6.5133 -10.0133 -1.30189 71 46 124 255 
6.00156 -9.24102 -1.30612 70 51 127 255 
5.53827 -8.5438 -1.30432 69 53 129 255 
5.18509 -8.01143 -1.31401 66 63 133 255 
4.81419 -7.40964 -1.29064 69 56 130 255 
4.46299 -6.87722 -1.27505 68 59 132 255 
4.19732 -6.47762 -1.27366 68 59 132 255 
3.95954 -6.11785 -1.27448 67 62 133 255 
3.75565 -5.78924 -1.26652 52 96 141 255 
3.54043 -5.46187 -1.25579 50 102 142 255 
3.35747 -5.1815 -1.25279 45 112 142 255 
3.20313 -4.94724 -1.25596 50 102 142 255 
3.05315 -4.71174 -1.24572 50 102 142 255 
2.93091 -4.52502 -1.24864 49 103 142 255 
2.80888 -4.33818 -1.24935 51 99 141 255 
2.70642 -4.17687 -1.25569 52 97 141 255 
2.60027 -4.02051 -1.25167 60 79 138 255 
2.5157 -3.88992 -1.25689 65 66 135 255 
2.43342 -3.75974 -1.26223 69 55 129 255 
2.31353 -3.5678 -1.24586 70 52 128 255 
7.69093 -11.9473 4.26824 61 77 138 255 
14.4079 -22.3395 7.68777 71 19 101 255 
7.6908 -11.9153 3.95161 72 40 120 255 
7.6151 -11.7985 3.77058 72 36 117 255 
7.56947 -11.7451 3.62668 71 45 123 255 
7.5879 -11.7696 3.48629 70 52 128 255 
11.0628 -17.1658 4.87647 72 38 119 255 
7.30594 -11.3412 3.08978 63 71 136 255 
7.43555 -11.5329 3.02704 57 86 140 255 
7.37298 -11.4406 2.86076 55 91 141 255 
7.54854 -11.7263 2.79424 72 35 116 255 
14.7173 -22.8809 5.18971 72 22 104 255 
15.5059 -24.0504 5.22098 70 8 92 255 
15.1105 -23.4558 4.81444 71 16 99 255 
14.3358 -22.2871 4.31099 72 23 105 255 
13.2275 -20.6042 3.75543 71 16 99 255 
12.0564 -18.7072 3.23089 71 44 122 255 
11.8158 -18.3486 2.95459 72 27 109 255 
12.0076 -18.6889 2.79446 72 29 111 255 
12.6901 -19.7824 2.74015 72 33 115 255 
12.7133 -19.7265 2.54534 72 37 118 255 
11.5077 -17.8907 2.1045 72 26 108 255 
11.9922 -18.6721 1.98444 72 24 106 255 
11.8225 -18.4511 1.75544 72 24 106 255 
11.2917 -17.5274 1.5055 71 44 122 255 
11.3416 -17.6392 1.31569 68 59 132 255 
11.3047 -17.622 1.11555 70 51 127 255 
11.6718 -18.2298 0.948879 72 33 115 255 
12.1028 -18.8008 0.804257 72 41 121 255 
13.7901 -21.4638 0.676967 72 29 111 255 
13.884 -21.651 0.439968 70 11 94 255 
0 -0 0 68 1 84 255 
0 -0 -0 68 1 84 255 
0 -0 -0 68 1 84 255 
0 -0 -0 68 1 84 255 
0 -0 -0 68 1 84 255 
27.2628 -42.4157 -1.83126 69 5 89 255 
21.1726 -33.0049 -1.78748 69 5 89 255 
18.7729 -29.3085 -1.91545 71 13 96 255 
16.1659 -25.2975 -1.93615 72 20 103 255 
9.76959 -15.2055 -1.31138 70 50 126 255 
8.92785 -13.9279 -1.35432 69 53 129 255 
7.65644 -11.9672 -1.29792 72 33 115 255 
6.97339 -10.9125 -1.30631 72 37 118 255 
6.45818 -10.0631 -1.30319 71 46 124 255 
5.956 -9.29523 -1.30859 70 50 126 255 
5.4975 -8.59601 -1.30711 66 63 133 255 
5.11504 -8.01053 -1.30869 68 57 131 255 
4.77611 -7.4507 -1.29267 69 56 130 255 
4.44255 -6.9386 -1.28135 65 66 135 255 
4.16707 -6.51822 -1.27659 66 64 134 255 
3.91769 -6.13539 -1.2731 66 65 134 255 
3.73119 -5.82957 -1.27031 52 96 141 255 
3.51267 -5.49259 -1.25787 51 99 141 255 
3.3235 -5.1987 -1.25199 47 107 142 255 
3.18009 -4.97834 -1.25888 48 105 142 255 
3.03943 -4.75424 -1.25201 49 104 142 255 
2.90834 -4.55113 -1.2509 48 105 142 255 
2.78325 -4.35697 -1.24982 52 97 141 255 
2.67813 -4.18931 -1.25447 55 90 140 255 
2.56983 -4.02742 -1.24889 65 66 135 255 
2.48711 -3.89796 -1.25453 65 66 135 255 
2.40201 -3.76162 -1.25789 67 62 133 255 
2.30194 -3.59809 -1.25148 69 55 129 255 
12.1404 -19.116 6.80254 72 20 103 255 
13.2804 -20.8713 7.15436 72 20 103 255 
7.62893 -11.9801 3.95752 72 33 115 255 
7.51092 -11.7953 3.75476 71 42 122 255 
7.49103 -11.7816 3.62367 72 38 119 255 
7.57023 -11.9019 3.51165 69 55 129 255 
7.5218 -11.8301 3.34752 72 23 105 255 
7.34915 -11.5635 3.138 68 59 132 255 
7.43277 -11.6854 3.05505 61 77 138 255 
7.32838 -11.5261 2.87084 58 83 139 255 
14.5392 -22.8933 5.43388 72 26 108 255 
14.5776 -22.9725 5.19009 72 22 104 255 
15.0143 -23.6047 5.10413 72 26 108 255 
14.767 -23.2346 4.75034 71 13 96 255 
14.2353 -22.4321 4.32207 72 23 105 255 
13.0474 -20.6006 3.74012 72 20 103 255 
11.9477 -18.7909 3.23261 72 31 112 255 
11.7503 -18.4952 2.96653 72 38 119 255 
11.9182 -18.8025 2.80045 72 31 112 255 
12.5935 -19.8993 2.7456 71 19 101 255 
12.5579 -19.7505 2.53844 72 23 105 255 
11.3684 -17.9148 2.09908 72 20 103 255 
11.903 -18.7857 1.98871 71 42 122 255 
11.8833 -18.7988 1.78156 72 27 109 255 
11.1844 -17.5972 1.50557 71 46 124 255 
11.1979 -17.6528 1.31156 67 62 133 255 
11.6364 -18.3863 1.15939 72 28 110 255 
11.5864 -18.3434 0.951069 72 33 115 255 
13.273 -20.8994 0.890527 72 24 106 255 
13.7941 -21.7625 0.683705 72 22 104 255 
13.753 -21.7392 0.440036 72 22 104 255 
0 -0 0 68 1 84 255 
0 -0 -0 68 1 84 255 
0 -0 -0 68 1 84 255 
0 -0 -0 68 1 84 255 
0 -0 -0 68 1 84 255 
0 -0 -0 69 4 87 255 
20.9787 -33.1486 -1.78825 70 8 92 255 
18.5292 -29.3227 -1.90891 71 16 99 255 
16.0428 -25.4477 -1.94008 71 17 100 255 
9.62271 -15.1809 -1.30414 70 50 126 255 
8.84541 -13.9875 -1.35481 69 55 129 255 
7.61901 -12.0712 -1.30411 72 32 113 255 
6.90365 -10.9508 -1.30581 72 35 116 255 
6.40163 -10.111 -1.30427 71 44 122 255 
5.91318 -9.35427 -1.31177 67 62 133 255 
5.44941 -8.63713 -1.30826 71 46 124 255 
5.08585 -8.07361 -1.31387 70 52 128 255 
4.73983 -7.49492 -1.29527 69 56 130 255 
4.40939 -6.98076 -1.28411 64 70 136 255 
4.13015 -6.54867 -1.27757 64 70 136 255 
3.87524 -6.15181 -1.27155 63 71 136 255 
3.70008 -5.85984 -1.27194 50 102 142 255 
3.48623 -5.52566 -1.26052 48 105 142 255 
3.29938 -5.23143 -1.25497 47 108 142 255 
3.14427 -4.98948 -1.2568 48 105 142 255 
3.00499 -4.76454 -1.24984 51 99 141 255 
2.88555 -4.57713 -1.25316 49 103 142 255 
2.76268 -4.38384 -1.25264 54 93 141 255 
2.65289 -4.20649 -1.25471 53 95 141 255 
2.55486 -4.05867 -1.25369 62 73 137 255 
2.46109 -3.90988 -1.25349 64 69 136 255 
2.36401 -3.75267 -1.25002 66 64 134 255 
2.29109 -3.63 -1.25767 69 53 129 255 
12.0148 -19.1771 6.79794 72 27 109 255 
7.4846 -11.9236 4.07142 72 23 105 255 
11.151 -17.7505 5.84099 71 16 99 255 
7.59407 -12.089 3.83334 72 24 106 255 
11.1958 -17.8492 5.46866 72 36 117 255 
7.53264 -12.0048 3.52832 70 50 126 255 
7.47646 -11.9197 3.35983 64 70 136 255 
7.29359 -11.6331 3.1447 69 55 129 255 
7.37183 -11.7482 3.05957 72 36 117 255 
7.30119 -11.6405 2.88812 68 59 132 255 
14.2537 -22.7511 5.37926 72 36 117 255 
0 -0 0 68 2 86 255 
0 -0 0 68 2 86 255 
14.0651 -22.4331 4.56874 71 16 99 255 
10.5816 -16.9029 3.24416 72 24 106 255 
10.6755 -17.0866 3.09018 71 47 125 255 
11.0776 -17.6608 3.02645 72 26 108 255 
11.7029 -18.6727 2.98343 72 36 117 255 
11.7757 -18.8324 2.79408 71 19 101 255 
11.2892 -18.083 2.48539 72 23 105 255 
11.4111 -18.1925 2.32915 72 41 121 255 
11.2561 -17.9808 2.09869 72 24 106 255 
11.7991 -18.877 1.99067 72 32 113 255 
11.7571 -18.8544 1.77996 72 22 104 255 
11.1149 -17.7272 1.51083 72 36 117 255 
11.0666 -17.6848 1.30887 72 41 121 255 
11.6873 -18.7199 1.17588 71 19 101 255 
11.5096 -18.4718 0.954047 72 37 118 255 
13.5234 -21.5851 0.916193 70 11 94 255 
13.6423 -21.8179 0.682803 72 22 104 255 
21.8424 -34.9995 0.70572 71 13 96 255 
0 -0 0 68 1 84 255 
0 -0 -0 68 1 84 255 
0 -0 -0 68 1 84 255 
0 -0 -0 68 2 86 255 
0 -0 -0 68 1 84 255 
0 -0 -0 68 2 86 255 
0 -0 -0 69 4 87 255 
18.1762 -29.1588 -1.89095 71 14 97 255 
15.8041 -25.4135 -1.93004 70 11 94 255 
9.45958 -15.128 -1.29459 71 47 125 255 
8.6708 -13.8994 -1.3411 66 63 133 255 
7.54796 -12.1228 -1.30466 72 29 111 255 
6.86049 -11.0318 -1.31042 72 35 116 255 
6.34737 -10.1627 -1.3059 72 40 120 255 
5.87932 -9.42829 -1.31707 70 50 126 255 
5.39422 -8.66703 -1.30775 70 52 128 255 
5.05557 -8.1358 -1.31892 69 56 130 255 
4.6927 -7.52218 -1.29498 68 57 131 255 
4.38685 -7.04039 -1.29011 66 64 134 255 
4.09823 -6.58729 -1.28017 63 72 137 255 
3.84886 -6.19388 -1.27534 65 68 135 255 
3.66197 -5.87909 -1.27122 51 99 141 255 
3.44344 -5.53278 -1.2573 51 99 141 255 
3.26929 -5.2549 -1.25577 44 113 142 255 
3.11153 -5.00536 -1.25596 50 101 142 255 
2.97364 -4.77957 -1.24897 48 105 142 255 
2.85484 -4.59061 -1.25203 50 100 142 255 
2.74343 -4.41309 -1.25616 51 98 141 255 
2.63369 -4.23339 -1.25789 56 88 140 255 
2.53042 -4.07509 -1.25395 58 83 139 255 
2.44927 -3.94459 -1.25977 64 69 136 255 
2.34094 -3.76711 -1.25002 67 61 132 255 
2.25964 -3.62933 -1.25261 68 58 131 255 
7.27688 -11.7748 4.15805 72 29 111 255 
7.43405 -12.0061 4.08392 72 26 108 255 
7.57318 -12.221 4.0061 66 65 134 255 
7.54417 -12.1747 3.84579 72 41 121 255 
7.31075 -11.8158 3.60633 72 31 112 255 
7.41594 -11.9815 3.50803 69 56 130 255 
7.49581 -12.1151 3.40187 72 41 121 255 
7.31436 -11.8269 3.18489 72 41 121 255 
10.5765 -17.0874 4.43307 72 27 109 255 
7.26516 -11.7425 2.90231 68 59 132 255 
14.1958 -22.9708 5.4105 72 22 104 255 
0 -0 0 68 1 84 255 
0 -0 0 68 2 86 255 
14.6441 -23.678 4.8039 70 11 94 255 
10.5165 -17.0305 3.25621 71 46 124 255 
10.4895 -17.0205 3.06653 71 46 124 255 
10.1625 -16.4248 2.80392 72 33 115 255 
10.9049 -17.6391 2.80755 72 23 105 255 
10.249 -16.6166 2.45596 72 29 111 255 
11.1859 -18.1646 2.48712 72 28 110 255 
11.2972 -18.2587 2.32871 72 36 117 255 
11.188 -18.1181 2.10666 72 29 111 255 
14.1263 -22.9118 2.40698 71 14 97 255 
11.6924 -19.0094 1.78778 72 22 104 255 
12.0043 -19.4093 1.64788 71 13 96 255 
13.8411 -22.4234 1.65326 72 31 112 255 
11.5915 -18.8227 1.17785 72 24 106 255 
11.4279 -18.594 0.956718 72 31 112 255 
12.4103 -20.0814 0.849117 70 11 94 255 
13.5706 -22.0024 0.68596 72 20 103 255 
21.6372 -35.149 0.706045 70 7 90 255 
0 -0 0 68 2 86 255 
0 -0 -0 68 1 84 255 
0 -0 -0 68 1 84 255 
0 -0 -0 68 1 84 255 
0 -0 -0 68 2 86 255 
27.5096 -44.5832 -1.90265 70 7 90 255 
20.5201 -33.3219 -1.78388 70 7 90 255 
18.0932 -29.4263 -1.90106 72 22 104 255 
15.7064 -25.6052 -1.93724 71 19 101 255 
9.30165 -15.0805 -1.28561 69 53 129 255 
8.57073 -13.9286 -1.33882 67 62 133 255 
7.49375 -12.202 -1.3082 72 40 120 255 
6.81556 -11.1111 -1.31484 72 33 115 255 
6.29427 -10.2167 -1.30785 71 47 125 255 
5.84009 -9.49464 -1.3213 70 52 128 255 
5.35391 -8.7211 -1.31093 70 48 126 255 
4.9807 -8.12613 -1.31237 69 56 130 255 
4.65424 -7.56347 -1.29715 69 56 130 255 
4.34616 -7.07139 -1.29088 66 63 133 255 
4.05825 -6.61316 -1.28033 65 66 135 255 
3.82005 -6.2325 -1.27844 64 70 136 255 
3.62377 -5.8981 -1.27049 51 98 141 255 
3.4156 -5.56385 -1.25957 50 102 142 255 
3.23853 -5.27737 -1.25636 45 112 142 255 
3.08025 -5.02352 -1.25575 52 97 141 255 
2.95651 -4.8177 -1.25417 47 108 142 255 
2.81694 -4.59226 -1.24774 49 104 142 255 
2.71782 -4.43233 -1.25687 52 97 141 255 
2.60715 -4.24864 -1.25765 55 90 140 255 
2.50082 -4.08312 -1.25167 55 90 140 255 
2.41444 -3.94226 -1.25427 64 69 136 255 
2.33388 -3.80766 -1.2587 67 62 133 255 
2.23181 -3.63413 -1.24952 69 56 130 255 
7.32264 -12.0131 4.22624 67 62 133 255 
7.19601 -11.7826 3.9928 68 59 132 255 
7.47545 -12.2303 3.99402 72 27 109 255 
7.4799 -12.2381 3.85123 68 58 131 255 
10.5902 -17.3532 5.27647 71 13 96 255 
10.6051 -17.3714 5.06697 71 14 97 255 
7.41728 -12.1542 3.40001 72 20 103 255 
7.25942 -11.9007 3.1927 72 35 116 255 
10.6023 -17.3662 4.48843 72 27 109 255 
10.5106 -17.2233 4.24095 72 23 105 255 
10.5706 -17.3416 4.06927 71 13 96 255 
10.591 -17.3895 3.88404 70 10 93 255 
11.8845 -19.4664 4.16127 70 10 93 255 
12.0275 -19.7168 3.98517 72 22 104 255 
10.4278 -17.1208 3.26118 72 28 110 255 
10.1867 -16.7585 3.00801 72 38 119 255 
9.93417 -16.2782 2.76843 69 56 130 255 
10.1815 -16.6972 2.64763 71 45 123 255 
10.006 -16.4478 2.42189 71 42 122 255 
10.0161 -16.4908 2.24949 70 50 126 255 
11.1787 -18.3175 2.32742 72 37 118 255 
11.0036 -18.0666 2.09278 72 40 120 255 
14.0134 -23.044 2.41179 72 20 103 255 
11.0689 -18.2456 1.70953 72 20 103 255 
12.1406 -19.9015 1.68332 72 31 112 255 
13.5989 -22.3366 1.64067 71 13 96 255 
11.4789 -18.8986 1.17817 72 36 117 255 
11.3152 -18.6663 0.95685 72 27 109 255 
12.265 -20.1213 0.847608 71 16 99 255 
13.2442 -21.771 0.676198 72 23 105 255 
0 -0 0 68 1 84 255 
0 -0 0 68 1 84 255 
0 -0 -0 68 2 86 255 
0 -0 -0 68 1 84 255 
0 -0 -0 68 2 86 255 
0 -0 -0 68 1 84 255 
27.2195 -44.7247 -1.90152 70 7 90 255 
20.4257 -33.629 -1.79358 70 7 90 255 
17.8206 -29.3856 -1.89133 71 16 99 255 
15.4575 -25.55 -1.92585 71 17 100 255 
9.22501 -15.1637 -1.28786 70 50 126 255 
8.42822 -13.8872 -1.32985 68 59 132 255 
7.43216 -12.2699 -1.31057 72 38 119 255 
6.75705 -11.1688 -1.31675 72 31 112 255 
6.22476 -10.2441 -1.30644 71 45 123 255 
5.78172 -9.5303 -1.3213 68 59 132 255 
5.32342 -8.79197 -1.31664 70 48 126 255 
4.95227 -8.19214 -1.3181 70 51 127 255 
4.61801 -7.60881 -1.30004 68 57 131 255 
4.30423 -7.10046 -1.29134 65 66 135 255 
4.03241 -6.66241 -1.28505 66 65 134 255 
3.7853 -6.26172 -1.27964 64 69 136 255 
3.58649 -5.91854 -1.27013 52 96 141 255 
3.38343 -5.58806 -1.26033 51 99 141 255 
3.19746 -5.28289 -1.25298 48 105 142 255 
3.04936 -5.04233 -1.25575 51 99 141 255 
2.93245 -4.84493 -1.25655 46 110 142 255 
2.79275 -4.61613 -1.24955 49 104 142 255 
2.6936 -4.45391 -1.25828 52 97 141 255 
2.58154 -4.26539 -1.25789 56 88 140 255 
2.48572 -4.11495 -1.25673 55 90 140 255 
2.39719 -3.96856 -1.25794 60 79 138 255 
2.32591 -3.84744 -1.26711 68 59 132 255 
2.20449 -3.63955 -1.2467 68 57 131 255 
7.19401 -11.9667 4.1943 66 65 134 255 
7.2247 -11.9944 4.04947 72 35 116 255 
7.24062 -12.0111 3.90786 72 41 121 255 
7.26306 -12.0489 3.77758 68 57 131 255 
13.5128 -22.4509 6.80116 71 13 96 255 
11.0329 -18.324 5.32498 72 32 113 255 
10.2708 -17.0646 4.75593 72 27 109 255 
10.0872 -16.7669 4.48152 72 27 109 255 
10.2049 -16.9482 4.36414 70 50 126 255 
10.6626 -17.716 4.34606 72 20 103 255 
10.6029 -17.6373 4.12329 71 46 124 255 
10.5256 -17.5232 3.89941 71 17 100 255 
11.8211 -19.6325 4.1812 72 27 109 255 
10.0368 -16.6828 3.35943 71 16 99 255 
10.0684 -16.7614 3.1809 72 31 112 255 
10.413 -17.3701 3.10625 72 27 109 255 
9.89125 -16.4339 2.78452 72 41 121 255 
9.91189 -16.4817 2.60376 71 46 124 255 
9.71452 -16.1915 2.37533 68 59 132 255 
9.84583 -16.437 2.23386 72 33 115 255 
11.0456 -18.3517 2.32311 72 29 111 255 
13.8364 -23.0347 2.65838 71 14 97 255 
13.7139 -22.8665 2.38435 71 14 97 255 
10.971 -18.3372 1.71177 72 24 106 255 
12.0671 -20.0568 1.69016 72 27 109 255 
11.5396 -19.2186 1.40643 72 22 104 255 
11.3212 -18.8993 1.17386 72 41 121 255 
11.1322 -18.6213 0.951025 71 16 99 255 
13.2716 -22.0762 0.926509 71 19 101 255 
13.1751 -21.9599 0.67954 71 16 99 255 
0 -0 0 68 1 84 255 
0 -0 0 68 2 86 255 
0 -0 -0 68 1 84 255 
0 -0 -0 68 1 84 255 
0 -0 -0 68 1 84 255 
0 -0 -0 68 1 84 255 
26.9322 -44.8703 -1.90065 69 5 89 255 
20.4525 -34.1436 -1.8143 69 5 89 255 
17.6185 -29.4584 -1.88902 71 13 96 255 
15.2836 -25.6161 -1.92373 71 14 97 255 
9.13539 -15.226 -1.28836 70 50 126 255 
8.34285 -13.9386 -1.32985 65 66 135 255 
7.39555 -12.3802 -1.31748 72 38 119 255 
6.70062 -11.2306 -1.31915 72 35 116 255 
6.20624 -10.3563 -1.31587 70 52 128 255 
5.72007 -9.56048 -1.3206 69 56 130 255 
5.28513 -8.85087 -1.32058 69 55 129 255 
4.90039 -8.21982 -1.31769 71 47 125 255 
4.57632 -7.64549 -1.30148 66 65 134 255 
4.26261 -7.13013 -1.29195 66 63 133 255 
4.00157 -6.70397 -1.28831 66 64 134 255 
3.76094 -6.30852 -1.28447 63 72 137 255 
3.55717 -5.95226 -1.27266 49 104 142 255 
3.35612 -5.62052 -1.26298 49 104 142 255 
3.17653 -5.32176 -1.25756 47 107 142 255 
3.01737 -5.05927 -1.25534 54 93 141 255 
2.90017 -4.85865 -1.25547 47 107 142 255 
2.76687 -4.63736 -1.25067 51 98 141 255 
2.65825 -4.457 -1.25452 52 96 141 255 
2.54985 -4.27199 -1.2552 58 84 140 255 
2.46439 -4.13677 -1.25875 57 85 140 255 
2.37131 -3.98071 -1.25715 60 79 138 255 
2.30225 -3.86164 -1.26711 68 57 131 255 
2.18802 -3.66289 -1.25008 68 59 132 255 
7.00763 -11.8203 4.12785 69 55 129 255 
7.13232 -12.0071 4.03891 68 58 131 255 
7.04126 -11.8442 3.83941 68 59 132 255 
7.13372 -12.0002 3.74854 72 38 119 255 
10.1235 -17.0557 5.14785 72 31 112 255 
10.8043 -18.1961 5.26845 72 26 108 255 
10.0522 -16.9357 4.70274 72 37 118 255 
10.0463 -16.9333 4.50943 72 31 112 255 
10.8206 -18.223 4.6752 72 23 105 255 
10.5647 -17.7996 4.35059 71 42 122 255 
10.5025 -17.7155 4.12644 71 44 122 255 
10.3338 -17.4455 3.86793 72 35 116 255 
11.83 -19.9229 4.22751 70 7 90 255 
9.91364 -16.7093 3.35246 69 56 130 255 
9.79684 -16.5384 3.12711 71 46 124 255 
9.89376 -16.7359 2.98194 72 31 112 255 
9.91045 -16.6968 2.81871 69 53 129 255 
9.68066 -16.3231 2.56928 65 66 135 255 
9.57305 -16.1799 2.36497 70 52 128 255 
9.70387 -16.4278 2.22448 72 22 104 255 
11.3864 -19.1834 2.4195 72 23 105 255 
11.2887 -19.0573 2.19133 72 26 108 255 
11.0483 -18.6808 1.94079 71 19 101 255 
10.8695 -18.423 1.71352 72 28 110 255 
12.1397 -20.4607 1.71789 71 17 100 255 
11.1962 -18.9086 1.37869 72 38 119 255 
11.4173 -19.3278 1.1961 72 29 111 255 
12.7362 -21.6042 1.09935 71 13 96 255 
12.6889 -21.4033 0.894984 70 11 94 255 
12.6065 -21.3073 0.65694 72 24 106 255 
0 -0 0 68 1 84 255 
0 -0 0 68 1 84 255 
0 -0 -0 68 1 84 255 
0 -0 -0 68 1 84 255 
0 -0 -0 68 1 84 255 
0 -0 -0 68 2 86 255 
26.6533 -45.0296 -1.90044 69 5 89 255 
20.1563 -34.1222 -1.80656 70 7 90 255 
17.0615 -28.9287 -1.8483 70 10 93 255 
15.0568 -25.5915 -1.91491 70 8 92 255 
8.83711 -14.9359 -1.2592 71 44 122 255 
8.21259 -13.914 -1.32267 70 52 128 255 
7.3437 -12.4665 -1.32185 72 40 120 255 
6.64925 -11.3015 -1.32267 72 40 120 255 
6.14511 -10.3984 -1.31641 71 45 123 255 
5.66887 -9.60823 -1.32236 67 62 133 255 
5.23828 -8.89595 -1.32249 68 59 132 255 
4.86844 -8.28133 -1.32274 71 42 122 255 
4.53083 -7.67598 -1.30192 68 59 132 255 
4.23534 -7.18424 -1.29702 66 63 133 255 
3.96887 -6.74286 -1.29108 66 63 133 255 
3.72765 -6.34082 -1.28636 57 86 140 255 
3.52508 -5.9816 -1.27428 50 102 142 255 
3.32755 -5.65116 -1.26526 46 109 142 255 
3.14879 -5.3496 -1.25955 47 108 142 255 
2.98676 -5.07853 -1.25555 53 94 141 255 
2.86832 -4.87298 -1.25461 46 109 142 255 
2.74132 -4.65929 -1.25203 52 97 141 255 
2.63332 -4.47741 -1.25569 52 97 141 255 
2.52507 -4.29006 -1.25593 56 88 140 255 
2.44337 -4.15932 -1.26103 56 88 140 255 
2.34391 -3.99019 -1.25558 61 78 138 255 
2.26632 -3.85495 -1.26033 67 61 132 255 
2.17379 -3.6903 -1.25486 68 57 131 255 
6.90452 -11.811 4.10972 70 52 128 255 
7.07308 -12.0755 4.04725 71 46 124 255 
6.95043 -11.8564 3.82948 65 66 135 255 
10.2439 -17.4753 5.43908 72 27 109 255 
10.0269 -17.1317 5.15212 72 40 120 255 
10.0531 -17.1701 4.95342 72 37 118 255 
9.96576 -17.0273 4.71111 72 41 121 255 
9.96338 -17.0308 4.51903 72 31 112 255 
9.99661 -17.073 4.36435 72 33 115 255 
10.5299 -17.9916 4.38165 72 28 110 255 
10.4094 -17.8067 4.13272 72 33 115 255 
10.2919 -17.6205 3.89266 72 31 112 255 
13.2132 -22.5666 4.77118 70 7 90 255 
9.77062 -16.7009 3.33869 71 47 125 255 
9.68223 -16.576 3.12293 70 48 126 255 
9.75653 -16.7374 2.97147 71 46 124 255 
9.80132 -16.7462 2.81685 69 55 129 255 
9.80694 -16.7697 2.63006 71 44 122 255 
9.63059 -16.5075 2.40416 71 42 122 255 
9.57489 -16.439 2.21799 72 40 120 255 
11.2665 -19.2495 2.41907 72 23 105 255 
11.1224 -19.042 2.18168 72 33 115 255 
10.9054 -18.7001 1.93581 72 26 108 255 
10.8159 -18.5919 1.72302 72 38 119 255 
10.4486 -17.8592 1.49405 72 32 113 255 
10.0438 -17.2024 1.24976 70 48 126 255 
11.1347 -19.1162 1.17876 72 36 117 255 
12.6044 -21.6837 1.09944 71 17 100 255 
12.3985 -21.209 0.883661 72 23 105 255 
12.6095 -21.6139 0.663996 72 20 103 255 
42.0524 -72.2254 1.42964 70 7 90 255 
0 -0 0 68 2 86 255 
0 -0 -0 68 2 86 255 
41.976 -72.0088 -0.800129 69 5 89 255 
0 -0 -0 69 4 87 255 
41.8702 -72.1461 -2.35915 70 7 90 255 
0 -0 -0 69 5 89 255 
20.2739 -34.8072 -1.8362 70 7 90 255 
16.709 -28.7325 -1.82918 71 13 96 255 
14.7728 -25.4651 -1.89863 70 11 94 255 
8.84934 -15.1681 -1.27418 72 41 121 255 
8.107 -13.9297 -1.3194 67 62 133 255 
7.27358 -12.5226 -1.32303 72 35 116 255 
6.59925 -11.3757 -1.32658 72 37 118 255 
6.08519 -10.4428 -1.31728 68 57 131 255 
5.63827 -9.69175 -1.32907 70 51 127 255 
5.20202 -8.95966 -1.32719 66 65 134 255 
4.82399 -8.32219 -1.32451 70 50 126 255 
4.4936 -7.72074 -1.30481 68 57 131 255 
4.19813 -7.22205 -1.29917 66 64 134 255 
3.91553 -6.7466 -1.28717 67 61 132 255 
3.69312 -6.37124 -1.28791 55 91 141 255 
3.49029 -6.00652 -1.27501 50 102 142 255 
3.29429 -5.67402 -1.26583 49 104 142 255 
3.11935 -5.37475 -1.26094 47 108 142 255 
2.9683 -5.11876 -1.26096 50 101 142 255 
2.83739 -4.8888 -1.25417 50 100 142 255 
2.72099 -4.69035 -1.25586 47 108 142 255 
2.61652 -4.51198 -1.26086 50 102 142 255 
2.5021 -4.31135 -1.25765 56 88 140 255 
2.41732 -4.1734 -1.26078 57 86 140 255 
2.31261 -3.99281 -1.25192 65 66 135 255 
2.23732 -3.85963 -1.25735 66 64 134 255 
2.16267 -3.72349 -1.26161 67 62 133 255 
11.1869 -19.4089 6.72947 71 16 99 255 
7.0565 -12.2185 4.08059 72 26 108 255 
6.87032 -11.8863 3.82546 71 47 125 255 
10.1142 -17.4994 5.42715 72 41 121 255 
9.99711 -17.3237 5.19131 72 33 115 255 
9.90927 -17.1651 4.93434 71 45 123 255 
9.87957 -17.1202 4.71993 72 36 117 255 
9.9376 -17.2284 4.5552 72 37 118 255 
11.7152 -20.2927 5.16893 71 17 100 255 
10.3616 -17.9558 4.35738 72 32 113 255 
13.0213 -22.5918 5.22465 71 16 99 255 
11.388 -19.7748 4.35306 71 17 100 255 
18.2439 -31.6015 6.65761 69 5 89 255 
9.65516 -16.7384 3.33427 70 48 126 255 
9.802 -17.02 3.19519 72 37 118 255 
9.65217 -16.7944 2.97102 68 59 132 255 
9.69591 -16.8017 2.81613 70 50 126 255 
10.7265 -18.6032 2.90723 72 35 116 255 
9.69138 -16.8483 2.4451 70 50 126 255 
9.62175 -16.7549 2.25262 72 33 115 255 
10.1802 -17.6409 2.20903 72 26 108 255 
10.1601 -17.6422 2.01412 72 32 113 255 
10.7319 -18.6647 1.9253 72 27 109 255 
10.096 -17.6021 1.62553 72 29 111 255 
10.0472 -17.4175 1.45192 72 31 112 255 
9.84648 -17.1045 1.23824 69 55 129 255 
10.1678 -17.7051 1.08788 72 36 117 255 
12.4075 -21.6497 1.09384 71 16 99 255 
12.295 -21.3314 0.885603 72 27 109 255 
41.6739 -72.4511 2.21786 69 5 89 255 
41.4044 -72.1265 1.42263 70 7 90 255 
41.3589 -72.2247 0.653688 69 5 89 255 
41.6734 -72.3308 -0.0145695 70 8 92 255 
41.5373 -72.2719 -0.800205 69 5 89 255 
41.4699 -72.2991 -1.57126 69 5 89 255 
41.3711 -72.3045 -2.35598 70 7 90 255 
26.3494 -45.789 -1.91869 70 7 90 255 
19.9475 -34.7352 -1.82591 70 10 93 255 
16.9312 -29.53 -1.87331 70 10 93 255 
9.80346 -17.1405 -1.27345 70 11 94 255 
8.71881 -15.1573 -1.26875 71 45 123 255 
8.04568 -14.0216 -1.3234 66 64 134 255 
7.24658 -12.6542 -1.33222 72 27 109 255 
6.53426 -11.4246 -1.32758 72 35 116 255 
6.03041 -10.4963 -1.31933 70 50 126 255 
5.57672 -9.72272 -1.3286 68 59 132 255 
5.16075 -9.01552 -1.33075 63 71 136 255 
4.77087 -8.34819 -1.32397 71 47 125 255 
4.45254 -7.75933 -1.30669 68 59 132 255 
4.14587 -7.23396 -1.29672 66 64 134 255 
3.8721 -6.76707 -1.28652 66 65 134 255 
3.6564 -6.39806 -1.28877 55 90 140 255 
3.46608 -6.05001 -1.2797 50 102 142 255 
3.25795 -5.69157 -1.26526 48 105 142 255 
3.08534 -5.39209 -1.26054 47 107 142 255 
2.93635 -5.13602 -1.26076 51 99 141 255 
2.81946 -4.9273 -1.25959 47 107 142 255 
2.68346 -4.69173 -1.2518 51 99 141 255 
2.59458 -4.53808 -1.26368 52 96 141 255 
2.48379 -4.34092 -1.2618 55 90 140 255 
2.38879 -4.18311 -1.25926 58 83 139 255 
2.28807 -4.00692 -1.25192 68 57 131 255 
2.20452 -3.8574 -1.25219 65 68 135 255 
2.15028 -3.75501 -1.26779 66 64 134 255 
10.9333 -19.2407 6.64776 70 8 92 255 
13.3848 -23.508 7.82335 70 8 92 255 
6.79725 -11.9282 3.82546 70 8 92 255 
9.95122 -17.4638 5.39707 71 42 122 255 
9.78293 -17.1954 5.13478 72 36 117 255 
9.78648 -17.1952 4.92564 71 42 122 255 
9.79935 -17.2244 4.73201 72 32 113 255 
10.6947 -18.8066 4.95504 72 24 106 255 
10.5124 -18.47 4.68812 72 26 108 255 
10.1269 -17.8005 4.30451 71 46 124 255 
10.0918 -17.76 4.09284 72 26 108 255 
12.9397 -22.7914 4.99952 71 16 99 255 
9.49294 -16.6789 3.50147 72 27 109 255 
9.55423 -16.8007 3.33495 70 50 126 255 
9.84066 -17.3322 3.2424 70 52 128 255 
9.63617 -17.0072 2.99816 71 44 122 255 
10.8439 -19.0603 3.18348 71 19 101 255 
11.3178 -19.9101 3.10055 72 32 113 255 
10.9636 -19.3336 2.79595 72 20 103 255 
10.0424 -17.7385 2.37653 72 24 106 255 
10.0924 -17.7393 2.21356 72 31 112 255 
9.77797 -17.2221 1.95928 71 45 123 255 
10.599 -18.6982 1.922 72 28 110 255 
9.97458 -17.6403 1.62337 71 13 96 255 
9.88496 -17.3818 1.44385 72 27 109 255 
9.81474 -17.2939 1.24757 71 46 124 255 
10.0476 -17.7472 1.08665 71 45 123 255 
12.2568 -21.6941 1.09226 72 23 105 255 
12.0746 -21.2492 0.879096 72 20 103 255 
13.5751 -23.9392 0.730258 71 19 101 255 
41.2447 -72.8804 1.43248 69 5 89 255 
41.0698 -72.7514 0.656162 69 5 89 255 
41.1764 -72.4929 -0.014551 69 5 89 255 
0 -0 -0 68 2 86 255 
41.3385 -73.1058 -1.58325 69 4 87 255 
40.9616 -72.6188 -2.35799 70 11 94 255 
26.1005 -46.0071 -1.92109 69 5 89 255 
19.7103 -34.8152 -1.82372 70 10 93 255 
16.7237 -29.5873 -1.87039 71 14 97 255 
14.3283 -25.4123 -1.88145 70 7 90 255 
8.61383 -15.1897 -1.26702 71 46 124 255 
7.97913 -14.1054 -1.32666 67 62 133 255 
7.17615 -12.7115 -1.33359 72 28 110 255 
6.47186 -11.4783 -1.32919 72 37 118 255 
5.99676 -10.5876 -1.32616 71 46 124 255 
5.52332 -9.76799 -1.33013 70 51 127 255 
5.11995 -9.07293 -1.33456 63 72 137 255 
4.71907 -8.37645 -1.32383 69 55 129 255 
4.418 -7.80975 -1.31059 66 65 134 255 
4.11405 -7.28163 -1.30071 67 62 133 255 
3.83632 -6.80102 -1.28847 66 64 134 255 
3.6161 -6.41866 -1.28843 54 92 141 255 
3.43083 -6.07459 -1.28042 48 105 142 255 
3.22152 -5.70888 -1.26469 46 110 142 255 
3.04931 -5.4058 -1.25935 51 99 141 255 
2.90382 -5.15224 -1.26034 50 101 142 255 
2.78293 -4.93346 -1.25677 48 106 142 255 
2.65318 -4.70556 -1.25113 50 101 142 255 
2.55571 -4.53444 -1.25828 50 100 142 255 
2.44853 -4.34088 -1.2574 57 86 140 255 
2.3645 -4.20022 -1.26002 56 88 140 255 
2.2606 -4.01584 -1.25034 63 71 136 255 
2.17797 -3.86583 -1.25057 65 68 135 255 
2.1187 -3.75309 -1.26273 66 64 134 255 
13.1931 -23.5529 8.10954 71 13 96 255 
11.7527 -20.9392 6.94433 71 16 99 255 
13.6295 -24.2628 7.75425 69 5 89 255 
9.91624 -17.6534 5.43674 72 23 105 255 
9.68292 -17.2652 5.1378 70 51 127 255 
9.62239 -17.1508 4.89592 70 48 126 255 
9.65732 -17.2198 4.71436 70 48 126 255 
9.7016 -17.3065 4.54403 72 20 103 255 
12.4171 -22.1314 5.59804 70 11 94 255 
10.1228 -18.0501 4.34976 72 28 110 255 
12.2347 -21.8422 5.0162 71 16 99 255 
10.2076 -18.239 3.9871 71 17 100 255 
9.38032 -16.7188 3.4977 72 26 108 255 
9.40133 -16.7705 3.31743 72 27 109 255 
9.82668 -17.5576 3.27323 70 48 126 255 
12.0567 -21.5871 3.79242 71 16 99 255 
11.0463 -19.6962 3.2783 72 23 105 255 
13.7062 -24.4598 3.7959 72 22 104 255 
9.96656 -17.8295 2.56954 72 33 115 255 
9.96576 -17.8579 2.38429 71 46 124 255 
9.89486 -17.6431 2.19393 72 36 117 255 
9.63906 -17.2228 1.95259 70 48 126 255 
11.3415 -20.2975 2.07921 72 28 110 255 
9.82102 -17.6202 1.61594 70 8 92 255 
9.87957 -17.623 1.45883 72 41 121 255 
9.74596 -17.4209 1.25239 65 66 135 255 
9.90643 -17.751 1.08314 72 36 117 255 
12.1103 -21.7453 1.09108 72 23 105 255 
12.0197 -21.458 0.884668 72 27 109 255 
13.6284 -24.3807 0.74116 72 29 111 255 
40.6564 -72.8807 1.42755 70 11 94 255 
40.6382 -73.03 0.656413 69 4 87 255 
40.8276 -72.917 -0.0145855 70 7 90 255 
41.1213 -73.6248 -0.809536 69 5 89 255 
41.1452 -73.8174 -1.59316 69 5 89 255 
41.2001 -74.1006 -2.39785 69 5 89 255 
25.966 -46.4316 -1.93212 70 7 90 255 
19.5178 -34.9739 -1.82573 71 13 96 255 
8.09012 -14.5202 -0.914756 72 24 106 255 
10.8431 -19.5099 -1.4395 70 11 94 255 
8.40269 -15.0316 -1.2495 69 53 129 255 
7.8934 -14.1558 -1.32683 66 65 134 255 
7.10383 -12.7657 -1.33468 72 27 109 255 
6.42209 -11.5552 -1.33351 72 38 119 255 
5.95301 -10.6624 -1.33093 70 52 128 255 
5.46473 -9.8043 -1.33048 70 48 126 255 
5.07094 -9.11631 -1.33634 60 80 139 255 
4.67047 -8.41044 -1.32465 71 47 125 255 
4.37048 -7.83758 -1.31073 66 65 134 255 
4.06881 -7.30587 -1.30056 66 63 133 255 
3.80315 -6.83995 -1.2914 66 64 134 255 
3.5953 -6.47431 -1.29515 55 90 140 255 
3.39684 -6.10154 -1.28169 50 100 142 255 
3.19025 -5.73541 -1.2662 47 107 142 255 
3.02513 -5.44068 -1.26313 49 104 142 255 
2.88023 -5.18449 -1.26388 50 101 142 255 
2.75403 -4.953 -1.25742 47 108 142 255 
2.63089 -4.73368 -1.25428 53 94 141 255 
2.52831 -4.55088 -1.25851 53 95 141 255 
2.43646 -4.38209 -1.26498 54 92 141 255 
2.34854 -4.23241 -1.26533 54 92 141 255 
2.24996 -4.05495 -1.2582 59 82 139 255 
2.16309 -3.89511 -1.25572 65 68 135 255 
2.10403 -3.78111 -1.26779 66 63 133 255 
9.74321 -17.6471 6.0554 72 37 118 255 
9.71593 -17.5621 5.80444 71 44 122 255 
9.76416 -17.6344 5.61659 72 32 113 255 
10.8449 -19.5871 6.01167 71 16 99 255 
9.59694 -17.3607 5.1486 71 44 122 255 
9.50194 -17.1824 4.88819 72 33 115 255 
9.54771 -17.2719 4.7125 72 36 117 255 
11.4715 -20.7614 5.43257 72 27 109 255 
10.5226 -19.0274 4.79648 72 24 106 255 
10.0847 -18.2437 4.38144 72 31 112 255 
10.3659 -18.7752 4.29716 71 14 97 255 
10.1112 -18.3297 3.99328 72 24 106 255 
10.3892 -18.7862 3.91681 72 27 109 255 
9.82583 -17.7827 3.50566 72 41 121 255 
9.71972 -17.6193 3.27355 71 44 122 255 
9.75898 -17.7277 3.10383 72 27 109 255 
9.66652 -17.4866 2.9006 70 51 127 255 
11.0937 -20.0856 3.10645 71 19 101 255 
9.83782 -17.8555 2.56455 71 44 122 255 
9.88185 -17.9657 2.39054 70 52 128 255 
9.69503 -17.5382 2.17345 70 52 128 255 
9.48177 -17.1884 1.94205 69 56 130 255 
9.59798 -17.4274 1.77914 70 50 126 255 
9.72232 -17.6976 1.61754 72 32 113 255 
9.84168 -17.8108 1.46935 70 50 126 255 
9.80515 -17.7819 1.27399 70 51 127 255 
9.76364 -17.7502 1.07942 72 37 118 255 
9.6413 -17.5646 0.878328 72 32 113 255 
12.5659 -22.7597 0.935136 71 17 100 255 
13.2195 -23.9937 0.726916 71 17 100 255 
40.472 -73.608 1.43691 69 5 89 255 
40.2307 -73.3534 0.657089 69 4 87 255 
40.4127 -73.2265 -0.0145976 69 5 89 255 
40.6369 -73.8179 -0.808902 70 7 90 255 
40.4802 -73.6838 -1.58489 70 7 90 255 
40.3767 -73.6805 -2.3762 70 7 90 255 
25.6946 -46.6154 -1.93317 69 5 89 255 
19.3033 -35.0939 -1.82577 70 7 90 255 
8.02009 -14.6046 -0.916954 71 17 100 255 
8.014 -14.6302 -1.07581 72 28 110 255 
8.26121 -14.9937 -1.24212 69 53 129 255 
7.79775 -14.1882 -1.32536 66 64 134 255 
7.08475 -12.9173 -1.34596 72 32 113 255 
6.38548 -11.6572 -1.34073 71 44 122 255 
5.89754 -10.717 -1.3332 70 51 127 255 
5.4102 -9.84809 -1.3319 71 42 122 255 
5.0192 -9.15508 -1.33748 60 80 139 255 
4.62829 -8.45632 -1.32738 70 52 128 255 
4.3266 -7.87205 -1.31203 66 64 134 255 
4.02913 -7.34023 -1.30225 68 58 131 255 
3.75542 -6.85277 -1.28945 65 66 135 255 
3.56119 -6.50662 -1.29722 55 91 141 255 
3.36265 -6.1283 -1.28295 50 100 142 255 
3.16255 -5.76865 -1.26924 47 107 142 255 
2.98557 -5.44797 -1.26054 46 109 142 255 
2.84742 -5.20035 -1.26347 49 103 142 255 
2.72641 -4.97494 -1.25872 50 100 142 255 
2.61396 -4.77194 -1.26015 49 104 142 255 
2.49473 -4.55608 -1.25569 51 99 141 255 
2.42024 -4.41652 -1.27061 53 95 141 255 
2.3216 -4.24505 -1.26482 56 89 140 255 
2.22921 -4.0763 -1.26056 60 80 139 255 
2.14146 -3.91253 -1.25708 66 63 133 255 
2.07295 -3.77965 -1.26301 67 62 133 255 
9.6851 -17.7991 6.08705 72 29 111 255 
9.53579 -17.4889 5.76083 72 40 120 255 
9.66408 -17.7092 5.62143 70 51 127 255 
9.94174 -18.2188 5.57289 72 29 111 255 
9.34529 -17.1532 5.06997 71 42 122 255 
9.38148 -17.2131 4.88046 70 50 126 255 
9.45133 -17.3481 4.71738 71 42 122 255 
11.3355 -20.816 5.42855 72 24 106 255 
11.7521 -21.5619 5.41709 72 22 104 255 
9.2371 -16.9552 4.0583 72 20 103 255 
9.25889 -17.0161 3.88145 72 20 103 255 
9.17699 -16.8803 3.66518 72 29 111 255 
10.2681 -18.8393 3.91466 72 27 109 255 
9.70239 -17.8167 3.50056 71 45 123 255 
9.63311 -17.7185 3.28093 69 53 129 255 
9.62881 -17.7482 3.097 71 45 123 255 
9.57372 -17.5725 2.90506 71 42 122 255 
9.8574 -18.1088 2.79132 72 27 109 255 
9.71293 -17.8876 2.56055 72 36 117 255 
9.49309 -17.5126 2.32245 72 41 121 255 
9.26238 -17.0011 2.0998 71 42 122 255 
9.31054 -17.1256 1.92847 66 64 134 255 
9.59112 -17.6707 1.79793 72 36 117 255 
9.86555 -18.2224 1.65994 70 11 94 255 
9.7427 -17.8901 1.47093 72 36 117 255 
9.56433 -17.5997 1.25671 68 59 132 255 
9.51272 -17.5481 1.06356 68 58 131 255 
10.9646 -20.2693 1.01019 72 27 109 255 
12.4729 -22.9224 0.938659 71 17 100 255 
12.5254 -23.0676 0.696517 72 23 105 255 
0 -0 0 69 4 87 255 
0 -0 0 68 2 86 255 
0 -0 -0 68 2 86 255 
0 -0 -0 68 2 86 255 
0 -0 -0 68 2 86 255 
55.0508 -101.937 -3.27653 69 4 87 255 
25.3633 -46.6896 -1.92976 70 7 90 255 
19.3242 -35.6481 -1.84841 69 5 89 255 
7.92843 -14.65 -0.916734 72 22 104 255 
8.02694 -14.8697 -1.08978 72 35 116 255 
8.05816 -14.8399 -1.22526 70 50 126 255 
7.71482 -14.2437 -1.32609 67 61 132 255 
7.00867 -12.9667 -1.3466 72 31 112 255 
6.32234 -11.7119 -1.34254 71 44 122 255 
5.8402 -10.7687 -1.33515 71 47 125 255 
5.36528 -9.90992 -1.33578 71 42 122 255 
4.97754 -9.21276 -1.34142 62 76 138 255 
4.58055 -8.49241 -1.32861 70 51 127 255 
4.27067 -7.88453 -1.30972 65 66 135 255 
4.00188 -7.39784 -1.30809 64 69 136 255 
3.71565 -6.88003 -1.29026 67 61 132 255 
3.51745 -6.52141 -1.29584 55 91 141 255 
3.32264 -6.14449 -1.28205 51 99 141 255 
3.12989 -5.79313 -1.27037 49 104 142 255 
2.95069 -5.4636 -1.25994 48 106 142 255 
2.81407 -5.21515 -1.26284 49 103 142 255 
2.69444 -4.989 -1.25807 50 102 142 255 
2.58417 -4.78704 -1.25992 50 101 142 255 
2.46765 -4.57301 -1.25616 52 96 141 255 
2.37282 -4.39375 -1.25985 52 96 141 255 
2.29367 -4.2558 -1.26381 57 86 140 255 
2.20919 -4.09925 -1.26344 61 78 138 255 
2.12747 -3.94423 -1.26304 67 61 132 255 
2.04789 -3.78892 -1.26189 66 64 134 255 
9.91876 -18.498 6.30512 71 19 101 255 
9.55198 -17.7773 5.83639 72 36 117 255 
9.55935 -17.7758 5.62384 72 37 118 255 
9.62804 -17.9043 5.45853 72 40 120 255 
9.24536 -17.2205 5.07298 72 41 121 255 
9.28578 -17.2891 4.88578 69 56 130 255 
9.36495 -17.4434 4.7276 71 42 122 255 
9.65287 -17.9881 4.67553 72 22 104 255 
10.2001 -18.9908 4.75533 72 24 106 255 
9.1315 -17.009 4.05768 72 31 112 255 
9.11864 -17.006 3.86632 71 46 124 255 
9.07695 -16.9432 3.66668 72 41 121 255 
9.99871 -18.6159 3.85542 72 31 112 255 
9.6502 -17.9827 3.52148 72 35 116 255 
9.6496 -18.0113 3.32413 72 23 105 255 
9.56679 -17.895 3.11232 72 41 121 255 
9.60802 -17.896 2.94873 72 33 115 255 
9.48706 -17.6861 2.71713 72 33 115 255 
11.1767 -20.888 2.98018 71 19 101 255 
9.31386 -17.4365 2.30473 72 22 104 255 
9.19504 -17.1268 2.10832 71 45 123 255 
9.19165 -17.1569 1.92561 68 58 131 255 
9.22791 -17.2532 1.74965 69 56 130 255 
9.30266 -17.4374 1.58321 71 44 122 255 
9.8846 -18.4189 1.50939 72 20 103 255 
9.27618 -17.322 1.23279 67 61 132 255 
9.46557 -17.7198 1.07043 69 55 129 255 
10.8043 -20.2692 1.00686 71 17 100 255 
11.5339 -21.5101 0.87791 72 29 111 255 
12.3572 -23.0946 0.695031 72 29 111 255 
12.4542 -23.3244 0.452299 72 24 106 255 
42.2706 -79.3675 0.706262 69 4 87 255 
0 -0 -0 69 4 87 255 
41.5313 -77.6841 -0.845619 69 5 89 255 
0 -0 -0 68 2 86 255 
51.9787 -97.6776 -3.1293 69 4 87 255 
25.0386 -46.7739 -1.92686 70 8 92 255 
7.83812 -14.6735 -0.758333 71 19 101 255 
7.85625 -14.7318 -0.918822 71 14 97 255 
7.94118 -14.9292 -1.09055 72 32 113 255 
7.93496 -14.8293 -1.22034 71 46 124 255 
7.64746 -14.3286 -1.3296 69 53 129 255 
6.93787 -13.0261 -1.34833 72 32 113 255 
6.26531 -11.7786 -1.34575 71 44 122 255 
5.76979 -10.7965 -1.33418 70 50 126 255 
5.28754 -9.91112 -1.33154 70 52 128 255 
4.93863 -9.2764 -1.34625 64 70 136 255 
4.54835 -8.55797 -1.33447 70 50 126 255 
4.232 -7.92892 -1.31276 66 65 134 255 
3.95456 -7.41876 -1.30747 67 62 133 255 
3.6831 -6.92099 -1.29368 63 72 137 255 
3.47136 -6.53156 -1.2936 53 94 141 255 
3.28395 -6.16303 -1.28169 51 99 141 255 
3.09567 -5.81483 -1.27094 45 113 142 255 
2.92263 -5.49198 -1.26233 47 108 142 255 
2.7889 -5.24527 -1.26597 50 102 142 255 
2.66607 -5.00975 -1.25915 50 102 142 255 
2.54377 -4.78216 -1.25451 49 104 142 255 
2.45004 -4.60781 -1.26157 51 98 141 255 
2.34764 -4.41165 -1.26083 56 88 140 255 
2.26615 -4.26723 -1.26305 53 95 141 255 
2.18852 -4.12125 -1.26606 59 81 139 255 
2.10458 -3.95976 -1.26386 64 69 136 255 
2.02731 -3.8065 -1.26357 66 64 134 255 
9.39615 -17.7845 6.04217 72 38 119 255 
9.42609 -17.8042 5.82611 72 41 121 255 
9.43161 -17.7992 5.61284 71 44 122 255 
9.57227 -18.0655 5.48965 72 32 113 255 
9.31061 -17.6003 5.16794 70 48 126 255 
9.21629 -17.4152 4.90535 70 52 128 255 
11.1043 -20.9912 5.67056 71 13 96 255 
9.54688 -18.0556 4.67776 72 32 113 255 
10.0834 -19.053 4.75533 72 27 109 255 
9.02193 -17.0552 4.05542 71 44 122 255 
8.9958 -17.027 3.85847 70 50 126 255 
9.04572 -17.1367 3.69647 72 36 117 255 
9.52629 -18.0004 3.71578 72 23 105 255 
9.536 -18.0346 3.52012 72 28 110 255 
9.52139 -18.037 3.31802 72 20 103 255 
9.79033 -18.5865 3.22208 71 14 97 255 
9.73311 -18.399 3.02171 71 47 125 255 
10.8236 -20.4783 3.13584 71 17 100 255 
10.053 -19.0684 2.7117 72 20 103 255 
10.6903 -20.3121 2.67611 71 17 100 255 
9.2483 -17.4825 2.14509 70 52 128 255 
9.08946 -17.2192 1.9263 69 53 129 255 
9.14694 -17.357 1.75446 69 53 129 255 
9.20152 -17.5056 1.58424 71 47 125 255 
9.45949 -17.8893 1.46121 72 27 109 255 
9.15062 -17.3424 1.23022 69 56 130 255 
9.96825 -18.9396 1.14039 72 28 110 255 
12.181 -23.1937 1.1484 71 17 100 255 
11.4101 -21.5963 0.878557 72 27 109 255 
12.0469 -22.8508 0.685456 72 24 106 255 
12.2727 -23.3278 0.450897 72 24 106 255 
0 -0 0 68 2 86 255 
0 -0 -0 68 2 86 255 
0 -0 -0 68 2 86 255 
0 -0 -0 68 2 86 255 
0 -0 -0 68 1 84 255 
24.7217 -46.871 -1.92457 70 7 90 255 
7.78376 -14.7894 -0.76184 70 8 92 255 
15.4018 -29.3129 -1.82231 70 11 94 255 
7.81376 -14.9096 -1.08559 71 19 101 255 
8.00894 -15.1909 -1.24603 71 44 122 255 
7.54594 -14.3497 -1.32723 66 64 134 255 
6.87355 -13.0984 -1.35142 72 31 112 255 
6.2174 -11.8636 -1.35107 71 44 122 255 
5.71039 -10.8449 -1.3358 70 52 128 255 
5.21647 -9.92404 -1.32895 71 45 123 255 
4.88853 -9.3197 -1.34816 63 72 137 255 
4.50356 -8.60063 -1.33679 69 53 129 255 
4.19478 -7.97663 -1.31637 66 63 133 255 
3.90804 -7.44114 -1.30717 65 68 135 255 
3.65156 -6.96443 -1.29759 57 86 140 255 
3.43168 -6.55361 -1.29377 56 89 140 255 
3.24699 -6.18481 -1.28205 51 98 141 255 
3.06267 -5.83893 -1.27208 47 108 142 255 
2.89798 -5.52717 -1.26631 44 113 142 255 
2.75213 -5.25362 -1.26388 49 103 142 255 
2.64661 -5.04763 -1.26457 47 108 142 255 
2.52749 -4.8227 -1.26105 48 106 142 255 
2.41721 -4.61414 -1.25922 51 99 141 255 
2.31962 -4.42425 -1.26034 55 91 141 255 
2.24262 -4.2862 -1.26457 51 98 141 255 
2.1623 -4.13289 -1.26553 56 88 140 255 
2.07846 -3.96919 -1.26277 66 64 134 255 
2.00169 -3.81462 -1.26217 66 63 133 255 
9.26386 -17.7976 6.02721 72 40 120 255 
9.27713 -17.7859 5.80139 71 45 123 255 
9.34049 -17.8917 5.62384 72 24 106 255 
9.39911 -18.0049 5.4536 72 36 117 255 
9.30175 -17.8477 5.22372 72 41 121 255 
9.23936 -17.721 4.97541 72 35 116 255 
11.0211 -21.147 5.69425 72 23 105 255 
11.0769 -21.264 5.49128 71 17 100 255 
9.25655 -17.7534 4.4167 71 13 96 255 
8.95465 -17.1822 4.07249 69 56 130 255 
8.96313 -17.2201 3.8897 71 44 122 255 
9.14979 -17.5945 3.78304 72 31 112 255 
9.17597 -17.5988 3.62119 72 41 121 255 
9.24851 -17.7537 3.45414 72 26 108 255 
9.07855 -17.4567 3.20097 71 47 125 255 
9.98933 -19.2498 3.32638 72 33 115 255 
9.92739 -19.0481 3.11826 72 38 119 255 
10.9284 -20.9873 3.20345 71 17 100 255 
10.4037 -20.0304 2.83939 72 33 115 255 
9.2528 -17.8457 2.34364 72 31 112 255 
9.22632 -17.7029 2.16514 70 48 126 255 
9.30366 -17.89 1.99492 70 48 126 255 
9.32803 -17.9671 1.81031 70 48 126 255 
9.08798 -17.5503 1.58321 71 42 122 255 
9.12973 -17.5251 1.42685 69 53 129 255 
8.95519 -17.2273 1.21814 65 66 135 255 
9.7443 -18.7929 1.12794 72 26 108 255 
11.6699 -22.5555 1.11324 71 13 96 255 
11.6534 -22.3884 0.907853 72 22 104 255 
11.4043 -21.9573 0.656542 71 13 96 255 
12.0907 -23.3281 0.44946 72 35 116 255 
0 -0 0 68 2 86 255 
0 -0 -0 68 2 86 255 
0 -0 -0 68 2 86 255 
0 -0 -0 68 2 86 255 
0 -0 -0 68 1 84 255 
24.5664 -47.2772 -1.93502 70 7 90 255 
0 -0 -0 69 5 89 255 
7.71067 -14.8963 -0.923108 72 23 105 255 
10.2496 -19.8529 -1.44091 71 14 97 255 
7.94776 -15.3017 -1.2511 71 42 122 255 
7.42933 -14.3408 -1.32218 68 57 131 255 
6.80768 -13.1687 -1.35433 72 33 115 255 
6.1454 -11.9033 -1.35127 72 40 120 255 
5.66022 -10.9115 -1.3397 70 48 126 255 
5.171 -9.98584 -1.33296 70 48 126 255 
4.84082 -9.36803 -1.35082 63 72 137 255 
4.44616 -8.6193 -1.33543 69 55 129 255 
4.14667 -8.00398 -1.31666 66 65 134 255 
3.8664 -7.47288 -1.30855 65 68 135 255 
3.61917 -7.00687 -1.30134 53 94 141 255 
3.39456 -6.58067 -1.29498 54 93 141 255 
3.21124 -6.20898 -1.28295 51 99 141 255 
3.02814 -5.86023 -1.27265 45 112 142 255 
2.86401 -5.54485 -1.26631 46 109 142 255 
2.71715 -5.26519 -1.26263 50 102 142 255 
2.60887 -5.05076 -1.26132 47 107 142 255 
2.505 -4.85197 -1.26466 51 99 141 255 
2.37504 -4.60211 -1.25193 56 88 140 255 
2.29777 -4.44874 -1.26327 54 93 141 255 
2.2083 -4.2844 -1.26002 55 91 141 255 
2.13248 -4.1375 -1.26291 57 85 140 255 
2.05362 -3.98101 -1.2625 69 53 129 255 
1.96767 -3.80637 -1.25542 67 61 132 255 
9.17064 -17.8857 6.03785 72 32 113 255 
9.17397 -17.8544 5.80528 72 41 121 255 
9.23362 -17.9547 5.62572 72 24 106 255 
9.27963 -18.045 5.44841 72 33 115 255 
9.17262 -17.8665 5.21266 72 35 116 255 
9.24261 -17.9957 5.03653 72 29 111 255 
10.2159 -19.8989 5.34122 72 29 111 255 
11.1296 -21.6889 5.58326 72 28 110 255 
8.9663 -17.4572 4.32924 71 19 101 255 
8.96303 -17.4589 4.12494 70 48 126 255 
9.30735 -18.1525 4.08734 72 35 116 255 
9.11376 -17.791 3.81321 72 27 109 255 
10.6252 -20.687 4.24312 71 16 99 255 
8.98869 -17.5164 3.39718 70 48 126 255 
8.98431 -17.5376 3.20563 70 50 126 255 
8.87857 -17.3692 2.99194 71 45 123 255 
9.85643 -19.1985 3.13291 70 51 127 255 
9.80801 -19.1212 2.90938 71 45 123 255 
