ply
format ascii 1.0
comment VTK generated PLY File
obj_info vtkPolyData points and polygons: vtk4.0
element vertex 1252
property float x
property float y
property float z
property uchar red
property uchar green
property uchar blue
property uchar alpha
element face 0
property list uchar int vertex_indices
end_header
10.3279 7.52996 -0.824299 68 58 131 255 
9.40584 6.89326 -0.846125 71 45 123 255 
8.62123 6.30417 -0.874325 71 46 124 255 
7.98177 5.826 -0.902797 71 47 125 255 
7.43258 5.41903 -0.927844 70 51 127 255 
6.94655 5.08534 -0.93828 67 62 133 255 
6.54349 4.78309 -0.960755 63 72 137 255 
6.18184 4.51055 -0.980303 59 81 139 255 
5.83701 4.25259 -0.994409 54 93 141 255 
5.53118 4.04475 -1.00086 54 92 141 255 
5.25515 3.83855 -1.01211 52 96 141 255 
4.99332 3.64202 -1.01984 61 78 138 255 
4.76103 3.46868 -1.03019 64 69 136 255 
4.58019 3.34443 -1.04087 60 79 138 255 
4.38402 3.19872 -1.04702 59 81 139 255 
4.19728 3.06141 -1.05413 58 83 139 255 
4.04443 2.94768 -1.0665 62 76 138 255 
3.88533 2.83393 -1.06702 61 78 138 255 
3.75178 2.73542 -1.07536 57 85 140 255 
3.59762 2.6221 -1.07617 58 83 139 255 
3.48215 2.53973 -1.08738 64 69 136 255 
3.36794 2.45206 -1.08905 65 68 135 255 
3.27855 2.38688 -1.1003 66 64 134 255 
3.1475 2.29319 -1.09757 64 70 136 255 
3.03856 2.21782 -1.10218 65 66 135 255 
12.1219 8.78604 4.49725 68 57 131 255 
12.9596 9.41019 4.63178 72 35 116 255 
13.2205 9.60691 4.55367 68 57 131 255 
13.1752 9.57354 4.37299 72 38 119 255 
13.5469 9.82971 4.34418 71 44 122 255 
12.9781 9.42015 3.9924 72 27 109 255 
13.6021 9.86964 4.01294 72 28 110 255 
13.257 9.61539 3.75083 69 53 129 255 
17.9756 13.048 4.89988 70 11 94 255 
14.1853 10.2927 3.68373 71 47 125 255 
14.5928 10.5769 3.61112 72 40 120 255 
14.9119 10.7998 3.51228 72 35 116 255 
15.07 10.9389 3.39755 72 40 120 255 
22.4489 16.2826 4.7852 70 11 94 255 
21.9623 15.9066 4.41151 72 22 104 255 
22.3828 16.1809 4.23617 71 13 96 255 
22.4179 16.2665 4.02091 71 17 100 255 
22.3826 16.2285 3.74291 71 13 96 255 
23.0114 16.6481 3.57292 71 16 99 255 
22.8602 16.5138 3.28791 71 14 97 255 
22.771 16.5228 3.05136 71 17 100 255 
23.6526 17.1305 2.88925 70 8 92 255 
24.1672 17.4778 2.66706 71 14 97 255 
23.4061 16.8896 2.31217 72 23 105 255 
17.7526 12.8767 1.58357 70 7 90 255 
17.8141 12.8972 1.37981 70 8 92 255 
37.185 26.8627 2.44424 69 5 89 255 
0 0 0 68 2 86 255 
36.9285 26.7661 1.64051 69 4 87 255 
0 0 0 68 1 84 255 
0 0 0 68 2 86 255 
0 0 0 68 2 86 255 
13.1955 9.56068 -0.00284401 71 19 101 255 
23.4197 16.9307 -0.277416 71 13 96 255 
17.2021 12.4132 -0.399907 71 13 96 255 
16.0628 11.5652 -0.559785 72 38 119 255 
14.177 10.2605 -0.635596 72 33 115 255 
12.4988 9.02908 -0.702869 72 35 116 255 
11.2383 8.10669 -0.762599 69 56 130 255 
10.3156 7.42447 -0.819665 67 61 132 255 
9.47059 6.85179 -0.848151 71 45 123 255 
8.66945 6.25815 -0.875304 71 44 122 255 
8.03191 5.78739 -0.904434 70 50 126 255 
7.45923 5.36867 -0.927041 70 52 128 255 
6.97279 5.03913 -0.93763 68 59 132 255 
6.55741 4.73181 -0.958518 64 69 136 255 
6.21423 4.47602 -0.981066 58 84 140 255 
5.84852 4.20629 -0.991953 55 90 140 255 
5.56632 4.01826 -1.00274 57 85 140 255 
5.28181 3.80854 -1.01272 54 92 141 255 
5.01878 3.61362 -1.02049 58 83 139 255 
4.76303 3.4256 -1.02606 65 66 135 255 
4.60381 3.31856 -1.0416 61 77 138 255 
4.38843 3.16086 -1.04343 60 79 138 255 
4.21758 3.03674 -1.05453 61 77 138 255 
4.04657 2.91138 -1.06234 63 72 137 255 
3.90264 2.81004 -1.06702 64 69 136 255 
3.74636 2.69641 -1.06904 60 80 139 255 
3.60732 2.59544 -1.07429 64 69 136 255 
3.49452 2.51605 -1.0864 62 76 138 255 
3.39156 2.43756 -1.09183 64 70 136 255 
3.27511 2.35377 -1.09428 64 70 136 255 
3.16932 2.27946 -1.10028 66 64 134 255 
3.06224 2.20643 -1.10584 66 63 133 255 
12.1343 8.68196 4.482 72 32 113 255 
12.1356 8.69865 4.31812 71 45 123 255 
13.4147 9.62274 4.6001 71 44 122 255 
13.0861 9.38669 4.32424 72 41 121 255 
13.2481 9.48939 4.22962 72 37 118 255 
14.3127 10.2554 4.38353 72 40 120 255 
20.2452 14.5011 5.94648 72 22 104 255 
13.3237 9.53954 3.75306 72 40 120 255 
19.9707 14.3099 5.41968 72 35 116 255 
14.1965 10.1684 3.67036 72 38 119 255 
14.62 10.4603 3.60189 71 46 124 255 
15.0203 10.7384 3.52221 72 37 118 255 
14.9977 10.7465 3.36632 72 40 120 255 
22.1389 15.8514 4.69831 71 14 97 255 
15.2932 10.934 3.05838 68 59 132 255 
22.4608 16.0283 4.23223 72 23 105 255 
22.8374 16.358 4.07808 71 13 96 255 
22.0869 15.8083 3.67717 71 17 100 255 
23.1664 16.5446 3.58116 71 17 100 255 
22.9951 16.3975 3.29277 71 16 99 255 
22.8138 16.3411 3.0436 71 19 101 255 
23.2715 16.6378 2.83018 70 10 93 255 
23.8573 17.0318 2.62128 72 26 108 255 
23.5329 16.7624 2.31448 72 23 105 255 
0 0 0 69 4 87 255 
33.4222 23.8861 2.57735 70 10 93 255 
0 0 0 68 2 86 255 
0 0 0 68 2 86 255 
0 0 0 68 2 86 255 
37.3111 26.6458 1.21661 69 4 87 255 
41.0829 29.2858 0.863037 69 5 89 255 
24.1155 17.1521 0.232428 69 4 87 255 
13.3002 9.5127 -0.00285396 71 16 99 255 
13.3195 9.50511 -0.157081 70 8 92 255 
13.3455 9.50627 -0.308888 71 19 101 255 
13.3803 9.50969 -0.464259 71 14 97 255 
13.7063 9.79227 -0.611786 72 20 103 255 
12.567 8.9615 -0.703597 72 36 117 255 
11.2943 8.04221 -0.763038 70 50 126 255 
10.3691 7.36682 -0.820309 68 58 131 255 
9.51326 6.79413 -0.848224 72 38 119 255 
8.71174 6.20773 -0.875712 72 41 121 255 
8.05428 5.72877 -0.902979 71 46 124 255 
7.49771 5.32683 -0.927744 70 50 126 255 
7.01329 5.00317 -0.93893 68 58 131 255 
6.58875 4.69322 -0.958872 58 83 139 255 
6.24723 4.44183 -0.981955 58 83 139 255 
5.86937 4.16688 -0.991135 57 85 140 255 
5.60296 3.99265 -1.00491 55 90 140 255 
5.30186 3.77377 -1.01211 57 85 140 255 
5.03845 3.58105 -1.02 61 78 138 255 
4.81207 3.41626 -1.03209 62 73 137 255 
4.60486 3.27657 -1.03726 62 73 137 255 
4.40614 3.13274 -1.04305 61 77 138 255 
4.21856 2.99832 -1.05015 64 70 136 255 
4.06276 2.88537 -1.06192 62 73 137 255 
3.93413 2.79622 -1.07092 66 65 134 255 
3.76442 2.6745 -1.06949 63 72 137 255 
3.64775 2.5907 -1.08158 64 69 136 255 
3.50515 2.49119 -1.08494 66 63 133 255 
3.3962 2.40943 -1.08854 67 62 133 255 
3.30366 2.34368 -1.09899 65 66 135 255 
3.17618 2.25495 -1.09784 67 61 132 255 
3.06164 2.17759 -1.10078 66 64 134 255 
13.608 9.61067 5.00445 69 55 129 255 
13.6434 9.65327 4.83347 69 53 129 255 
13.4829 9.54693 4.60333 69 56 130 255 
13.3626 9.46137 4.39633 71 45 123 255 
13.0129 9.20061 4.13642 72 37 118 255 
13.3557 9.44622 4.07261 72 32 113 255 
20.098 14.2099 5.8775 72 29 111 255 
13.1711 9.30853 3.6939 71 47 125 255 
12.1119 8.56674 3.27262 72 32 113 255 
12.05 8.51955 3.10183 61 78 138 255 
15.1364 10.69 3.71289 71 44 122 255 
15.2287 10.7469 3.55556 72 24 106 255 
15.2521 10.7878 3.4085 70 50 126 255 
15.3094 10.82 3.23479 72 26 108 255 
15.3584 10.8388 3.05806 72 22 104 255 
22.9328 16.1537 4.30242 72 22 104 255 
22.956 16.2307 4.08139 72 24 106 255 
22.3914 15.8194 3.71165 72 20 103 255 
23.0364 16.2392 3.54558 71 13 96 255 
22.9442 16.1497 3.27123 71 14 97 255 
23.0727 16.3133 3.06473 70 8 92 255 
24.3399 17.1769 2.94724 71 16 99 255 
23.9362 16.8673 2.61851 71 19 101 255 
23.495 16.5191 2.30075 72 24 106 255 
23.487 16.6001 2.07676 72 23 105 255 
33.0453 23.3118 2.53721 69 5 89 255 
38.2181 26.9015 2.49027 69 4 87 255 
0 0 0 68 1 84 255 
0 0 0 68 2 86 255 
0 0 0 68 2 86 255 
42.0501 29.5879 0.879525 69 5 89 255 
0 0 0 68 2 86 255 
32.3911 22.8679 -0.00692023 69 5 89 255 
23.6666 16.6708 -0.277896 71 16 99 255 
18.9292 13.3094 -0.436228 71 17 100 255 
16.2158 11.3758 -0.56021 72 35 116 255 
14.2283 10.034 -0.632329 72 31 112 255 
12.616 8.8802 -0.703279 72 29 111 255 
11.3508 7.97793 -0.763533 71 47 125 255 
10.4329 7.31624 -0.821789 67 61 132 255 
9.55151 6.73333 -0.847934 71 45 123 255 
8.76108 6.16219 -0.876854 72 40 120 255 
8.08276 5.67466 -0.902251 71 42 122 255 
7.52863 5.27958 -0.927543 70 50 126 255 
7.0341 4.95318 -0.93763 68 58 131 255 
6.61173 4.6487 -0.958048 59 81 139 255 
6.28168 4.40854 -0.983099 58 84 140 255 
5.9143 4.14443 -0.994409 56 89 140 255 
5.60793 3.94453 -1.00144 55 90 140 255 
5.32491 3.74116 -1.01211 59 81 139 255 
5.07082 3.55743 -1.02212 60 80 139 255 
4.83375 3.38724 -1.03226 62 73 137 255 
4.61039 3.23808 -1.03401 62 73 137 255 
4.45421 3.12595 -1.04987 62 73 137 255 
4.23527 2.97125 -1.04975 61 78 138 255 
4.07398 2.85589 -1.06025 63 71 136 255 
3.94003 2.76418 -1.06789 66 65 134 255 
3.76959 2.64352 -1.06633 63 71 136 255 
3.66756 2.57106 -1.08275 63 72 137 255 
3.52513 2.47298 -1.0864 67 62 133 255 
3.42598 2.39909 -1.09335 66 64 134 255 
3.28952 2.30344 -1.08957 68 57 131 255 
3.19627 2.23984 -1.10001 68 59 132 255 
3.08908 2.16868 -1.10584 66 63 133 255 
13.7185 9.56314 5.02344 70 50 126 255 
13.3724 9.33891 4.71707 72 27 109 255 
13.7228 9.59094 4.66506 65 68 135 255 
13.1845 9.21433 4.31905 71 44 122 255 
14.3637 10.0241 4.54616 70 51 127 255 
13.7309 9.58572 4.169 71 47 125 255 
20.1656 14.0729 5.87193 71 17 100 255 
13.2703 9.25709 3.70573 72 41 121 255 
14.1876 9.90484 3.81698 72 29 111 255 
12.1157 8.45498 3.10533 72 36 117 255 
15.295 10.662 3.73568 71 46 124 255 
22.8767 15.9346 5.31826 70 8 92 255 
15.3228 10.6974 3.40957 71 42 122 255 
15.3835 10.7315 3.23649 68 59 132 255 
22.9365 15.9769 4.54735 71 19 101 255 
22.9187 15.9343 4.28135 71 19 101 255 
22.8376 15.9378 4.04289 72 23 105 255 
22.6287 15.7798 3.73486 72 23 105 255 
23.0509 16.0386 3.5326 71 17 100 255 
25.4019 17.6476 3.60614 70 10 93 255 
25.222 17.6018 3.33581 70 11 94 255 
23.9459 16.6797 2.88709 72 24 106 255 
23.9231 16.6393 2.60587 72 23 105 255 
23.6156 16.3883 2.30266 72 26 108 255 
23.5802 16.4499 2.07604 72 24 106 255 
33.7218 23.4804 2.57804 69 5 89 255 
0 0 0 68 2 86 255 
0 0 0 68 2 86 255 
0 0 0 68 2 86 255 
37.9283 26.3897 1.22608 69 4 87 255 
0 0 0 68 2 86 255 
25.2809 17.5178 0.24157 70 8 92 255 
32.5292 22.6676 -0.00691988 70 8 92 255 
23.89 16.6098 -0.279316 72 20 103 255 
19.1806 13.311 -0.44013 71 16 99 255 
16.3625 11.3296 -0.562867 72 29 111 255 
14.3241 9.97045 -0.633854 72 28 110 255 
12.7064 8.8277 -0.705282 72 31 112 255 
11.3831 7.89675 -0.762434 70 51 127 255 
10.4833 7.25606 -0.82224 69 53 129 255 
9.58037 6.66605 -0.846849 72 37 118 255 
8.80364 6.11173 -0.877344 72 41 121 255 
8.1207 5.62723 -0.902615 71 42 122 255 
7.57561 5.24348 -0.929349 70 51 127 255 
7.0513 4.90085 -0.935896 70 51 127 255 
6.63116 4.60182 -0.956753 60 79 138 255 
6.29556 4.36087 -0.981066 57 85 140 255 
5.95428 4.11821 -0.996864 56 89 140 255 
5.62471 3.90497 -1.00014 57 86 140 255 
5.35508 3.71349 -1.01349 59 82 139 255 
5.08688 3.52232 -1.02098 61 77 138 255 
4.83743 3.34575 -1.02864 63 71 136 255 
4.63744 3.21477 -1.03564 62 73 137 255 
4.46604 3.09353 -1.04816 62 73 137 255 
4.26309 2.9519 -1.05214 62 73 137 255 
4.1043 2.83975 -1.06359 65 68 135 255 
3.94407 2.73106 -1.06442 66 64 134 255 
3.80256 2.63198 -1.07107 62 73 137 255 
3.67927 2.54574 -1.08158 63 72 137 255 
3.5235 2.43971 -1.08127 65 66 135 255 
3.4088 2.35602 -1.08323 65 68 135 255 
3.30042 2.28101 -1.08852 66 64 134 255 
3.20441 2.21635 -1.09811 68 59 132 255 
3.08813 2.13985 -1.10078 69 56 130 255 
13.3958 9.21659 4.88448 71 42 122 255 
13.8083 9.51783 4.85014 72 37 118 255 
13.3453 9.20572 4.51743 72 37 118 255 
12.9697 8.94626 4.23062 69 53 129 255 
14.3388 9.87644 4.51903 72 41 121 255 
13.4467 9.26509 4.06536 71 44 122 255 
13.3371 9.18637 3.86708 72 28 110 255 
13.3188 9.16997 3.7035 68 59 132 255 
12.0521 8.30443 3.22867 62 73 137 255 
12.1714 8.38325 3.10636 70 7 90 255 
15.3884 10.5874 3.74255 71 19 101 255 
23.1343 15.9041 5.35536 70 7 90 255 
15.3258 10.5602 3.39575 70 50 126 255 
15.4686 10.6503 3.24057 70 52 128 255 
23.1203 15.8951 4.56437 72 20 103 255 
22.9606 15.7553 4.27104 72 22 104 255 
22.9366 15.7985 4.04317 72 26 108 255 
22.8623 15.735 3.7574 72 20 103 255 
23.6584 16.2468 3.61036 70 11 94 255 
24.6963 16.9336 3.49114 71 17 100 255 
24.5468 16.9076 3.23273 70 10 93 255 
23.9125 16.4394 2.87084 72 23 105 255 
24.06 16.5165 2.6097 71 16 99 255 
23.8062 16.305 2.31145 72 28 110 255 
23.7177 16.3304 2.07928 72 26 108 255 
34.2896 23.5647 2.61035 70 10 93 255 
0 0 0 68 2 86 255 
0 0 0 68 2 86 255 
0 0 0 69 4 87 255 
0 0 0 68 2 86 255 
41.9301 28.7406 0.869571 69 5 89 255 
0 0 0 69 4 87 255 
32.6717 22.4704 -0.00692075 70 8 92 255 
23.5957 16.1913 -0.274709 72 22 104 255 
19.1307 13.1032 -0.437133 72 22 104 255 
16.4664 11.2527 -0.564054 72 36 117 255 
14.3735 9.87445 -0.633346 72 31 112 255 
12.8361 8.80154 -0.709472 72 36 117 255 
11.4215 7.81998 -0.761774 70 51 127 255 
10.5375 7.19835 -0.823012 68 58 131 255 
9.5956 6.58964 -0.844605 72 41 121 255 
8.8344 6.05309 -0.876691 71 47 125 255 
8.14522 5.57055 -0.901523 71 46 124 255 
7.61585 5.20251 -0.930353 70 51 127 255 
7.08616 4.86086 -0.936546 70 52 128 255 
6.66419 4.56441 -0.957459 58 83 139 255 
6.30255 4.30873 -0.978016 60 79 138 255 
5.97371 4.07769 -0.995909 56 88 140 255 
5.64611 3.8687 -0.999706 57 86 140 255 
5.38347 3.68447 -1.01457 58 84 140 255 
5.10106 3.48603 -1.01951 56 89 140 255 
4.89285 3.33988 -1.03605 64 69 136 255 
4.65789 3.18681 -1.03582 60 80 139 255 
4.47359 3.05831 -1.04551 60 80 139 255 
4.27546 2.92182 -1.05075 62 74 137 255 
4.11033 2.80679 -1.06067 64 70 136 255 
3.96721 2.71121 -1.06615 65 68 135 255 
3.82588 2.61355 -1.0731 64 70 136 255 
3.69482 2.52312 -1.08158 62 73 137 255 
3.55602 2.43008 -1.08665 65 68 135 255 
3.4088 2.32524 -1.07868 63 71 136 255 
3.30558 2.25474 -1.08564 69 56 130 255 
3.2251 2.20153 -1.10055 68 59 132 255 
3.11309 2.12899 -1.105 68 57 131 255 
13.464 9.14229 4.8888 72 20 103 255 
13.8394 9.41455 4.8407 70 50 126 255 
13.0288 8.86996 4.39181 70 50 126 255 
13.0355 8.87412 4.23425 69 55 129 255 
13.4242 9.12549 4.21304 72 38 119 255 
13.6276 9.26699 4.10281 70 51 127 255 
13.3104 9.04804 3.84316 72 31 112 255 
14.2569 9.6874 3.94773 72 24 106 255 
12.1448 8.25888 3.23987 70 52 128 255 
14.4693 9.83564 3.67736 72 22 104 255 
26.1145 17.7319 6.32462 71 14 97 255 
25.8919 17.5669 5.96866 70 7 90 255 
15.3944 10.4687 3.39665 72 36 117 255 
15.4489 10.4976 3.22289 71 19 101 255 
23.5188 15.9575 4.62362 72 20 103 255 
23.268 15.7571 4.31015 71 17 100 255 
23.2983 15.8377 4.08972 72 22 104 255 
23.7404 16.1257 3.88538 71 19 101 255 
25.1498 17.0449 3.82192 71 17 100 255 
24.5406 16.6064 3.45466 71 19 101 255 
24.4182 16.599 3.20232 72 24 106 255 
23.8589 16.1879 2.85243 72 26 108 255 
24.01 16.2663 2.5934 71 16 99 255 
23.9049 16.1581 2.31137 72 23 105 255 
23.8488 16.2059 2.08202 72 29 111 255 
24.2765 16.465 1.84036 71 13 96 255 
34.4775 23.3314 2.21816 70 7 90 255 
34.4237 23.2506 1.82094 70 7 90 255 
0 0 0 68 2 86 255 
0 0 0 68 2 86 255 
42.1975 28.545 0.871469 69 4 87 255 
32.8907 22.1984 0.311659 69 5 89 255 
24.8601 16.8741 -0.00524402 70 8 92 255 
23.3932 15.8421 -0.271215 72 24 106 255 
18.6351 12.5964 -0.424033 71 19 101 255 
16.4042 11.0631 -0.559588 72 37 118 255 
14.3858 9.75355 -0.63124 72 32 113 255 
12.9139 8.73885 -0.710792 72 31 112 255 
11.475 7.75367 -0.762159 70 51 127 255 
10.5649 7.1224 -0.821725 67 61 132 255 
9.69447 6.57036 -0.849743 72 41 121 255 
8.86724 5.99598 -0.876283 71 46 124 255 
8.18667 5.52548 -0.902342 71 45 123 255 
7.65093 5.15791 -0.930755 71 47 125 255 
7.1249 4.82342 -0.937738 70 51 127 255 
6.69207 4.52343 -0.957459 57 85 140 255 
6.37327 4.29993 -0.984878 57 85 140 255 
5.98219 4.02989 -0.993181 54 92 141 255 
5.67958 3.84064 -1.00144 55 91 141 255 
5.40516 3.65081 -1.01441 57 86 140 255 
5.11827 3.4519 -1.0187 61 78 138 255 
4.87649 3.28503 -1.0283 64 70 136 255 
4.68877 3.16587 -1.03835 60 79 138 255 
4.48902 3.0286 -1.04475 59 82 139 255 
4.28356 2.88895 -1.04836 62 74 137 255 
4.11856 2.7755 -1.05838 62 74 137 255 
3.97729 2.68245 -1.06442 64 69 136 255 
3.84911 2.59492 -1.07513 62 76 138 255 
3.70297 2.49551 -1.07946 62 74 137 255 
3.56363 2.40334 -1.08445 65 68 135 255 
3.44387 2.31833 -1.08525 68 57 131 255 
3.32015 2.23495 -1.0859 67 61 132 255 
3.23296 2.17794 -1.09865 69 56 130 255 
3.10461 2.09535 -1.0974 69 55 129 255 
13.6726 9.16187 4.94404 72 26 108 255 
13.479 9.04889 4.69512 72 23 105 255 
13.0774 8.78609 4.38994 68 59 132 255 
13.8529 9.3067 4.48113 72 38 119 255 
13.4872 9.0478 4.2153 70 48 126 255 
13.3861 8.98313 4.01342 70 48 126 255 
12.2582 8.2233 3.52474 72 26 108 255 
12.1884 8.17306 3.36103 70 51 127 255 
12.1896 8.18039 3.23837 67 61 132 255 
12.0425 8.07843 3.04794 63 72 137 255 
31.9018 21.3768 7.69434 70 7 90 255 
15.2977 10.2426 3.5119 72 20 103 255 
15.4657 10.379 3.39827 72 33 115 255 
23.7941 15.9557 4.94333 72 20 103 255 
23.467 15.7129 4.5944 72 24 106 255 
23.4489 15.6706 4.32577 72 20 103 255 
24.6746 16.5529 4.31341 70 10 93 255 
24.197 16.2197 3.94374 71 16 99 255 
24.8844 16.6431 3.76601 71 14 97 255 
24.6519 16.4622 3.45605 71 17 100 255 
24.7772 16.6217 3.23596 71 14 97 255 
24.554 16.4404 2.92341 71 19 101 255 
23.7923 15.9066 2.55928 71 17 100 255 
23.6736 15.7909 2.27959 72 24 106 255 
24.2294 16.2481 2.1065 71 16 99 255 
24.4019 16.3324 1.84224 72 24 106 255 
34.6939 23.1688 2.2229 69 4 87 255 
34.6289 23.081 1.82427 70 10 93 255 
34.4508 23.0851 1.49165 70 7 90 255 
34.5346 23.0968 1.10244 70 7 90 255 
34.3953 22.9607 0.707413 70 8 92 255 
34.4103 22.918 0.32472 70 8 92 255 
33.1901 22.2319 -0.00697224 70 11 94 255 
23.5008 15.7055 -0.27134 72 24 106 255 
18.7078 12.4791 -0.423939 72 23 105 255 
16.4601 10.9545 -0.559192 72 28 110 255 
14.4404 9.66176 -0.631023 71 42 122 255 
12.9697 8.66111 -0.710929 72 36 117 255 
11.5648 7.71136 -0.764961 70 48 126 255 
10.596 7.04915 -0.820759 67 61 132 255 
9.76943 6.53405 -0.852783 70 48 126 255 
8.89641 5.93648 -0.875549 72 40 120 255 
8.23037 5.48177 -0.903433 71 45 123 255 
7.6493 5.08882 -0.92674 71 45 123 255 
7.14775 4.7752 -0.936871 69 56 130 255 
6.71722 4.48063 -0.957106 60 80 139 255 
6.3888 4.2536 -0.983226 59 81 139 255 
5.99443 3.98488 -0.991135 57 85 140 255 
5.70469 3.80682 -1.00173 53 94 141 255 
5.42828 3.61813 -1.01457 59 82 139 255 
5.16399 3.43683 -1.02358 58 83 139 255 
4.88425 3.24687 -1.02571 66 65 134 255 
4.70811 3.13704 -1.03835 62 76 138 255 
4.52059 3.00971 -1.04778 60 80 139 255 
4.31263 2.87022 -1.05115 62 74 137 255 
4.15913 2.76588 -1.06442 62 76 138 255 
3.98474 2.65205 -1.06204 65 68 135 255 
3.84387 2.55723 -1.06927 63 72 137 255 
3.72469 2.47705 -1.08134 62 73 137 255 
3.57508 2.37928 -1.08347 65 68 135 255 
3.45481 2.29501 -1.08424 64 70 136 255 
3.32737 2.21026 -1.08381 67 61 132 255 
3.23504 2.1506 -1.09486 68 59 132 255 
3.12939 2.08424 -1.10162 69 56 130 255 
13.6016 8.99381 4.89829 70 8 92 255 
13.2708 8.79146 4.60372 72 41 121 255 
13.9155 9.22573 4.65218 69 55 129 255 
14.0973 9.34587 4.54155 72 41 121 255 
13.8822 9.18981 4.32107 72 22 104 255 
13.4442 8.90297 4.01439 71 16 99 255 
12.1836 8.06525 3.48897 72 37 118 255 
12.1757 8.0567 3.34384 66 65 134 255 
12.2696 8.12539 3.24634 68 57 131 255 
12.2102 8.08271 3.07777 62 73 137 255 
32.425 21.4402 7.78864 69 4 87 255 
15.5365 10.2649 3.55219 72 33 115 255 
26.3042 17.4196 5.75621 71 16 99 255 
23.8324 15.7702 4.93109 71 19 101 255 
24.095 15.9201 4.69813 72 24 106 255 
23.2872 15.3567 4.27847 70 10 93 255 
24.2583 16.0586 4.22333 71 17 100 255 
25.1093 16.6089 4.07575 71 16 99 255 
24.7757 16.3513 3.7343 71 19 101 255 
24.6355 16.2335 3.43973 72 23 105 255 
24.7237 16.3667 3.2158 72 22 104 255 
24.7815 16.3734 2.93848 71 17 100 255 
23.9135 15.7763 2.56187 72 20 103 255 
24.0856 15.8531 2.30985 71 19 101 255 
24.2114 16.0215 2.09635 72 23 105 255 
24.4509 16.1488 1.83842 72 23 105 255 
34.6953 22.8632 2.21396 69 4 87 255 
0 0 0 68 2 86 255 
34.5843 22.8683 1.49133 70 7 90 255 
34.5597 22.808 1.09876 70 7 90 255 
34.5531 22.7608 0.707773 70 8 92 255 
34.5461 22.7037 0.32468 70 8 92 255 
33.3584 22.0494 -0.00697905 70 11 94 255 
23.464 15.4735 -0.269813 72 24 106 255 
19.1557 12.6087 -0.432327 72 24 106 255 
16.3281 10.7227 -0.552463 72 22 104 255 
14.557 9.61096 -0.633527 72 36 117 255 
13.0176 8.57807 -0.710656 72 29 111 255 
11.616 7.643 -0.765236 71 42 122 255 
10.6507 6.99167 -0.82166 70 51 127 255 
9.81266 6.47618 -0.853072 69 56 130 255 
8.9643 5.9026 -0.878649 71 46 124 255 
8.29547 5.45195 -0.906891 71 42 122 255 
7.68537 5.04507 -0.927342 71 45 123 255 
7.18024 4.73344 -0.937304 69 53 129 255 
6.728 4.42841 -0.954752 58 83 139 255 
6.42059 4.21813 -0.984115 57 85 140 255 
6.0287 3.95454 -0.992772 55 90 140 255 
5.72133 3.76739 -1.00057 55 90 140 255 
5.44955 3.58421 -1.01441 58 83 139 255 
5.18086 3.40237 -1.02277 55 90 140 255 
4.9082 3.21954 -1.02657 65 68 135 255 
4.71494 3.09999 -1.03564 60 79 138 255 
4.53159 2.97706 -1.04608 60 79 138 255 
4.34162 2.85123 -1.05393 62 76 138 255 
4.14168 2.71778 -1.05567 64 70 136 255 
4.01236 2.63505 -1.06507 63 72 137 255 
3.83832 2.51969 -1.0634 63 72 137 255 
3.73576 2.45148 -1.08017 63 72 137 255 
3.59123 2.35836 -1.08396 63 72 137 255 
3.47853 2.28014 -1.08728 63 71 136 255 
3.33845 2.18822 -1.08302 67 61 132 255 
3.25703 2.13652 -1.09784 66 64 134 255 
3.14533 2.06711 -1.10275 67 62 133 255 
13.6228 8.8882 4.88621 71 44 122 255 
14.1551 9.25283 4.8907 72 31 112 255 
13.2093 8.64129 4.39826 72 41 121 255 
13.895 9.08948 4.45831 71 47 125 255 
13.5866 8.87473 4.21203 72 38 119 255 
13.4945 8.81765 4.01318 70 48 126 255 
12.2858 8.02492 3.50406 72 32 113 255 
12.2168 7.97651 3.34161 71 46 124 255 
12.4411 8.12955 3.27843 72 35 116 255 
12.4111 8.10665 3.11582 68 57 131 255 
0 0 0 69 4 87 255 
15.5794 10.1565 3.54769 70 7 90 255 
26.4452 17.2804 5.76375 70 8 92 255 
23.9114 15.6124 4.92752 71 19 101 255 
24.4807 15.9601 4.75417 70 10 93 255 
25.1316 16.3526 4.59881 71 14 97 255 
24.8162 16.2099 4.30306 72 24 106 255 
24.8373 16.2108 4.01538 72 20 103 255 
24.9878 16.272 3.75115 72 26 108 255 
24.9062 16.1936 3.46358 71 19 101 255 
24.8536 16.2343 3.21968 71 19 101 255 
24.7264 16.1199 2.92017 72 22 104 255 
25.1343 16.3612 2.68184 72 22 104 255 
24.1038 15.654 2.30234 72 20 103 255 
24.3151 15.8765 2.09685 72 22 104 255 
29.3758 19.1437 2.19984 70 7 90 255 
35.0283 22.7756 2.22625 70 7 90 255 
0 0 0 69 4 87 255 
0 0 0 68 2 86 255 
59.1462 38.5152 1.87289 69 4 87 255 
43.5801 28.3252 0.889103 70 7 90 255 
0 0 0 68 2 86 255 
33.4939 21.8448 -0.00697922 70 8 92 255 
23.654 15.3914 -0.270908 71 16 99 255 
19.2436 12.498 -0.432572 72 26 108 255 
15.9784 10.3532 -0.538469 72 38 119 255 
14.5629 9.4871 -0.63124 72 26 108 255 
13.0307 8.47244 -0.708515 72 40 120 255 
11.6518 7.56452 -0.764522 71 47 125 255 
10.701 6.93107 -0.82224 70 50 126 255 
9.84051 6.40822 -0.852059 68 57 131 255 
9.01706 5.85835 -0.880281 71 42 122 255 
8.35467 5.41774 -0.909711 71 44 122 255 
7.72119 5.00106 -0.927944 71 47 125 255 
7.23665 4.70718 -0.94088 68 57 131 255 
6.7742 4.39949 -0.957459 58 83 139 255 
6.43386 4.17056 -0.982209 60 79 138 255 
6.05785 3.92071 -0.99359 55 90 140 255 
5.74185 3.73059 -1.00014 57 85 140 255 
5.47393 3.55232 -1.01487 57 85 140 255 
5.19667 3.3673 -1.02179 53 94 141 255 
4.94853 3.20275 -1.03088 66 64 134 255 
4.73717 3.07314 -1.03636 64 69 136 255 
4.54153 2.94386 -1.04418 60 80 139 255 
4.34259 2.81388 -1.04995 62 73 137 255 
4.16649 2.69763 -1.05775 65 68 135 255 
4.01043 2.5987 -1.06031 63 72 137 255 
3.86188 2.50139 -1.06566 64 70 136 255 
3.76542 2.43802 -1.0844 62 74 137 255 
3.61133 2.33997 -1.08567 62 73 137 255 
3.49084 2.2577 -1.08677 63 71 136 255 
3.3737 2.18184 -1.09009 64 69 136 255 
3.26927 2.11597 -1.09757 67 62 133 255 
3.15715 2.04725 -1.10246 67 61 132 255 
7.23234 4.65572 2.58379 72 36 117 255 
13.2332 8.53475 4.55399 72 32 113 255 
13.4822 8.70217 4.47126 69 53 129 255 
13.7801 8.89406 4.40385 72 41 121 255 
13.4732 8.68318 4.16028 71 47 125 255 
13.5818 8.75624 4.02308 70 48 126 255 
0 0 0 69 4 87 255 
12.268 7.90298 3.34228 70 7 90 255 
12.517 8.06999 3.28533 62 74 137 255 
12.2846 7.91689 3.0718 62 74 137 255 
12.3908 7.97631 2.95259 72 29 111 255 
33.6431 21.6396 7.63073 69 5 89 255 
31.008 19.9916 6.73138 70 7 90 255 
32.2429 20.7712 6.61803 70 7 90 255 
25.0456 16.1102 4.84457 72 20 103 255 
25.214 16.1868 4.59563 72 20 103 255 
24.9078 16.0525 4.30177 71 19 101 255 
24.9463 16.0645 4.01699 72 23 105 255 
25.3401 16.2809 3.78897 71 16 99 255 
25.1681 16.145 3.48616 70 11 94 255 
24.9703 16.0928 3.22194 72 20 103 255 
24.9922 16.0756 2.93986 72 20 103 255 
25.2501 16.2169 2.68353 72 20 103 255 
25.0899 16.0764 2.38707 70 10 93 255 
25.0451 16.1348 2.15123 71 17 100 255 
29.8453 19.1898 2.22614 70 7 90 255 
0 0 0 68 2 86 255 
59.6107 38.1662 3.10279 69 4 87 255 
59.3772 38.2233 2.54002 69 4 87 255 
59.6464 38.3218 1.88124 69 4 87 255 
45.5846 29.2317 0.92632 69 5 89 255 
0 0 0 69 4 87 255 
33.6223 21.6356 -0.00697818 70 7 90 255 
23.8717 15.3254 -0.272319 71 14 97 255 
19.4277 12.4487 -0.434984 72 24 106 255 
16.8602 10.7783 -0.565948 72 32 113 255 
14.6419 9.41107 -0.632148 72 33 115 255 
13.1219 8.41768 -0.710656 72 37 118 255 
11.6963 7.4918 -0.764412 71 45 123 255 
10.7239 6.85292 -0.820759 71 45 123 255 
9.85196 6.32993 -0.849671 66 65 134 255 
9.04696 5.79915 -0.87971 71 47 125 255 
8.3953 5.37121 -0.91053 70 48 126 255 
7.75089 4.95306 -0.927844 71 44 122 255 
7.27041 4.66591 -0.94153 70 50 126 255 
6.8111 4.36427 -0.958872 57 85 140 255 
6.48189 4.14544 -0.98564 59 82 139 255 
6.07678 3.88026 -0.992772 57 86 140 255 
5.77629 3.70277 -1.00216 54 92 141 255 
5.49562 3.51866 -1.01487 55 90 140 255 
5.21308 3.3327 -1.02098 52 96 141 255 
4.95896 3.16649 -1.02899 64 69 136 255 
4.78328 3.06152 -1.04232 64 69 136 255 
4.54462 2.90641 -1.04077 66 64 134 255 
4.34739 2.77926 -1.04697 62 73 137 255 
4.1912 2.67728 -1.05984 62 74 137 255 
4.03617 2.58036 -1.06291 62 73 137 255 
3.88208 2.4808 -1.06701 63 72 137 255 
3.78112 2.4154 -1.08463 65 68 135 255 
3.62317 2.3162 -1.08494 64 70 136 255 
3.48831 2.22583 -1.08171 63 71 136 255 
3.37807 2.15539 -1.08721 68 59 132 255 
3.2684 2.08706 -1.09296 67 61 132 255 
3.16723 2.02629 -1.10162 66 64 134 255 
7.33757 4.66003 2.61112 62 74 137 255 
13.3761 8.51115 4.5851 68 57 131 255 
14.2503 9.07462 4.70747 70 50 126 255 
14.2898 9.09932 4.54882 72 38 119 255 
13.496 8.58113 4.15099 72 38 119 255 
13.6754 8.69826 4.03492 71 46 124 255 
14.8276 9.42769 4.19573 70 7 90 255 
0 0 0 68 1 84 255 
12.572 7.9967 3.28683 72 40 120 255 
12.38 7.8713 3.08353 68 57 131 255 
12.4776 7.92431 2.96163 71 42 122 255 
33.6144 21.3307 7.59438 70 10 93 255 
30.8595 19.6288 6.67286 71 13 96 255 
31.0939 19.7621 6.35719 71 13 96 255 
26.424 16.7685 5.0912 69 5 89 255 
25.5658 16.1921 4.64156 71 14 97 255 
25.3014 16.0873 4.35263 71 16 99 255 
25.5295 16.2194 4.09481 72 20 103 255 
25.9683 16.4603 3.86773 72 20 103 255 
26.0355 16.4769 3.59224 70 8 92 255 
25.2523 16.0561 3.24556 71 16 99 255 
25.2181 16.003 2.95482 72 24 106 255 
25.1523 15.9369 2.66269 72 22 104 255 
25.1561 15.9019 2.38403 72 23 105 255 
25.3204 16.0932 2.16635 72 22 104 255 
25.5581 16.2125 1.8989 71 14 97 255 
0 0 0 68 1 84 255 
53.6828 33.9083 2.78336 72 27 109 255 
59.6342 37.8732 2.54103 69 5 89 255 
59.877 37.9529 1.88114 69 4 87 255 
46.0056 29.1049 0.931228 69 5 89 255 
41.4644 26.1704 0.385108 69 4 87 255 
32.4475 20.5992 -0.006708 70 7 90 255 
23.9644 15.1781 -0.272309 70 11 94 255 
19.7581 12.4901 -0.440658 72 26 108 255 
16.2962 10.2774 -0.544887 71 19 101 255 
14.7137 9.33015 -0.632765 72 32 113 255 
13.1168 8.30121 -0.707605 72 33 115 255 
11.7472 7.42309 -0.764742 71 44 122 255 
10.7599 6.78327 -0.820309 71 47 125 255 
9.92431 6.29072 -0.852566 66 64 134 255 
9.06974 5.73554 -0.878486 71 42 122 255 
8.42979 5.32066 -0.910712 71 42 122 255 
7.81312 4.92557 -0.931658 71 46 124 255 
7.28379 4.61164 -0.93958 69 53 129 255 
6.84614 4.3277 -0.960049 56 88 140 255 
6.49714 4.09923 -0.984115 58 83 139 255 
6.11221 3.8503 -0.994681 54 93 141 255 
5.7897 3.66144 -1.00057 54 93 141 255 
5.51043 3.48065 -1.01365 55 90 140 255 
5.23593 3.30222 -1.02147 55 91 141 255 
4.98079 3.13758 -1.0295 63 72 137 255 
4.77037 3.01216 -1.03546 62 74 137 255 
4.57316 2.88529 -1.04324 64 69 136 255 
4.31877 2.72378 -1.03603 66 65 134 255 
4.20341 2.6489 -1.05879 65 68 135 255 
4.04532 2.55138 -1.06117 63 71 136 255 
3.90547 2.46212 -1.06927 60 79 138 255 
3.79423 2.39111 -1.08416 62 76 138 255 
3.61599 2.28048 -1.07858 66 65 134 255 
3.50845 2.20851 -1.08374 62 73 137 255 
3.40757 2.14491 -1.09245 66 65 134 255 
3.2787 2.06543 -1.09214 67 61 132 255 
3.18366 2.00938 -1.10303 69 56 130 255 
7.44394 4.66374 2.63874 53 95 141 255 
13.3564 8.38397 4.56066 71 46 124 255 
14.3939 9.04235 4.73646 71 45 123 255 
14.1441 8.88509 4.48502 71 44 122 255 
13.5017 8.46884 4.13667 72 33 115 255 
13.7622 8.63533 4.04483 72 26 108 255 
14.1527 8.87707 3.98925 70 8 92 255 
0 0 0 68 2 86 255 
0 0 0 68 2 86 255 
34.0352 21.3477 8.44447 70 8 92 255 
0 0 0 69 4 87 255 
33.8271 21.1756 7.61293 70 8 92 255 
31.236 19.6002 6.72815 70 8 92 255 
31.2889 19.6175 6.37233 70 8 92 255 
26.5641 16.6297 5.09843 70 11 94 255 
26.4938 16.5529 4.7915 72 20 103 255 
26.7628 16.7868 4.58623 71 16 99 255 
26.0316 16.315 4.1592 71 17 100 255 
26.5257 16.5863 3.9355 71 14 97 255 
25.548 15.9496 3.51141 71 16 99 255 
25.7117 16.1275 3.29182 71 19 101 255 
25.7477 16.1183 3.00523 71 14 97 255 
25.8391 16.1507 2.72486 71 16 99 255 
25.2819 15.7651 2.38675 71 19 101 255 
25.5894 16.0445 2.1809 72 23 105 255 
26.1123 16.3402 1.93259 71 16 99 255 
29.4724 18.4003 1.8513 70 11 94 255 
53.6364 33.4203 2.77026 72 37 118 255 
0 0 0 68 2 86 255 
60.4486 37.7973 1.89177 69 4 87 255 
46.4327 28.9777 0.936257 70 8 92 255 
42.0325 26.1697 0.388886 69 5 89 255 
34.0565 21.3286 -0.00701343 70 8 92 255 
23.2922 14.5528 -0.263651 71 13 96 255 
20.0422 12.4982 -0.445276 72 26 108 255 
15.9608 9.9296 -0.531628 72 24 106 255 
14.6249 9.14854 -0.626522 72 33 115 255 
13.1488 8.20893 -0.706603 72 32 113 255 
11.7984 7.35457 -0.765126 72 40 120 255 
10.7937 6.71237 -0.81973 71 47 125 255 
10.0084 6.25826 -0.856474 66 65 134 255 
9.1369 5.69982 -0.881587 72 41 121 255 
8.45974 5.26725 -0.910439 72 37 118 255 
7.85503 4.88489 -0.933063 71 45 123 255 
7.32965 4.57792 -0.941855 67 62 133 255 
6.86835 4.28298 -0.95946 59 82 139 255 
6.50785 4.05038 -0.981955 58 84 140 255 
6.1475 3.82004 -0.996591 55 90 140 255 
5.80366 3.62061 -0.999128 57 86 140 255 
5.52832 3.44469 -1.01303 55 90 140 255 
5.2561 3.27004 -1.02147 54 93 141 255 
4.99075 3.10124 -1.02761 65 68 135 255 
4.77708 2.97555 -1.03293 62 73 137 255 
4.58245 2.85198 -1.04134 63 72 137 255 
4.38616 2.72881 -1.04816 66 65 134 255 
4.21543 2.62048 -1.05775 66 63 133 255 
4.06172 2.52702 -1.06139 65 66 135 255 
3.92795 2.44274 -1.0713 62 73 137 255 
3.78159 2.35085 -1.07641 61 78 138 255 
3.62662 2.2562 -1.0776 65 68 135 255 
3.52358 2.18796 -1.08424 62 74 137 255 
3.42558 2.12701 -1.09402 65 66 135 255 
3.32974 2.06915 -1.10489 66 65 134 255 
3.17556 1.97712 -1.096 67 61 132 255 
7.6932 4.75442 2.7167 50 100 142 255 
7.69289 4.76336 2.61676 63 71 136 255 
14.4564 8.95843 4.73888 71 45 123 255 
14.4135 8.93142 4.55297 72 28 110 255 
13.9501 8.63131 4.25776 71 45 123 255 
14.0625 8.70394 4.1173 71 14 97 255 
14.9058 9.22251 4.18551 69 5 89 255 
0 0 0 68 2 86 255 
45.3528 28.0719 11.7661 69 5 89 255 
0 0 0 69 4 87 255 
34.281 21.1855 8.07449 70 7 90 255 
34.1277 21.0735 7.65134 70 7 90 255 
30.9952 19.185 6.65079 70 8 92 255 
31.3877 19.4122 6.36807 70 7 90 255 
32.8071 20.2588 6.27268 70 8 92 255 
26.5847 16.3838 4.78968 71 14 97 255 
26.6684 16.5004 4.55261 70 10 93 255 
27.1663 16.7949 4.32395 71 16 99 255 
26.822 16.5435 3.96433 71 14 97 255 
26.5098 16.3249 3.62976 71 14 97 255 
26.292 16.2675 3.35328 72 20 103 255 
25.6726 15.8528 2.98505 71 14 97 255 
26.2523 16.1858 2.75791 71 13 96 255 
28.7769 17.7002 2.70639 71 13 96 255 
25.611 15.84 2.17442 71 13 96 255 
26.2358 16.1943 1.93434 71 16 99 255 
29.8475 18.3809 1.86774 70 8 92 255 
0 0 0 68 2 86 255 
60.3725 37.3104 2.55278 69 4 87 255 
60.8709 37.5438 1.89774 69 4 87 255 
46.6709 28.73 0.937488 70 8 92 255 
42.1744 25.9003 0.388721 69 5 89 255 
34.7627 21.4751 -0.00713159 70 7 90 255 
24.6273 15.1777 -0.277704 70 10 93 255 
20.1398 12.3881 -0.445747 72 24 106 255 
15.9627 9.7954 -0.529677 72 26 108 255 
14.873 9.17723 -0.634725 72 35 116 255 
13.2355 8.15063 -0.708561 72 35 116 255 
11.8501 7.28622 -0.765566 72 35 116 255 
10.8619 6.66272 -0.821789 71 46 124 255 
10.0441 6.19516 -0.856256 66 65 134 255 
9.18528 5.65201 -0.882892 71 47 125 255 
8.50802 5.22515 -0.912168 72 40 120 255 
7.88316 4.83556 -0.932862 71 46 124 255 
7.35676 4.53234 -0.941747 68 59 132 255 
6.90296 4.24596 -0.960637 55 90 140 255 
6.5478 4.01971 -0.984242 57 86 140 255 
6.1666 3.77966 -0.995909 53 94 141 255 
5.82661 3.58545 -0.999273 57 86 140 255 
5.55946 3.41691 -1.01487 56 89 140 255 
5.28531 3.2434 -1.02326 54 93 141 255 
5.02312 3.07879 -1.03036 63 71 136 255 
4.8229 2.96317 -1.03889 62 76 138 255 
4.59484 2.82073 -1.04021 62 74 137 255 
4.40115 2.70082 -1.04777 63 71 136 255 
4.2256 2.59098 -1.05629 68 59 132 255 
4.07133 2.49848 -1.05987 64 70 136 255 
3.93955 2.41656 -1.07039 64 69 136 255 
3.79014 2.32405 -1.07476 64 70 136 255 
3.64618 2.23746 -1.07931 63 72 137 255 
3.55097 2.17489 -1.08854 64 69 136 255 
3.44351 2.10898 -1.09559 63 71 136 255 
3.3276 2.03963 -1.10001 65 66 135 255 
3.19008 1.95911 -1.09684 67 62 133 255 
7.7255 4.70912 2.71785 59 81 139 255 
7.72525 4.71807 2.61788 52 97 141 255 
14.687 8.97707 4.79632 71 47 125 255 
14.5067 8.86648 4.56515 71 44 122 255 
14.3325 8.74674 4.358 72 23 105 255 
14.1777 8.65541 4.13542 65 66 135 255 
0 0 0 68 1 84 255 
14.9389 9.11273 4.00779 70 8 92 255 
0 0 0 68 2 86 255 
46.6328 28.4579 11.4825 69 4 87 255 
34.4304 20.987 8.0792 69 5 89 255 
45.5837 27.7625 10.1814 69 5 89 255 
31.1064 18.9909 6.64953 69 5 89 255 
32.8001 20.0086 6.62959 69 5 89 255 
31.4101 19.1309 5.98301 69 4 87 255 
33.0246 20.0741 5.92764 70 10 93 255 
31.8055 19.41 5.40914 71 16 99 255 
26.8484 16.3715 4.25727 70 11 94 255 
26.6492 16.2121 3.92402 71 17 100 255 
26.3735 16.0186 3.59757 70 8 92 255 
26.3947 16.108 3.35371 71 17 100 255 
26.5453 16.1676 3.07493 70 7 90 255 
25.8898 15.7439 2.70963 71 16 99 255 
28.8859 17.5239 2.70647 70 11 94 255 
28.7934 17.565 2.43542 71 14 97 255 
28.8103 17.5402 2.11618 72 20 103 255 
28.968 17.595 1.80591 71 13 96 255 
47.7597 28.9511 2.4482 69 4 87 255 
0 0 0 68 2 86 255 
0 0 0 68 2 86 255 
46.8361 28.4368 0.937283 69 5 89 255 
42.324 25.6359 0.388642 69 5 89 255 
35.0629 21.3644 -0.00716615 70 8 92 255 
25.0891 15.2507 -0.281851 70 7 90 255 
20.3864 12.368 -0.449516 72 24 106 255 
16.2662 9.84478 -0.537734 71 16 99 255 
14.8778 9.05462 -0.632547 69 55 129 255 
13.3459 8.10608 -0.711794 72 33 115 255 
11.8818 7.20561 -0.764742 72 41 121 255 
10.8795 6.582 -0.820051 71 46 124 255 
10.0742 6.12875 -0.855605 63 71 136 255 
9.20956 5.58934 -0.881913 72 41 121 255 
8.5297 5.16665 -0.911076 71 46 124 255 
7.91864 4.7907 -0.933565 72 40 120 255 
7.35809 4.47111 -0.938388 60 79 138 255 
6.93228 4.20559 -0.961108 52 96 141 255 
6.56555 3.97535 -0.983226 61 78 138 255 
6.19052 3.74226 -0.996045 55 90 140 255 
5.85696 3.55476 -1.00072 53 95 141 255 
5.56257 3.37198 -1.01165 55 90 140 255 
5.30511 3.21091 -1.02326 53 95 141 255 
5.04698 3.05097 -1.0314 63 72 137 255 
4.83847 2.93199 -1.03835 60 79 138 255 
4.62718 2.80164 -1.04361 61 77 138 255 
4.4168 2.67326 -1.04757 62 74 137 255 
4.24644 2.56804 -1.05754 63 71 136 255 
4.0774 2.46789 -1.05749 68 59 132 255 
3.95597 2.39335 -1.07085 64 70 136 255 
3.80267 2.29974 -1.07429 64 70 136 255 
3.69219 2.23462 -1.08885 64 70 136 255 
3.55596 2.14806 -1.08601 62 73 137 255 
3.44647 2.08182 -1.09245 66 64 134 255 
3.33099 2.01369 -1.09703 64 70 136 255 
3.21928 1.94994 -1.10275 68 57 131 255 
7.78626 4.68087 2.72907 45 112 142 255 
7.79849 4.69734 2.63288 66 64 134 255 
14.3896 8.67442 4.6817 69 55 129 255 
14.8148 8.93037 4.64477 72 32 113 255 
14.4025 8.66862 4.36302 72 31 112 255 
14.2131 8.55774 4.13035 71 45 123 255 
0 0 0 68 1 84 255 
0 0 0 68 2 86 255 
46.4083 27.9434 11.95 69 5 89 255 
45.9203 27.6378 11.2651 69 4 87 255 
46.0294 27.6712 10.7609 69 4 87 255 
0 0 0 68 2 86 255 
32.6694 19.6709 6.95771 70 8 92 255 
32.6825 19.6626 6.5813 70 8 92 255 
33.1421 19.9081 6.28954 70 8 92 255 
33.1845 19.8934 5.93431 69 4 87 255 
32.3115 19.4477 5.4748 70 11 94 255 
26.6927 16.0527 4.21689 70 10 93 255 
26.7371 16.0416 3.9224 71 17 100 255 
33.2011 19.8877 4.51219 70 10 93 255 
32.7137 19.6898 4.14116 70 10 93 255 
32.4526 19.4935 3.74529 70 7 90 255 
26.0039 15.5955 2.7115 70 11 94 255 
29.1716 17.4532 2.72316 70 7 90 255 
32.6945 19.6705 2.75511 70 7 90 255 
28.9071 17.3569 2.11543 71 16 99 255 
29.1414 17.4565 1.81001 71 14 97 255 
47.951 28.6662 2.44895 69 5 89 255 
47.7865 28.7278 2.00554 70 8 92 255 
47.8115 28.6852 1.47951 70 10 93 255 
47.0997 28.2029 0.939079 69 5 89 255 
41.8667 25.009 0.383027 69 5 89 255 
34.4819 20.7213 -0.00702129 70 7 90 255 
25.5527 15.3186 -0.285997 70 10 93 255 
20.4791 12.253 -0.449893 72 29 111 255 
16.0276 9.5665 -0.527896 72 20 103 255 
14.9554 8.97654 -0.633491 72 35 116 255 
13.368 8.00761 -0.710337 72 40 120 255 
11.9181 7.12795 -0.764247 72 36 117 255 
10.9582 6.53813 -0.822948 70 48 126 255 
10.1056 6.06323 -0.855098 62 76 138 255 
9.25138 5.53733 -0.882647 72 35 116 255 
8.55612 5.11115 -0.91053 71 47 125 255 
7.95814 4.74814 -0.934769 71 46 124 255 
7.405 4.43763 -0.94088 61 78 138 255 
6.95199 4.1594 -0.960284 56 89 140 255 
6.58471 3.93194 -0.982464 59 82 139 255 
6.19209 3.69153 -0.992635 56 88 140 255 
5.87272 3.5152 -0.999706 56 89 140 255 
5.58231 3.33727 -1.01149 51 99 141 255 
5.31116 3.17021 -1.02065 54 92 141 255 
5.06391 3.01894 -1.03105 60 80 139 255 
4.86396 2.90679 -1.03997 60 79 138 255 
4.64344 2.77269 -1.04343 64 69 136 255 
4.42807 2.64309 -1.04637 63 72 137 255 
4.29655 2.56248 -1.06609 67 62 133 255 
4.09246 2.44283 -1.05749 64 69 136 255 
3.98145 2.37552 -1.07378 63 72 137 255 
3.82171 2.27935 -1.0757 66 64 134 255 
3.68918 2.20199 -1.08396 64 69 136 255 
3.56741 2.12521 -1.08551 63 71 136 255 
3.43016 2.04335 -1.08328 66 64 134 255 
3.34494 1.9942 -1.09757 66 64 134 255 
3.24025 1.93556 -1.10584 67 62 133 255 
7.7481 4.59345 2.70577 71 42 122 255 
7.86681 4.67295 2.64621 68 57 131 255 
14.055 8.35559 4.55608 70 52 128 255 
14.6535 8.71099 4.57734 72 35 116 255 
14.1183 8.37999 4.26127 72 41 121 255 
14.8745 8.83204 4.3067 72 28 110 255 
0 0 0 69 4 87 255 
0 0 0 68 2 86 255 
46.379 27.5394 11.8988 69 5 89 255 
0 0 0 69 4 87 255 
44.9964 26.6757 10.4809 69 5 89 255 
0 0 0 68 2 86 255 
32.5687 19.339 6.91087 70 8 92 255 
32.8449 19.4869 6.5898 70 7 90 255 
33.0267 19.564 6.24474 69 4 87 255 
33.0115 19.5154 5.88185 71 13 96 255 
33.2293 19.7234 5.6097 69 5 89 255 
32.4084 19.2203 5.10113 70 8 92 255 
36.1179 21.3696 5.27925 70 8 92 255 
33.408 19.7341 4.52377 69 5 89 255 
32.9031 19.5298 4.14989 70 8 92 255 
32.2368 19.0957 3.70679 71 14 97 255 
32.5941 19.277 3.38628 69 5 89 255 
32.6273 19.2499 3.03466 70 10 93 255 
33.0153 19.5886 2.77197 70 11 94 255 
29.1659 17.2698 2.12658 71 13 96 255 
29.1568 17.2235 1.80437 71 13 96 255 
0 0 0 68 2 86 255 
61.686 36.5704 2.57942 69 4 87 255 
61.5791 36.4333 1.89859 69 5 89 255 
47.649 28.136 0.94657 69 5 89 255 
42.2175 24.8684 0.384833 69 5 89 255 
35.8463 21.243 -0.00727244 70 7 90 255 
26.0594 15.4058 -0.290605 70 7 90 255 
20.5444 12.1215 -0.449686 72 24 106 255 
16.0093 9.42285 -0.52538 71 19 101 255 
15.0351 8.89936 -0.634543 72 29 111 255 
13.4246 7.93001 -0.710747 72 36 117 255 
11.9375 7.04049 -0.762708 72 33 115 255 
10.9982 6.47076 -0.822948 71 44 122 255 
10.1512 6.00619 -0.855822 62 76 138 255 
9.29548 5.48654 -0.883626 71 45 123 255 
8.56844 5.04744 -0.908528 71 45 123 255 
7.99312 4.70276 -0.935472 71 45 123 255 
7.44065 4.39717 -0.941963 60 79 138 255 
6.95771 4.10506 -0.957577 58 83 139 255 
6.61812 3.897 -0.983861 56 88 140 255 
6.21378 3.65296 -0.992499 57 86 140 255 
5.90014 3.48262 -1.00072 51 99 141 255 
5.60779 3.30597 -1.01242 55 91 141 255 
5.32456 3.13405 -1.01951 54 92 141 255 
5.07469 2.98332 -1.0295 64 70 136 255 
4.87662 2.8739 -1.03889 60 80 139 255 
4.65613 2.74165 -1.04248 63 72 137 255 
4.4611 2.62582 -1.05035 62 76 138 255 
4.30798 2.53359 -1.06505 64 70 136 255 
4.11579 2.42262 -1.05966 64 69 136 255 
3.9884 2.3466 -1.07175 62 76 138 255 
3.85825 2.26917 -1.08205 62 73 137 255 
3.68675 2.16996 -1.07931 67 62 133 255 
3.57955 2.10279 -1.08525 65 68 135 255 
3.44929 2.02617 -1.08538 68 59 132 255 
3.3513 1.97023 -1.09567 68 58 131 255 
3.22809 1.90152 -1.09768 68 59 132 255 
15.1538 8.85867 5.27287 72 31 112 255 
13.6098 7.97178 4.56149 70 50 126 255 
13.6016 7.97348 4.39316 71 42 122 255 
14.3151 8.39136 4.45546 72 37 118 255 
14.1578 8.28636 4.25776 72 41 121 255 
14.7743 8.65039 4.26225 69 55 129 255 
15.1696 8.87849 4.19712 72 33 115 255 
15.221 8.90463 4.03882 69 4 87 255 
47.2263 27.652 12.0724 69 4 87 255 
0 0 0 68 2 86 255 
44.7292 26.1477 10.3811 69 4 87 255 
34.7915 20.3212 7.68601 70 7 90 255 
33.0298 19.3396 6.98338 70 10 93 255 
32.7325 19.1496 6.54355 71 13 96 255 
33.4095 19.5148 6.29436 70 7 90 255 
33.1751 19.3383 5.88974 70 7 90 255 
32.8355 19.2182 5.52321 70 7 90 255 
33.8645 19.804 5.31109 70 8 92 255 
36.4335 21.2556 5.30621 70 7 90 255 
35.1061 20.4476 4.73661 70 8 92 255 
33.5011 19.6078 4.21006 70 7 90 255 
33.2402 19.4155 3.80839 70 8 92 255 
32.7797 19.1163 3.39332 70 8 92 255 
32.8249 19.0959 3.04208 70 7 90 255 
32.9334 19.2678 2.75511 70 8 92 255 
36.2371 21.1575 2.63264 70 7 90 255 
0 0 0 68 2 86 255 
0 0 0 69 4 87 255 
62.049 36.2729 2.58524 69 4 87 255 
61.9829 36.1606 1.90416 69 5 89 255 
48.4714 28.2219 0.959449 69 5 89 255 
42.716 24.8103 0.387983 69 4 87 255 
36.0597 21.0716 -0.00728937 70 7 90 255 
26.4895 15.4415 -0.294339 71 14 97 255 
20.4628 11.9047 -0.446293 72 23 105 255 
17.1916 9.97721 -0.56216 72 28 110 255 
15.1213 8.82558 -0.635886 72 29 111 255 
13.4946 7.86006 -0.711885 72 35 116 255 
12.0003 6.97866 -0.763972 72 40 120 255 
11.0376 6.40316 -0.822948 69 55 129 255 
10.1707 5.93374 -0.854375 62 76 138 255 
9.3574 5.44594 -0.886319 72 40 120 255 
8.59753 4.99377 -0.908346 72 41 121 255 
8.02011 4.65262 -0.935271 71 47 125 255 
7.46405 4.34943 -0.94153 61 78 138 255 
6.99993 4.07228 -0.959931 54 93 141 255 
6.64791 3.8598 -0.984751 56 88 140 255 
6.25578 3.62619 -0.995636 56 88 140 255 
5.93081 3.45183 -1.00231 52 97 141 255 
5.64078 3.27895 -1.01472 50 102 142 255 
5.35564 3.10826 -1.02179 54 92 141 255 
5.08523 2.94768 -1.02795 54 92 141 255 
4.87376 2.83206 -1.03456 62 74 137 255 
4.66523 2.7086 -1.04077 65 66 135 255 
4.46102 2.58905 -1.04657 60 80 139 255 
4.32091 2.50564 -1.06442 64 69 136 255 
4.11622 2.38899 -1.05597 65 66 135 255 
3.99008 2.31475 -1.06836 60 80 139 255 
3.87462 2.24691 -1.08275 62 76 138 255 
3.70418 2.14973 -1.08053 66 64 134 255 
3.58904 2.07884 -1.08424 64 69 136 255 
3.49005 2.02142 -1.09428 66 65 134 255 
3.3575 1.94625 -1.09377 68 59 132 255 
3.22641 1.87396 -1.09319 68 57 131 255 
15.285 8.81 5.29963 72 24 106 255 
13.671 7.89533 4.56566 67 61 132 255 
13.9555 8.06631 4.4914 71 46 124 255 
14.3437 8.29032 4.44846 70 48 126 255 
14.3249 8.26658 4.29268 72 37 118 255 
14.9506 8.63089 4.29776 69 55 129 255 
15.1842 8.76239 4.1862 72 29 111 255 
15.245 8.79354 4.03078 72 33 115 255 
0 0 0 68 2 86 255 
45.5948 26.311 11.0646 69 5 89 255 
0 0 0 69 4 87 255 
34.9053 20.1015 7.68376 70 7 90 255 
34.5084 19.9221 7.27002 70 10 93 255 
32.9663 19.0159 6.56685 70 8 92 255 
34.697 19.9823 6.51369 70 10 93 255 
33.6256 19.3255 5.94856 70 8 92 255 
33.3617 19.2523 5.59174 70 8 92 255 
33.8412 19.5127 5.28855 70 10 93 255 
35.1416 20.2139 5.09989 70 7 90 255 
33.8794 19.4557 4.55492 70 7 90 255 
33.2806 19.2056 4.16747 69 5 89 255 
33.7536 19.4386 3.85348 69 5 89 255 
33.0035 18.9764 3.40436 71 13 96 255 
32.8031 18.8148 3.02931 70 11 94 255 
33.2333 19.1705 2.77031 69 5 89 255 
0 0 0 68 2 86 255 
0 0 0 68 2 86 255 
0 0 0 68 2 86 255 
0 0 0 69 4 87 255 
0 0 0 69 4 87 255 
48.7156 27.9653 0.960869 69 5 89 255 
0 0 0 69 4 87 255 
36.5263 21.0446 -0.00735744 69 5 89 255 
26.7927 15.3987 -0.296653 70 11 94 255 
20.6855 11.865 -0.449554 72 22 104 255 
17.1927 9.83729 -0.56021 72 28 110 255 
15.1813 8.73612 -0.63614 72 27 109 255 
13.5633 7.78905 -0.712978 72 35 116 255 
12.0369 6.90141 -0.763588 72 36 117 255 
11.036 6.31203 -0.819923 71 45 123 255 
10.1982 5.86625 -0.853651 62 76 138 255 
9.39669 5.3919 -0.88689 71 46 124 255 
8.68072 4.97111 -0.913896 71 44 122 255 
8.05282 4.6058 -0.935773 72 36 117 255 
7.50095 4.30949 -0.94283 63 71 136 255 
7.03082 4.03271 -0.960755 56 89 140 255 
6.68007 3.82387 -0.986021 58 83 139 255 
6.26932 3.58282 -0.994272 55 90 140 255 
5.94673 3.41242 -1.00144 51 99 141 255 
5.6668 3.24771 -1.0158 51 99 141 255 
5.38403 3.08073 -1.02358 53 94 141 255 
5.10494 2.9174 -1.0283 54 92 141 255 
4.87483 2.79281 -1.03113 64 69 136 255 
4.67579 2.67651 -1.03945 59 81 139 255 
4.48873 2.56844 -1.04936 59 82 139 255 
4.31922 2.46937 -1.06025 64 69 136 255 
4.13673 2.36708 -1.05749 64 70 136 255 
4.01097 2.29409 -1.07017 60 80 139 255 
3.87568 2.21586 -1.07923 60 79 138 255 
3.70468 2.11974 -1.07686 66 63 133 255 
3.59585 2.05342 -1.08247 65 68 135 255 
3.50071 1.99901 -1.09376 66 63 133 255 
3.37356 1.928 -1.09513 66 63 133 255 
3.23619 1.85318 -1.09262 69 55 129 255 
13.7508 7.81373 4.75099 70 48 126 255 
15.2811 8.70061 5.08545 72 20 103 255 
14.6307 8.33727 4.69217 72 26 108 255 
14.4002 8.2055 4.45027 69 53 129 255 
14.6319 8.32452 4.3693 70 50 126 255 
14.5791 8.29756 4.17625 72 28 110 255 
15.2225 8.6604 4.18202 71 13 96 255 
15.2656 8.68104 4.02207 72 28 110 255 
0 0 0 68 1 84 255 
45.7418 26.023 11.0613 69 5 89 255 
0 0 0 69 4 87 255 
34.8461 19.7836 7.64385 70 10 93 255 
34.6574 19.7255 7.27577 70 11 94 255 
34.7476 19.7602 6.8974 70 7 90 255 
34.2404 19.4406 6.40547 70 10 93 255 
33.698 19.093 5.94052 70 7 90 255 
33.9015 19.2875 5.66228 70 7 90 255 
33.9921 19.3228 5.29352 70 8 92 255 
33.7106 19.1164 4.8751 70 10 93 255 
25.1911 14.2615 3.37499 71 14 97 255 
36.1094 20.5437 4.50583 69 5 89 255 
33.1332 18.8116 3.76941 71 14 97 255 
32.9746 18.6915 3.38949 70 7 90 255 
33.1817 18.7623 3.05358 70 11 94 255 
34.3621 19.5416 2.85436 70 7 90 255 
39.2959 22.3014 2.83477 70 10 93 255 
33.826 19.1507 2.07115 70 11 94 255 
33.8741 19.1383 1.7055 70 7 90 255 
33.8218 19.2188 1.39924 71 13 96 255 
33.8227 19.1796 1.03175 70 11 94 255 
33.794 19.1248 0.664227 70 11 94 255 
33.7912 19.0759 0.304771 70 8 92 255 
33.6914 19.1369 -0.00676263 69 5 89 255 
12.4402 7.04866 -0.137258 72 35 116 255 
12.4194 7.02271 -0.268967 68 58 131 255 
12.4267 7.00945 -0.403506 68 57 131 255 
12.4114 7.04117 -0.518255 72 40 120 255 
12.4477 7.04717 -0.652049 70 48 126 255 
12.0946 6.83627 -0.764577 72 38 119 255 
11.0928 6.25448 -0.821274 71 47 125 255 
10.2783 5.82865 -0.857342 63 71 136 255 
9.41051 5.32334 -0.885095 71 44 122 255 
8.718 4.92167 -0.914624 71 44 122 255 
8.08267 4.55727 -0.935973 72 40 120 255 
7.5186 4.25848 -0.941747 57 85 140 255 
7.07099 3.99829 -0.962874 57 85 140 255 
6.70687 3.78476 -0.98653 59 82 139 255 
6.29205 3.54477 -0.994409 56 89 140 255 
5.97014 3.37733 -1.00187 53 94 141 255 
5.68748 3.21337 -1.01595 53 95 141 255 
5.40283 3.04763 -1.02358 52 97 141 255 
5.13647 2.89375 -1.03105 50 102 142 255 
4.91928 2.77833 -1.0369 63 71 136 255 
4.69811 2.65114 -1.04077 66 65 134 255 
4.49331 2.53459 -1.04677 62 73 137 255 
4.33514 2.4433 -1.06046 63 72 137 255 
4.16819 2.35125 -1.06182 64 69 136 255 
4.03601 2.27566 -1.0731 62 76 138 255 
3.86041 2.17581 -1.07124 63 71 136 255 
3.72522 2.10126 -1.07907 65 66 135 255 
3.64632 2.05268 -1.09385 65 68 135 255 
3.51039 1.97607 -1.09297 65 68 135 255 
3.38616 1.90773 -1.0954 68 59 132 255 
3.27173 1.84697 -1.10078 67 61 132 255 
15.041 8.42519 5.17879 72 38 119 255 
14.8307 8.3241 4.91848 70 48 126 255 
14.5481 8.17233 4.64949 71 47 125 255 
14.4738 8.13023 4.45753 71 46 124 255 
14.5063 8.13562 4.3168 70 51 127 255 
14.8007 8.30386 4.22505 71 14 97 255 
15.2609 8.55875 4.17807 72 32 113 255 
15.3747 8.61866 4.03681 72 20 103 255 
0 0 0 68 1 84 255 
45.7495 25.6571 11.0249 69 4 87 255 
45.8685 25.6928 10.534 70 7 90 255 
