ply
format ascii 1.0
comment VTK generated PLY File
obj_info vtkPolyData points and polygons: vtk4.0
element vertex 1167
property float x
property float y
property float z
property uchar red
property uchar green
property uchar blue
property uchar alpha
element face 0
property list uchar int vertex_indices
end_header
-18.2017 0.301559 2.64272 58 83 139 255 
-18.1785 0.307772 2.46142 57 86 140 255 
-18.1629 0.32637 2.28521 61 78 138 255 
-18.1687 0.339448 2.11863 62 76 138 255 
-18.1948 0.301445 1.97364 60 80 139 255 
-18.1884 0.317464 1.79969 58 84 140 255 
-18.1506 0.329317 1.62336 60 80 139 255 
-18.1515 0.348619 1.45433 62 74 137 255 
-18.1721 0.304238 1.31234 58 83 139 255 
-18.1694 0.320304 1.14012 55 90 140 255 
-0 0 0 68 2 86 255 
-18.251 0.356893 0.800199 46 109 142 255 
-33.3306 0.569642 1.19905 70 11 94 255 
-18.2116 0.327406 0.483328 70 51 127 255 
-18.1821 0.342585 0.311076 72 23 105 255 
-33.4273 0.66532 0.262595 69 5 89 255 
-33.42 0.576996 -0.00583376 71 14 97 255 
-33.3779 0.611715 -0.320468 71 14 97 255 
-18.2014 0.349303 -0.343192 53 94 141 255 
-18.166 0.367901 -0.513874 72 24 106 255 
-18.2051 0.323832 -0.661293 72 27 109 255 
-18.169 0.339325 -0.82837 72 29 111 255 
-18.1851 0.352164 -1.00097 72 27 109 255 
-18.1525 0.370792 -1.17093 72 27 109 255 
-18.1224 0.325521 -1.31514 71 44 122 255 
-17.6388 0.335582 -1.44424 72 38 119 255 
-17.3184 0.344451 -1.58251 72 20 103 255 
-15.3758 0.314073 -1.55129 72 27 109 255 
-13.6906 0.253074 -1.49236 72 32 113 255 
-12.4515 0.239067 -1.47621 72 38 119 255 
-11.3698 0.228122 -1.4568 71 42 122 255 
-10.4353 0.216795 -1.43719 71 45 123 255 
-9.70822 0.184536 -1.41826 69 53 129 255 
-9.04946 0.176907 -1.40767 63 72 137 255 
-8.46576 0.171334 -1.39723 68 59 132 255 
-7.95551 0.165278 -1.39162 64 70 136 255 
-7.48746 0.147544 -1.37447 62 74 137 255 
-7.08391 0.142193 -1.36699 61 77 138 255 
-6.70692 0.135738 -1.36116 64 69 136 255 
-6.35199 0.130857 -1.35392 66 63 133 255 
-6.03497 0.122078 -1.3393 65 68 135 255 
-5.74568 0.117337 -1.331 61 77 138 255 
-5.46927 0.112599 -1.32243 65 66 135 255 
-5.23582 0.106037 -1.32125 65 66 135 255 
-5.06078 0.106783 -1.32324 64 69 136 255 
-4.86209 0.102688 -1.31947 64 69 136 255 
-4.68926 0.0973594 -1.32191 65 66 135 255 
-4.53924 0.0903466 -1.33021 68 57 131 255 
-18.4015 0.42745 5.52921 72 20 103 255 
-18.4088 0.411815 5.32521 72 28 110 255 
-18.3995 0.40502 5.12808 72 24 106 255 
-18.4045 0.405493 4.94299 72 22 104 255 
-18.3443 0.416525 4.76247 72 22 104 255 
-18.3132 0.412873 4.56037 71 45 123 255 
-18.3784 0.417391 4.38966 71 19 101 255 
-18.3724 0.4208 4.20893 71 16 99 255 
-18.3413 0.413258 4.04704 72 20 103 255 
-18.3189 0.4162 3.85137 71 14 97 255 
-18.2042 0.422969 3.64845 61 78 138 255 
-18.2075 0.429722 3.47424 64 70 136 255 
-18.1959 0.409983 3.32073 60 80 139 255 
-18.1785 0.416185 3.13753 59 81 139 255 
-18.1838 0.428845 2.95899 60 80 139 255 
-18.1799 0.44492 2.78924 60 79 138 255 
-18.1916 0.413057 2.64157 57 85 140 255 
-18.1644 0.419033 2.45981 59 81 139 255 
-18.1536 0.437642 2.28434 61 78 138 255 
-18.1584 0.450726 2.11771 61 77 138 255 
-18.1628 0.412404 1.97041 62 74 137 255 
-18.1603 0.42845 1.79713 56 88 140 255 
-18.1492 0.440704 1.62344 60 80 139 255 
-18.155 0.460139 1.45481 61 78 138 255 
-18.146 0.415187 1.31061 61 78 138 255 
-18.1562 0.431523 1.13943 56 89 140 255 
-19.4464 0.48239 1.03648 71 16 99 255 
-18.2275 0.468334 0.79928 47 107 142 255 
-33.3165 0.773911 1.19869 70 10 93 255 
-18.1903 0.438687 0.482824 72 40 120 255 
-18.1477 0.453342 0.310529 71 13 96 255 
-33.4286 0.87057 0.262642 69 4 87 255 
-33.4118 0.781953 -0.00583306 71 13 96 255 
-33.3705 0.816433 -0.320439 71 13 96 255 
-18.1989 0.460978 -0.343192 53 95 141 255 
-18.1604 0.479279 -0.513789 72 26 108 255 
-18.1998 0.435459 -0.661184 72 28 110 255 
-18.1985 0.451595 -0.829827 72 28 110 255 
-18.1696 0.463408 -1.00026 72 26 108 255 
-18.1469 0.482087 -1.17074 72 26 108 255 
-18.1171 0.436639 -1.31492 71 42 122 255 
-17.6304 0.443655 -1.44375 71 47 125 255 
-17.325 0.450942 -1.58333 72 22 104 255 
-15.2741 0.405769 -1.54125 72 26 108 255 
-13.6977 0.337293 -1.49334 72 41 121 255 
-12.4707 0.315992 -1.47868 72 41 121 255 
-11.3136 0.296452 -1.44981 71 44 122 255 
-10.4417 0.281034 -1.43828 70 52 128 255 
-9.69998 0.243927 -1.41725 69 53 129 255 
-9.04228 0.232278 -1.40675 66 64 134 255 
-8.43891 0.222599 -1.393 69 56 130 255 
-7.93662 0.213612 -1.38852 68 58 131 255 
-7.50215 0.19389 -1.37736 64 69 136 255 
-7.07505 0.18545 -1.36547 63 72 137 255 
-6.70009 0.176733 -1.35997 65 68 135 255 
-6.33347 0.169359 -1.35017 66 63 133 255 
-6.03313 0.15908 -1.33908 65 68 135 255 
-5.73317 0.152279 -1.32829 62 73 137 255 
-5.46556 0.146078 -1.32172 64 70 136 255 
-5.24283 0.138366 -1.32321 66 64 134 255 
-5.05809 0.137781 -1.32274 64 69 136 255 
-4.86041 0.132493 -1.31921 67 62 133 255 
-4.68665 0.126079 -1.32137 66 63 133 255 
-4.52901 0.117947 -1.3274 68 57 131 255 
-18.4014 0.540436 5.53007 72 22 104 255 
-18.4108 0.524898 5.3266 72 26 108 255 
-18.3985 0.517963 5.12861 72 22 104 255 
-18.3862 0.517977 4.93884 72 26 108 255 
-18.3288 0.528713 4.7592 72 22 104 255 
-18.32 0.525511 4.56278 72 37 118 255 
-18.3677 0.529927 4.3878 71 14 97 255 
-18.3392 0.532645 4.20201 71 16 99 255 
-18.3179 0.525202 4.04252 71 17 100 255 
-18.3277 0.528933 3.85384 71 13 96 255 
-18.2032 0.534717 3.64884 61 78 138 255 
-18.1829 0.540791 3.47011 62 74 137 255 
-18.1872 0.521455 3.31965 58 83 139 255 
-18.1658 0.527432 3.13583 59 81 139 255 
-18.17 0.540089 2.95722 58 83 139 255 
-18.1788 0.556521 2.78955 61 78 138 255 
-18.1798 0.524414 2.64028 61 78 138 255 
-18.1694 0.530711 2.46088 58 83 139 255 
-18.1486 0.548962 2.28409 61 78 138 255 
-18.1463 0.561858 2.11667 62 74 137 255 
-18.151 0.523583 1.96944 57 85 140 255 
-18.1304 0.539073 1.79447 60 79 138 255 
-18.1601 0.552482 1.62469 58 84 140 255 
-18.1369 0.571057 1.45361 62 76 138 255 
-18.1341 0.52626 1.30997 59 82 139 255 
-18.1392 0.542501 1.13855 59 82 139 255 
-0 0 0 68 1 84 255 
-18.1504 0.577814 0.796039 59 82 139 255 
-33.3031 0.978088 1.1984 70 10 93 255 
-33.2731 1.00674 0.883312 70 11 94 255 
-33.278 1.03566 0.569526 70 8 92 255 
-33.3377 1.07293 0.261975 69 5 89 255 
-33.3465 0.985178 -0.00582259 70 11 94 255 
-33.3568 1.02093 -0.320362 71 13 96 255 
-18.1908 0.572479 -0.343098 52 96 141 255 
-18.1651 0.590961 -0.514015 72 22 104 255 
-18.1758 0.546492 -0.660422 72 28 110 255 
-18.1794 0.562756 -0.829098 72 26 108 255 
-18.1474 0.574286 -0.999214 72 27 109 255 
-18.1566 0.593849 -1.17158 72 27 109 255 
-18.0772 0.54668 -1.31225 70 51 127 255 
-17.6383 0.552168 -1.44464 70 50 126 255 
-17.3179 0.557109 -1.58296 72 24 106 255 
-15.2802 0.499774 -1.54216 72 26 108 255 
-13.6606 0.420265 -1.48955 72 36 117 255 
-12.4397 0.391598 -1.47527 71 47 125 255 
-11.3096 0.365801 -1.44955 71 44 122 255 
-10.4496 0.345425 -1.43964 69 56 130 255 
-9.72995 0.304431 -1.42188 70 50 126 255 
-9.04068 0.287756 -1.40675 66 65 134 255 
-8.43541 0.274311 -1.39267 65 66 135 255 
-7.88988 0.260809 -1.3806 67 61 132 255 
-7.50376 0.240013 -1.3779 62 74 137 255 
-7.09145 0.22943 -1.36888 66 64 134 255 
-6.67929 0.217204 -1.35599 64 70 136 255 
-6.32938 0.20812 -1.34954 68 59 132 255 
-6.02131 0.195747 -1.3367 66 65 134 255 
-5.72823 0.187327 -1.32739 63 72 137 255 
-5.47719 0.180026 -1.32477 62 74 137 255 
-5.2477 0.170722 -1.32467 66 65 134 255 
-5.05908 0.168878 -1.32324 62 74 137 255 
-4.85854 0.162281 -1.31895 67 62 133 255 
-4.65693 0.153879 -1.31323 67 62 133 255 
-4.52532 0.145642 -1.32656 68 57 131 255 
-18.3891 0.653029 5.52748 72 27 109 255 
-18.4043 0.637755 5.32576 72 26 108 255 
-18.3575 0.629557 5.11815 72 20 103 255 
-18.373 0.630452 4.93625 72 26 108 255 
-18.3784 0.643028 4.77302 72 24 106 255 
-18.3475 0.638992 4.57051 72 27 109 255 
-18.3641 0.642619 4.3878 71 19 101 255 
-18.3629 0.646122 4.20826 71 19 101 255 
-18.3387 0.638438 4.0479 71 14 97 255 
-18.3134 0.641004 3.85158 71 16 99 255 
-18.1672 0.645251 3.64236 62 74 137 255 
-18.1852 0.65256 3.47124 62 73 137 255 
-18.1836 0.633039 3.31965 60 80 139 255 
-18.173 0.639267 3.1377 57 86 140 255 
-18.1486 0.650931 2.95433 60 80 139 255 
-18.1711 0.667909 2.78894 61 78 138 255 
-18.1673 0.635642 2.63899 60 80 139 255 
-18.15 0.641627 2.45873 58 84 140 255 
-18.132 0.65984 2.28247 60 80 139 255 
-18.1316 0.672786 2.11539 61 77 138 255 
-18.1464 0.63491 1.96933 61 77 138 255 
-18.1308 0.650451 1.79487 58 84 140 255 
-18.1504 0.663681 1.62416 61 77 138 255 
-18.1061 0.68132 1.45145 62 73 137 255 
-18.1246 0.637309 1.30953 56 88 140 255 
-18.1355 0.653791 1.13855 60 79 138 255 
-0 0 0 68 1 84 255 
-18.1255 0.688376 0.795119 59 81 139 255 
-33.3084 1.18284 1.19884 71 14 97 255 
-33.2503 1.2103 0.882888 70 10 93 255 
-33.2471 1.23894 0.569115 71 13 96 255 
-18.1391 0.695224 0.142572 71 19 101 255 
-33.3378 1.1897 -0.00582224 71 19 101 255 
-33.316 1.22434 -0.320036 71 16 99 255 
-18.1809 0.683859 -0.342985 53 94 141 255 
-18.1482 0.701906 -0.513648 72 35 116 255 
-18.1282 0.656415 -0.658825 72 33 115 255 
-18.1836 0.674588 -0.829463 72 29 111 255 
-18.1256 0.684947 -0.998225 72 26 108 255 
-18.1326 0.70447 -1.17029 72 31 112 255 
-18.0366 0.656248 -1.30957 72 37 118 255 
-17.6127 0.659564 -1.44285 70 48 126 255 
-17.2733 0.661796 -1.57923 72 20 103 255 
-15.2202 0.59132 -1.53644 72 27 109 255 
-13.6399 0.503417 -1.4876 72 35 116 255 
-12.3984 0.466463 -1.47068 71 44 122 255 
-11.3131 0.435418 -1.45032 72 38 119 255 
-10.4117 0.408139 -1.43473 71 46 124 255 
-9.6656 0.361795 -1.41277 69 53 129 255 
-9.03974 0.343261 -1.4069 66 63 133 255 
-8.43357 0.326064 -1.39267 63 72 137 255 
-7.88222 0.308984 -1.37956 65 68 135 255 
-7.50412 0.286126 -1.37826 63 72 137 255 
-7.09089 0.272976 -1.36907 62 76 138 255 
-6.67783 0.258183 -1.35599 65 68 135 255 
-6.31137 0.246304 -1.346 68 57 131 255 
-6.0239 0.23284 -1.33757 67 62 133 255 
-5.70848 0.221753 -1.3231 67 62 133 255 
-5.45461 0.212797 -1.31961 63 71 136 255 
-5.2543 0.203218 -1.32663 70 52 128 255 
-5.04925 0.199573 -1.32097 62 73 137 255 
-4.87192 0.192661 -1.32288 68 58 131 255 
-4.6684 0.182941 -1.31676 69 55 129 255 
-4.51092 0.172892 -1.32262 70 50 126 255 
-18.3733 0.765372 5.52403 72 20 103 255 
-18.3799 0.749847 5.31993 72 20 103 255 
-18.3629 0.742574 5.12083 72 22 104 255 
-18.3649 0.743018 4.93521 72 24 106 255 
-18.349 0.75475 4.76649 72 24 106 255 
-18.3112 0.750247 4.56254 72 23 105 255 
-18.3365 0.754328 4.38223 72 20 103 255 
-18.3118 0.756851 4.19755 71 17 100 255 
-18.3354 0.750991 4.04812 71 19 101 255 
-18.3003 0.752998 3.84973 71 14 97 255 
-18.1453 0.755976 3.63882 60 80 139 255 
-18.1661 0.763511 3.46843 63 71 136 255 
-18.1617 0.743875 3.31642 62 76 138 255 
-18.1698 0.750803 3.13787 58 83 139 255 
-18.1433 0.762235 2.95417 60 79 138 255 
-18.1647 0.779307 2.78864 60 80 139 255 
-18.1562 0.746818 2.63798 56 89 140 255 
-18.1408 0.752775 2.45806 57 86 140 255 
-18.1435 0.771758 2.28447 59 82 139 255 
-18.1212 0.78377 2.1147 61 77 138 255 
-18.1422 0.746242 1.96933 59 81 139 255 
-18.1404 0.762272 1.79625 57 86 140 255 
-18.1181 0.773847 1.62166 57 85 140 255 
-18.0887 0.791838 1.45041 64 70 136 255 
-18.1064 0.747931 1.30853 59 81 139 255 
-18.1262 0.764846 1.13824 58 83 139 255 
-18.1044 0.782756 0.965555 72 29 111 255 
-18.1579 0.801208 0.79674 52 97 141 255 
-18.1715 0.756965 0.654182 53 94 141 255 
-18.1811 0.773522 0.482877 49 104 142 255 
-18.1722 0.788866 0.311145 50 102 142 255 
-18.1715 0.808155 0.142862 50 101 142 255 
-18.1741 0.760247 -0.00317475 53 95 141 255 
-18.1425 0.77822 -0.174321 50 102 142 255 
-18.1594 0.794659 -0.342665 48 106 142 255 
-18.1375 0.81298 -0.513478 50 100 142 255 
-18.1348 0.7681 -0.659224 57 85 140 255 
-18.1621 0.785414 -0.828689 56 89 140 255 
-18.1141 0.795844 -0.99784 57 86 140 255 
-18.125 0.815582 -1.1701 55 91 141 255 
-18.0263 0.766652 -1.30913 72 41 121 255 
-17.6033 0.767404 -1.44244 72 41 121 255 
-17.2699 0.767815 -1.57933 72 23 105 255 
-15.2004 0.683983 -1.53483 72 27 109 255 
-13.6197 0.586373 -1.48575 72 33 115 255 
-12.3794 0.541835 -1.46879 71 42 122 255 
-11.3063 0.504649 -1.44981 72 41 121 255 
-10.3664 0.470087 -1.42887 71 46 124 255 
-9.68495 0.422043 -1.41595 71 45 123 255 
-9.02463 0.398155 -1.4049 67 61 132 255 
-8.44324 0.378336 -1.39463 65 66 135 255 
-7.891 0.357833 -1.38146 68 59 132 255 
-7.49534 0.331861 -1.377 61 77 138 255 
-7.0724 0.315735 -1.36585 62 73 137 255 
-6.68885 0.299723 -1.35858 66 64 134 255 
-6.29508 0.284364 -1.34287 68 57 131 255 
-6.05649 0.271327 -1.34515 66 64 134 255 
-5.70312 0.2566 -1.3222 68 59 132 255 
-5.45612 0.246393 -1.32031 63 72 137 255 
-5.2578 0.235671 -1.32785 66 63 133 255 
-5.0547 0.23086 -1.32274 62 73 137 255 
-4.8504 0.221626 -1.31738 68 59 132 255 
-4.68162 0.212236 -1.32083 68 57 131 255 
-4.52607 0.201292 -1.3274 70 52 128 255 
-18.3826 0.87878 5.52834 72 23 105 255 
-18.3557 0.861709 5.31437 72 26 108 255 
-18.382 0.856353 5.12754 72 26 108 255 
-18.3263 0.854116 4.92613 72 22 104 255 
-18.3469 0.86746 4.76724 72 26 108 255 
-18.316 0.863045 4.56496 71 19 101 255 
-18.3306 0.866779 4.382 72 20 103 255 
-18.3078 0.869242 4.19777 71 17 100 255 
-18.2837 0.861275 4.03778 71 17 100 255 
-18.3061 0.865781 3.85199 71 14 97 255 
-18.1462 0.86758 3.64 59 81 139 255 
-18.1552 0.874679 3.4673 61 77 138 255 
-18.144 0.854697 3.31409 58 84 140 255 
-18.1353 0.860875 3.13277 59 81 139 255 
-18.1353 0.873403 2.95369 60 79 138 255 
-18.1447 0.890023 2.78636 60 80 139 255 
-18.1334 0.857367 2.6354 56 88 140 255 
-18.1328 0.863929 2.45766 58 84 140 255 
-18.1424 0.883263 2.28497 59 82 139 255 
-18.121 0.89519 2.11528 59 81 139 255 
-18.1313 0.857265 1.96868 57 86 140 255 
-18.1244 0.873038 1.79516 58 84 140 255 
-18.0901 0.883885 1.61961 61 78 138 255 
-18.0835 0.902813 1.45041 62 74 137 255 
-18.0975 0.858826 1.30824 61 78 138 255 
-18.1122 0.875618 1.13768 59 81 139 255 
-18.1122 0.894468 0.966246 71 14 97 255 
-33.3209 1.67518 1.46249 70 7 90 255 
-18.1385 0.867113 0.653175 68 58 131 255 
-18.0872 0.880737 0.480517 71 45 123 255 
-18.0592 0.895009 0.309298 72 27 109 255 
-18.0333 0.912913 0.141818 71 13 96 255 
-18.1491 0.870789 -0.00317126 62 76 138 255 
-18.1074 0.888056 -0.174033 67 62 133 255 
-18.1003 0.903377 -0.341647 66 65 134 255 
-18.1052 0.92288 -0.512715 71 45 123 255 
-18.1357 0.879649 -0.659442 56 89 140 255 
-18.1231 0.895164 -0.82714 59 81 139 255 
-18.1029 0.906675 -0.997511 67 61 132 255 
-18.0658 0.924027 -1.16662 70 51 127 255 
-18.0103 0.876711 -1.30834 71 47 125 255 
-17.5903 0.875005 -1.44179 72 31 112 255 
-17.2609 0.873566 -1.57896 72 22 104 255 
-15.1949 0.777187 -1.53473 72 27 109 255 
-13.591 0.668709 -1.48305 72 40 120 255 
-12.3471 0.616347 -1.46538 71 45 123 255 
-11.294 0.57356 -1.44866 72 41 121 255 
-10.3594 0.533481 -1.42832 71 42 122 255 
-9.69107 0.481903 -1.41725 71 45 123 255 
-9.01511 0.453174 -1.40383 63 71 136 255 
-8.44371 0.430286 -1.39511 65 66 135 255 
-7.9044 0.407055 -1.38421 68 59 132 255 
-7.48137 0.37725 -1.37483 64 70 136 255 
-7.06935 0.359075 -1.36566 60 79 138 255 
-6.66828 0.339811 -1.3548 66 64 134 255 
-6.30103 0.323385 -1.34454 69 55 129 255 
-6.03619 0.30754 -1.34103 65 66 135 255 
-5.69171 0.291091 -1.31994 67 61 132 255 
-5.44577 0.279418 -1.3182 64 70 136 255 
-5.25916 0.268076 -1.32859 66 65 134 255 
-5.04256 0.26132 -1.31996 64 69 136 255 
-4.83931 0.250884 -1.31476 67 61 132 255 
-4.66581 0.240216 -1.31676 68 57 131 255 
-4.50175 0.227895 -1.32065 70 52 128 255 
-18.3281 0.988925 5.51367 72 23 105 255 
-18.3492 0.974271 5.3141 72 23 105 255 
-18.3822 0.969432 5.12915 72 26 108 255 
-18.3081 0.965886 4.92276 72 22 104 255 
-18.3084 0.978262 4.7587 72 23 105 255 
-18.3065 0.975207 4.56399 72 20 103 255 
-18.323 0.979133 4.38153 72 20 103 255 
-18.2817 0.980464 4.19308 71 13 96 255 
-18.2868 0.973913 4.03972 71 14 97 255 
-18.2017 0.972814 3.83122 71 13 96 255 
-18.1386 0.978801 3.63961 60 79 138 255 
-18.125 0.984728 3.46262 62 74 137 255 
-18.1227 0.965174 3.31121 62 76 138 255 
-18.1306 0.972187 3.13294 57 86 140 255 
-18.1335 0.984877 2.95433 59 82 139 255 
-18.1172 1.00014 2.78303 59 82 139 255 
-18.114 0.967876 2.63339 57 86 140 255 
-18.1183 0.974695 2.45645 61 77 138 255 
-18.1089 0.993044 2.28147 57 85 140 255 
-18.1132 1.00625 2.11504 59 82 139 255 
-18.1019 0.967227 1.9661 59 81 139 255 
-18.1058 0.98353 1.79388 57 85 140 255 
-18.0894 0.995141 1.62006 62 76 138 255 
-18.0856 1.0142 1.45105 63 72 137 255 
-18.0879 0.969641 1.30795 60 80 139 255 
-18.1145 0.987171 1.13818 60 79 138 255 
-28.6551 1.59144 1.52918 69 4 87 255 
-33.284 1.87814 1.46135 71 13 96 255 
-33.2381 1.79342 1.19729 71 16 99 255 
-33.2104 1.82147 0.882569 71 13 96 255 
-33.2675 1.85342 0.569953 70 10 93 255 
-33.2814 1.88962 0.261818 70 10 93 255 
-33.3012 1.80265 -0.00582067 69 5 89 255 
-33.2189 1.83356 -0.319374 69 5 89 255 
-18.0784 1.01353 -0.341345 68 59 132 255 
-18.1232 1.03532 -0.513394 72 26 108 255 
-18.128 0.990802 -0.659369 72 31 112 255 
-18.1222 1.00663 -0.827368 72 33 115 255 
-18.1059 1.01824 -0.998005 72 26 108 255 
-18.0877 1.03646 -1.16842 72 28 110 255 
-18.0125 0.98764 -1.30892 72 41 121 255 
-17.5866 0.983032 -1.44195 71 45 123 255 
-17.2135 0.97709 -1.57514 72 20 103 255 
-15.1879 0.870293 -1.53453 72 24 106 255 
-13.6075 0.753243 -1.48532 71 42 122 255 
-12.3381 0.691818 -1.46479 72 41 121 255 
-11.2705 0.641721 -1.44612 71 44 122 255 
-10.3381 0.596009 -1.42586 72 38 119 255 
-9.682 0.541026 -1.41638 69 53 129 255 
-9.01216 0.508481 -1.40383 64 69 136 255 
-8.43697 0.481862 -1.39446 65 66 135 255 
-7.90863 0.455945 -1.38542 66 64 134 255 
-7.4691 0.422593 -1.37303 64 70 136 255 
-7.04937 0.40144 -1.36225 64 70 136 255 
-6.66607 0.380721 -1.3548 64 70 136 255 
-6.29893 0.362042 -1.34454 69 53 129 255 
-6.00787 0.343069 -1.33518 68 59 132 255 
-5.68787 0.325898 -1.31949 65 66 135 255 
-5.4488 0.313106 -1.31937 62 73 137 255 
-5.23709 0.299179 -1.32345 66 64 134 255 
-5.04086 0.292256 -1.31996 63 71 136 255 
-4.84346 0.280908 -1.31633 67 61 132 255 
-4.64695 0.267843 -1.31187 67 61 132 255 
-4.52422 0.256873 -1.32768 69 56 130 255 
-18.2672 1.09809 5.49727 71 19 101 255 
-18.3169 1.08531 5.3066 72 31 112 255 
-18.3384 1.08 5.11868 72 22 104 255 
-18.3298 1.07985 4.93028 72 26 108 255 
-18.3223 1.09179 4.76398 72 28 110 255 
-18.2875 1.08677 4.56085 72 20 103 255 
-18.2671 1.08859 4.36969 71 19 101 255 
-18.2812 1.09297 4.19442 71 17 100 255 
-18.2376 1.08355 4.03024 71 16 99 255 
-18.2238 1.08617 3.83718 70 8 92 255 
-18.1273 1.08978 3.63863 60 80 139 255 
-18.1117 1.09551 3.46131 62 74 137 255 
-18.1086 1.07589 3.30978 59 82 139 255 
-18.1234 1.08336 3.13277 58 84 140 255 
-18.1124 1.09523 2.95192 59 82 139 255 
-18.095 1.11032 2.7806 61 77 138 255 
-18.1137 1.07936 2.63425 54 92 141 255 
-18.104 1.08537 2.45538 58 83 139 255 
-18.0876 1.10323 2.2796 54 92 141 255 
-18.0799 1.11572 2.11192 62 74 137 255 
-18.0916 1.07804 1.96567 56 88 140 255 
-18.0954 1.09437 1.79349 59 82 139 255 
-18.0779 1.10581 1.61961 59 82 139 255 
-18.072 1.12472 1.45049 62 74 137 255 
-18.0676 1.07977 1.30694 60 80 139 255 
-18.1051 1.09812 1.13799 59 82 139 255 
-28.7744 1.77523 1.5361 70 7 90 255 
-33.2081 2.07834 1.45855 70 11 94 255 
-33.2195 1.99691 1.19704 70 11 94 255 
-33.1736 2.02369 0.881906 71 14 97 255 
-33.2306 2.05597 0.569526 70 10 93 255 
-33.2562 2.09298 0.261716 71 16 99 255 
-33.2067 2.00195 -0.00580619 71 16 99 255 
-33.237 2.03919 -0.319662 70 11 94 255 
-18.0778 1.12481 -0.341458 67 61 132 255 
-18.1225 1.14688 -0.513563 72 26 108 255 
-18.1206 1.10195 -0.659333 72 28 110 255 
-18.1147 1.11774 -0.827322 72 26 108 255 
-18.0615 1.12695 -0.995917 72 27 109 255 
-18.08 1.14736 -1.16836 72 35 116 255 
-18.0151 1.09869 -1.30957 71 47 125 255 
-17.5624 1.08981 -1.44048 69 56 130 255 
-17.1933 1.08182 -1.57387 72 22 104 255 
-15.1525 0.961578 -1.53152 72 29 111 255 
-13.5679 0.834587 -1.48153 71 44 122 255 
-12.3237 0.766893 -1.46362 72 41 121 255 
-11.2634 0.710676 -1.44574 70 48 126 255 
-10.3491 0.660378 -1.42791 71 44 122 255 
-9.68047 0.600546 -1.41667 70 50 126 255 
-8.95265 0.560252 -1.39507 64 69 136 255 
-8.41121 0.532189 -1.39072 66 65 134 255 
-7.9047 0.5044 -1.38525 66 65 134 255 
-7.46244 0.468168 -1.37231 64 70 136 255 
-7.05755 0.445367 -1.36433 66 64 134 255 
-6.65188 0.420873 -1.35241 68 59 132 255 
-6.29366 0.400498 -1.34392 69 55 129 255 
-5.97837 0.3782 -1.32912 68 57 131 255 
-5.67798 0.360298 -1.31769 62 74 137 255 
-5.45648 0.347151 -1.32172 65 68 135 255 
-5.19257 0.328613 -1.31269 66 64 134 255 
-5.04959 0.323861 -1.32274 64 70 136 255 
-4.85031 0.311177 -1.31869 65 68 135 255 
-4.65002 0.296657 -1.31323 68 58 131 255 
-4.50532 0.283543 -1.32262 69 55 129 255 
-18.068 1.19742 5.43945 60 79 138 255 
-18.1709 1.18858 5.26631 62 73 137 255 
-18.2507 1.18725 5.09614 64 70 136 255 
-18.2139 1.18521 4.90098 70 52 128 255 
-18.1975 1.19645 4.73333 65 68 135 255 
-18.2186 1.19489 4.54539 65 66 135 255 
-18.1698 1.19472 4.34809 70 51 127 255 
-18.2235 1.20178 4.18281 70 51 127 255 
-18.1682 1.19135 4.01645 70 48 126 255 
-18.1123 1.1911 3.81517 71 45 123 255 
-18.1125 1.20047 3.63706 61 77 138 255 
-18.0841 1.20525 3.45737 65 68 135 255 
-18.1026 1.18704 3.30996 61 78 138 255 
-18.1252 1.19512 3.1343 58 83 139 255 
-18.1073 1.20648 2.95225 60 79 138 255 
-18.1144 1.22312 2.7847 58 83 139 255 
-18.1097 1.19067 2.63468 55 91 141 255 
-18.0743 1.19493 2.4523 57 86 140 255 
-18.0765 1.21393 2.2791 58 83 139 255 
-18.0846 1.22744 2.11331 62 76 138 255 
-18.0539 1.18701 1.96232 59 81 139 255 
-18.0983 1.20604 1.79447 56 88 140 255 
-18.0569 1.21578 1.61837 62 74 137 255 
-18.0638 1.23552 1.45041 63 72 137 255 
-18.0726 1.1914 1.30781 59 82 139 255 
-18.089 1.20859 1.13743 58 84 140 255 
-28.6494 1.94404 1.53003 70 7 90 255 
-33.1797 2.28103 1.45789 71 13 96 255 
-33.1847 2.19925 1.19625 71 14 97 255 
-33.1746 2.22814 0.882278 71 13 96 255 
-33.2203 2.26004 0.569577 70 8 92 255 
-33.2527 2.29769 0.261794 71 13 96 255 
-33.1768 2.20454 -0.00580322 71 17 100 255 
-33.2089 2.24208 -0.319518 71 19 101 255 
-18.0626 1.23516 -0.341308 62 74 137 255 
-18.1071 1.25751 -0.513337 72 29 111 255 
-18.1045 1.21252 -0.659006 72 31 112 255 
-18.0706 1.22637 -0.825638 72 33 115 255 
-18.0742 1.23912 -0.997016 72 31 112 255 
-18.0527 1.25689 -1.16707 72 33 115 255 
-17.9831 1.20754 -1.30776 71 45 123 255 
-17.5434 1.19674 -1.4395 69 53 129 255 
-17.1714 1.18626 -1.5725 72 20 103 255 
-15.1562 1.05522 -1.53252 72 29 111 255 
-13.5466 0.916748 -1.47979 72 41 121 255 
-12.298 0.841073 -1.46114 72 38 119 255 
-11.245 0.778814 -1.44396 71 42 122 255 
-10.3261 0.722552 -1.42532 70 48 126 255 
-9.6618 0.658923 -1.4145 69 55 129 255 
-8.96778 0.616461 -1.39799 66 65 134 255 
-8.3694 0.581123 -1.38437 66 65 134 255 
-7.87591 0.551105 -1.38077 67 62 133 255 
-7.45158 0.513407 -1.37086 65 66 135 255 
-7.01355 0.485813 -1.35638 65 68 135 255 
-6.65406 0.46202 -1.35341 66 63 133 255 
-6.27548 0.438018 -1.34058 68 59 132 255 
-5.96717 0.414267 -1.32717 69 56 130 255 
-5.68538 0.395808 -1.31994 63 72 137 255 
-5.48431 0.382722 -1.329 61 78 138 255 
-5.17595 0.35946 -1.30902 64 69 136 255 
-5.03207 0.353753 -1.31869 65 66 135 255 
-4.87527 0.342828 -1.32602 67 62 133 255 
-4.65195 0.325453 -1.31432 69 53 129 255 
-4.51211 0.311777 -1.32515 69 55 129 255 
-17.8836 1.29546 5.38622 58 84 140 255 
-17.918 1.2825 5.19519 57 86 140 255 
-17.8981 1.27464 4.99977 58 84 140 255 
-17.8759 1.27341 4.81203 58 84 140 255 
-17.8721 1.28524 4.65067 57 85 140 255 
-17.8934 1.28388 4.46615 59 81 139 255 
-17.8857 1.2863 4.28189 60 80 139 255 
-17.8454 1.28687 4.09776 65 66 135 255 
-17.8606 1.28128 3.9501 57 86 140 255 
-17.8616 1.28473 3.76395 59 82 139 255 
-17.8466 1.29288 3.58519 57 86 140 255 
-17.8481 1.29956 3.41371 55 91 141 255 
-17.8497 1.2805 3.26509 53 94 141 255 
-17.8561 1.28746 3.08907 55 91 141 255 
-17.8377 1.2985 2.90953 53 94 141 255 
-17.8385 1.31449 2.74346 51 98 141 255 
-17.8434 1.28317 2.59704 54 92 141 255 
-17.8531 1.29038 2.42332 53 95 141 255 
-17.8164 1.30632 2.24727 54 93 141 255 
-17.8479 1.32144 2.08656 61 78 138 255 
-17.957 1.29135 1.95262 62 76 138 255 
-17.9129 1.30413 1.77685 61 78 138 255 
-17.8792 1.31407 1.60314 60 79 138 255 
-17.8143 1.32832 1.43101 62 73 137 255 
-18.0103 1.29833 1.30384 62 76 138 255 
-18.0424 1.31673 1.13498 61 78 138 255 
-18.0997 1.3398 0.967045 59 82 139 255 
-18.0461 1.35192 0.79328 62 74 137 255 
-18.042 1.30694 0.650659 68 57 131 255 
-18.0422 1.32304 0.480039 65 68 135 255 
-18.0418 1.33867 0.309469 62 76 138 255 
-18.0434 1.35805 0.142116 62 74 137 255 
-17.9976 1.30688 -0.00314945 72 40 120 255 
-18.0283 1.32835 -0.173534 67 61 132 255 
-18.0587 1.34627 -0.341383 39 128 142 255 
-18.0562 1.36534 -0.512121 42 118 142 255 
-18.0728 1.32183 -0.658135 70 50 126 255 
-18.0578 1.33685 -0.82541 68 59 132 255 
-18.0722 1.35045 -0.997346 66 64 134 255 
-18.0407 1.36733 -1.16681 65 68 135 255 
-17.9167 1.31355 -1.30349 72 32 113 255 
-17.5119 1.30259 -1.43754 71 45 123 255 
-17.0218 1.28092 -1.55949 72 20 103 255 
-15.081 1.14301 -1.5256 72 29 111 255 
-13.5487 1.00044 -1.48066 71 45 123 255 
-12.2649 0.914449 -1.45785 72 40 120 255 
-11.1856 0.843694 -1.43697 71 45 123 255 
-10.2968 0.784018 -1.42191 71 44 122 255 
-9.64869 0.717534 -1.4132 68 59 132 255 
-8.94904 0.670368 -1.39568 66 65 134 255 
-8.3519 0.631425 -1.38209 65 66 135 255 
-7.86452 0.598822 -1.37939 69 56 130 255 
-7.44142 0.558604 -1.3696 61 78 138 255 
-7.00945 0.528764 -1.35619 65 68 135 255 
-6.61396 0.500032 -1.34585 69 55 129 255 
-6.27267 0.476515 -1.34058 68 57 131 255 
-5.9577 0.450358 -1.32565 67 61 132 255 
-5.68673 0.43098 -1.32085 62 74 137 255 
-5.47798 0.416072 -1.32806 66 63 133 255 
-5.20265 0.393405 -1.31636 67 62 133 255 
-5.04524 0.385803 -1.32274 68 59 132 255 
-4.8519 0.371116 -1.32026 67 62 133 255 
-4.63355 0.352748 -1.3097 69 55 129 255 
-4.48906 0.337873 -1.31896 69 53 129 255 
-17.8839 1.40585 5.38881 55 90 140 255 
-17.8974 1.39145 5.19158 57 85 140 255 
-17.8871 1.38421 4.99897 57 86 140 255 
-17.8774 1.38382 4.81462 57 86 140 255 
-17.8707 1.3954 4.65243 59 82 139 255 
-17.8784 1.39312 4.46446 58 83 139 255 
-17.8677 1.39526 4.27957 61 77 138 255 
-17.8517 1.39748 4.1011 63 71 136 255 
-17.8397 1.38986 3.9473 57 85 140 255 
-17.8758 1.39605 3.76869 54 92 141 255 
-17.8676 1.40467 3.59108 54 92 141 255 
-17.8349 1.40867 3.41278 59 82 139 255 
-17.8346 1.38946 3.26383 55 90 140 255 
-17.8429 1.39662 3.08822 53 95 141 255 
-17.8353 1.40839 2.9105 52 96 141 255 
-17.8271 1.42369 2.743 52 97 141 255 
-17.8224 1.39163 2.59517 48 106 142 255 
-17.8251 1.39835 2.42063 51 99 141 255 
-17.81 1.41577 2.24752 51 99 141 255 
-17.8127 1.42879 2.08343 61 78 138 255 
-17.8189 1.39137 1.93849 57 85 140 255 
-17.8202 1.40736 1.76848 55 91 141 255 
-17.8232 1.41995 1.59886 60 80 139 255 
-17.8038 1.43744 1.43085 62 76 138 255 
-17.7882 1.39208 1.28836 59 81 139 255 
-17.7952 1.40851 1.11996 62 76 138 255 
-17.8065 1.428 0.951827 65 66 135 255 
-17.8004 1.44341 0.782857 66 64 134 255 
-17.7866 1.3982 0.641745 64 69 136 255 
-17.7587 1.41185 0.472718 66 63 133 255 
-17.7711 1.42828 0.304971 67 62 133 255 
-17.7427 1.44496 0.139815 67 62 133 255 
-17.8108 1.40322 -0.00311821 68 58 131 255 
-17.7856 1.42023 -0.171278 69 55 129 255 
-17.7401 1.43203 -0.335521 68 58 131 255 
-17.7267 1.44987 -0.503018 70 52 128 255 
-17.8153 1.41295 -0.649061 70 52 128 255 
-17.7714 1.42535 -0.812705 69 53 129 255 
-17.759 1.43667 -0.980531 71 45 123 255 
-17.7316 1.45338 -1.14738 70 51 127 255 
-17.789 1.41398 -1.29481 71 42 122 255 
-17.6635 1.4229 -1.45068 71 42 122 255 
-16.9967 1.38396 -1.55795 71 17 100 255 
-15.0549 1.23398 -1.52369 72 27 109 255 
-13.5135 1.08125 -1.47752 71 44 122 255 
-12.2105 0.985772 -1.45208 72 38 119 255 
-11.193 0.91336 -1.43863 71 46 124 255 
-10.273 0.845639 -1.41932 70 52 128 255 
-9.61156 0.774102 -1.40843 68 58 131 255 
-8.95067 0.725744 -1.3966 65 68 135 255 
-8.37344 0.68475 -1.38632 66 63 133 255 
-7.84205 0.645531 -1.37612 69 55 129 255 
-7.41923 0.60274 -1.36617 60 79 138 255 
-7.0325 0.57392 -1.3613 63 72 137 255 
-6.60979 0.540525 -1.34565 66 64 134 255 
-6.27353 0.515315 -1.34142 70 51 127 255 
-5.9558 0.486985 -1.32587 68 58 131 255 
-5.68495 0.465944 -1.32107 64 69 136 255 
-5.45788 0.448244 -1.32383 68 57 131 255 
-5.21077 0.42619 -1.31905 69 56 130 255 
-5.06302 0.418426 -1.32805 66 65 134 255 
-4.83222 0.399449 -1.31555 67 62 133 255 
-4.61116 0.379515 -1.30401 68 59 132 255 
-4.46299 0.363463 -1.31194 71 47 125 255 
-17.8826 1.5162 5.39111 57 86 140 255 
-17.8818 1.50068 5.18963 60 80 139 255 
-17.884 1.49442 5.00058 58 84 140 255 
-17.8609 1.49284 4.81255 58 83 139 255 
-17.855 1.50446 4.65067 61 77 138 255 
-17.8647 1.50239 4.46325 58 83 139 255 
-17.8714 1.50593 4.28259 61 78 138 255 
-17.837 1.5065 4.09977 65 68 135 255 
-17.8202 1.4984 3.94493 60 80 139 255 
-17.8454 1.5039 3.76416 56 88 140 255 
-17.8421 1.51287 3.58774 54 93 141 255 
-17.8161 1.51724 3.4109 57 85 140 255 
-17.8219 1.49854 3.26311 53 94 141 255 
-17.8193 1.50483 3.08567 54 93 141 255 
-17.8135 1.51671 2.90841 55 90 140 255 
-17.7855 1.53025 2.738 57 86 140 255 
-17.7977 1.49963 2.59287 51 99 141 255 
-17.8044 1.5067 2.41902 52 97 141 255 
-17.799 1.52486 2.24727 50 100 142 255 
-17.7839 1.53635 2.08111 59 81 139 255 
-17.8071 1.50042 1.93817 58 83 139 255 
-17.7895 1.51482 1.76632 57 86 140 255 
-17.7764 1.52605 1.59548 60 80 139 255 
-17.7947 1.54666 1.43085 61 78 138 255 
-17.7852 1.5017 1.28879 58 83 139 255 
-17.7843 1.5175 1.11983 61 77 138 255 
-17.7894 1.53655 0.951402 65 68 135 255 
-17.7853 1.55208 0.782594 66 63 133 255 
-17.7767 1.50722 0.641709 67 62 133 255 
-17.7387 1.51985 0.472426 68 59 132 255 
-17.762 1.5373 0.304971 68 57 131 255 
-17.7435 1.55467 0.139894 68 57 131 255 
-17.7401 1.50723 -0.00310738 68 59 132 255 
-17.7456 1.52668 -0.17098 66 65 134 255 
-17.7101 1.53903 -0.335125 68 57 131 255 
-17.6786 1.5552 -0.501916 70 50 126 255 
-17.7306 1.51576 -0.646303 68 59 132 255 
-17.7394 1.53239 -0.811658 67 62 133 255 
-17.7499 1.54561 -0.980531 69 53 129 255 
-17.7203 1.56198 -1.14725 70 48 126 255 
-17.7253 1.51842 -1.29083 70 50 126 255 
-17.7031 1.53547 -1.45468 70 50 126 255 
-16.9492 1.48484 -1.5544 71 19 101 255 
-15.0272 1.32459 -1.52168 72 29 111 255 
-13.4779 1.16167 -1.47438 72 40 120 255 
-12.1884 1.0593 -1.4502 72 37 118 255 
-11.1734 0.980807 -1.43685 71 44 122 255 
-10.2656 0.908482 -1.41904 69 56 130 255 
-9.61057 0.833405 -1.40901 69 55 129 255 
-8.93128 0.779362 -1.3943 64 69 136 255 
-8.35335 0.734732 -1.38372 66 64 134 255 
-7.86247 0.695808 -1.38042 66 63 133 255 
-7.40265 0.647138 -1.36382 65 68 135 255 
-7.02298 0.616544 -1.36017 67 62 133 255 
-6.60342 0.580815 -1.34505 65 66 135 255 
-6.27025 0.553799 -1.34142 70 48 126 255 
-5.95756 0.523947 -1.32695 69 56 130 255 
-5.68199 0.500818 -1.32107 63 72 137 255 
-5.44535 0.48087 -1.32149 66 63 133 255 
-5.2013 0.45756 -1.31734 68 57 131 255 
-5.02663 0.446489 -1.3192 67 62 133 255 
-4.83064 0.429177 -1.31581 69 56 130 255 
-4.60587 0.407546 -1.30319 70 52 128 255 
-4.44251 0.389249 -1.30659 69 53 129 255 
-17.8682 1.62546 5.38968 56 88 140 255 
-17.8608 1.60934 5.1863 57 86 140 255 
-17.862 1.60301 4.99709 60 80 139 255 
-17.8542 1.60267 4.81333 58 84 140 255 
-17.8464 1.61408 4.65092 60 79 138 255 
-17.8629 1.61267 4.46518 58 83 139 255 
-17.8473 1.61425 4.27911 62 73 137 255 
-17.8333 1.61644 4.1011 64 70 136 255 
-17.834 1.60982 3.9501 59 81 139 255 
-17.8524 1.61487 3.76766 58 83 139 255 
-17.8198 1.62116 3.58519 53 94 141 255 
-17.7937 1.62537 3.40847 58 84 140 255 
-17.8104 1.60769 3.26275 54 93 141 255 
-17.8029 1.61352 3.08448 53 94 141 255 
-17.7941 1.62508 2.9068 54 93 141 255 
-17.7827 1.63998 2.73906 58 84 140 255 
-17.8108 1.61086 2.59618 50 100 142 255 
-17.8096 1.61726 2.42104 51 99 141 255 
-17.7814 1.63332 2.24627 54 92 141 255 
-17.7711 1.64516 2.08077 60 79 138 255 
-17.8005 1.60993 1.93849 59 81 139 255 
-17.7818 1.62412 1.76651 55 90 140 255 
-17.7697 1.63537 1.59574 57 85 140 255 
-17.771 1.65452 1.42973 59 82 139 255 
-17.7747 1.61071 1.28872 58 83 139 255 
-17.7905 1.62805 1.12083 61 77 138 255 
-17.7807 1.64576 0.951455 67 62 133 255 
-17.7585 1.6596 0.78185 66 63 133 255 
-17.7611 1.61573 0.641493 65 66 135 255 
-17.748 1.6304 0.47293 68 59 132 255 
-17.7443 1.64552 0.304834 68 57 131 255 
-17.7207 1.6623 0.139792 68 59 132 255 
-17.7136 1.61451 -0.00310442 65 68 135 255 
-17.7359 1.63554 -0.17098 68 59 132 255 
-17.7451 1.65184 -0.335973 69 56 130 255 
-17.6936 1.66598 -0.502622 70 50 126 255 
-17.705 1.62307 -0.645722 68 59 132 255 
-17.7029 1.63872 -0.810428 68 58 131 255 
-17.7281 1.65338 -0.979872 70 48 126 255 
-17.6935 1.66909 -1.14615 71 46 124 255 
-17.664 1.62241 -1.28706 70 50 126 255 
-17.6963 1.64434 -1.45492 71 46 124 255 
-16.8892 1.58406 -1.54976 72 24 106 255 
-14.9593 1.41116 -1.51566 72 32 113 255 
-13.4458 1.24206 -1.47167 72 41 121 255 
-12.1698 1.13296 -1.44878 72 38 119 255 
-11.1365 1.04647 -1.43291 72 38 119 255 
-10.2658 0.972014 -1.41986 69 56 130 255 
-9.60331 0.892176 -1.40872 67 62 133 255 
-8.94109 0.835528 -1.3966 64 69 136 255 
-8.34967 0.786066 -1.38388 68 57 131 255 
-7.84629 0.742924 -1.37836 66 63 133 255 
-7.40442 0.693098 -1.36491 63 72 137 255 
-6.99462 0.657328 -1.35543 65 66 135 255 
-6.61339 0.622607 -1.34784 63 71 136 255 
-6.24336 0.590053 -1.33641 71 45 123 255 
-5.91536 0.556833 -1.31829 70 51 127 255 
-5.67396 0.535215 -1.31994 66 65 134 255 
-5.42294 0.512444 -1.31679 68 59 132 255 
-5.20515 0.490102 -1.31905 69 56 130 255 
-4.99009 0.47412 -1.31035 66 65 134 255 
-4.82503 0.458535 -1.31502 68 58 131 255 
-4.6349 0.438793 -1.31214 70 52 128 255 
-4.43717 0.416232 -1.30575 69 55 129 255 
-17.8541 1.7347 5.38852 57 86 140 255 
-17.8505 1.7189 5.1863 57 85 140 255 
-17.8634 1.71368 5.00031 57 85 140 255 
-17.845 1.71228 4.81359 56 89 140 255 
-17.8362 1.72355 4.65092 60 79 138 255 
-17.8478 1.72178 4.46397 62 76 138 255 
-17.7993 1.72008 4.27005 62 74 137 255 
-17.8075 1.72433 4.09753 64 70 136 255 
-17.8247 1.71931 3.95032 61 78 138 255 
-17.8363 1.72381 3.76642 54 92 141 255 
-17.8007 1.72962 3.58342 54 93 141 255 
-17.7893 1.73509 3.40959 58 84 140 255 
-17.8012 1.71703 3.26293 56 89 140 255 
-17.8034 1.72377 3.08635 52 96 141 255 
-17.7877 1.73462 2.90745 53 94 141 255 
-17.8028 1.75207 2.74376 52 97 141 255 
-17.7937 1.71945 2.59517 50 100 142 255 
-17.7954 1.72612 2.4205 50 100 142 255 
-17.7622 1.74152 2.24515 53 95 141 255 
-17.7824 1.75632 2.08331 60 79 138 255 
-17.7745 1.71759 1.93677 59 82 139 255 
-17.7923 1.73523 1.76858 56 89 140 255 
-17.7613 1.74456 1.59592 60 80 139 255 
-17.7476 1.76225 1.42869 60 79 138 255 
-17.7625 1.71956 1.28858 57 86 140 255 
-17.7544 1.73466 1.1192 61 78 138 255 
-17.7504 1.75287 0.950391 66 65 134 255 
-17.7351 1.76725 0.781281 66 64 134 255 
-17.7559 1.72516 0.641673 67 62 133 255 
-17.7387 1.73937 0.472957 67 62 133 255 
-17.7318 1.75417 0.3048 68 59 132 255 
-17.7111 1.7711 0.139799 68 59 132 255 
-17.6964 1.72249 -0.0031032 67 62 133 255 
-17.7226 1.74404 -0.170952 68 57 131 255 
-17.7346 1.76069 -0.335973 68 57 131 255 
-17.703 1.77651 -0.503188 70 50 126 255 
-17.7107 1.73323 -0.646303 69 55 129 255 
-17.7044 1.74849 -0.810974 68 57 131 255 
-17.7157 1.76193 -0.979762 70 50 126 255 
-17.6929 1.77862 -1.1468 71 47 125 255 
-17.6785 1.7332 -1.28887 69 53 129 255 
-17.6918 1.75348 -1.45541 70 51 127 255 
-16.902 1.68994 -1.55185 72 22 104 255 
-14.9237 1.50024 -1.51295 72 26 108 255 
-13.433 1.32406 -1.47113 71 45 123 255 
-12.0895 1.20035 -1.44007 72 38 119 255 
-11.1319 1.11498 -1.43316 71 45 123 255 
-10.2596 1.03499 -1.41986 70 51 127 255 
-9.5819 0.949522 -1.40641 69 56 130 255 
-8.92105 0.888904 -1.3943 64 69 136 255 
-8.33585 0.836398 -1.38241 66 63 133 255 
-7.81512 0.788384 -1.3737 67 61 132 255 
-7.39121 0.737639 -1.36328 66 64 134 255 
-6.98362 0.699549 -1.3541 62 73 137 255 
-6.60555 0.662783 -1.34704 63 71 136 255 
-6.22503 0.626881 -1.33329 71 44 122 255 
-5.92154 0.594093 -1.32045 67 61 132 255 
-5.65409 0.568363 -1.31611 67 61 132 255 
-5.42356 0.546098 -1.31773 68 58 131 255 
-5.19626 0.521451 -1.31758 67 62 133 255 
-5.0073 0.506776 -1.31566 66 63 133 255 
-4.82981 0.48891 -1.31712 68 58 131 255 
-4.60531 0.46452 -1.30455 70 50 126 255 
-4.43931 0.443927 -1.30716 70 50 126 255 
-17.8336 1.84323 5.38565 59 82 139 255 
-17.832 1.82761 5.18408 57 86 140 255 
-17.841 1.82208 4.99709 56 89 140 255 
-17.8342 1.82174 4.81359 56 89 140 255 
-17.831 1.83355 4.65243 60 79 138 255 
-17.8331 1.83086 4.46301 62 76 138 255 
-17.8039 1.83085 4.27377 60 80 139 255 
-17.7946 1.83337 4.09709 63 71 136 255 
-17.8061 1.82785 3.9486 62 74 137 255 
-17.8196 1.83262 3.76519 57 85 140 255 
-17.7927 1.83911 3.58401 55 91 141 255 
-17.7939 1.84583 3.41259 57 85 140 255 
-17.7864 1.82583 3.26221 55 90 140 255 
-17.7955 1.83328 3.08686 51 98 141 255 
-17.7924 1.84536 2.91002 54 92 141 255 
-17.7848 1.86055 2.7427 55 90 140 255 
-17.7789 1.82819 2.5946 50 100 142 255 
-17.7756 1.83437 2.41929 51 98 141 255 
-17.7433 1.84965 2.24415 52 96 141 255 
-17.7506 1.86322 2.08088 62 76 138 255 
-17.7517 1.8254 1.93547 57 86 140 255 
-17.7714 1.84334 1.7676 57 85 140 255 
-17.7433 1.85279 1.5953 60 80 139 255 
-17.7394 1.87143 1.42893 60 80 139 255 
-17.7457 1.8279 1.28814 58 83 139 255 
-17.7394 1.84315 1.11895 61 77 138 255 
-17.7492 1.86279 0.950923 67 61 132 255 
-17.7278 1.87645 0.781456 67 62 133 255 
-17.739 1.83346 0.641457 66 65 134 255 
-17.7147 1.84683 0.472612 67 62 133 255 
-17.7058 1.86136 0.304543 68 57 131 255 
-17.687 1.87836 0.139697 68 59 132 255 
-17.6934 1.83187 -0.00310459 67 61 132 255 
-17.6966 1.85119 -0.170808 67 61 132 255 
-17.6996 1.86696 -0.335521 68 59 132 255 
-17.6878 1.88468 -0.503075 70 52 128 255 
-17.7047 1.84239 -0.646484 69 55 129 255 
-17.6983 1.85761 -0.811202 67 61 132 255 
-17.6916 1.86923 -0.979047 70 51 127 255 
-17.6896 1.88799 -1.14731 69 53 129 255 
-17.6735 1.84226 -1.28931 68 57 131 255 
-17.6689 1.86075 -1.45443 71 46 124 255 
-16.9032 1.79488 -1.55294 72 22 104 255 
-14.9181 1.5922 -1.51335 72 33 115 255 
-13.4058 1.40449 -1.46907 72 35 116 255 
-12.1668 1.28347 -1.4502 72 37 118 255 
-11.1209 1.18284 -1.43265 71 44 122 255 
-10.2423 1.09676 -1.41836 69 56 130 255 
-9.58278 1.00902 -1.40742 69 55 129 255 
-8.9056 0.942586 -1.39276 67 62 133 255 
-8.33056 0.88753 -1.38241 66 64 134 255 
-7.82287 0.837685 -1.37594 68 58 131 255 
-7.3709 0.781317 -1.36039 67 61 132 255 
-6.99579 0.744152 -1.35732 65 66 135 255 
-6.59161 0.702264 -1.34505 66 65 134 255 
-6.22982 0.666001 -1.33516 70 50 126 255 
-5.91682 0.630312 -1.32024 66 65 134 255 
-5.66599 0.604699 -1.31972 65 66 135 255 
-5.41624 0.578953 -1.31679 66 63 133 255 
-5.20356 0.554454 -1.32027 69 56 130 255 
-5.00025 0.537077 -1.31465 66 63 133 255 
-4.82672 0.518536 -1.31712 68 57 131 255 
-4.58897 0.491334 -1.30075 70 52 128 255 
-4.4365 0.471158 -1.30716 70 48 126 255 
-17.8152 1.95189 5.38363 58 83 139 255 
-17.8128 1.93616 5.18186 56 88 140 255 
-17.818 1.93027 4.99387 58 83 139 255 
-17.8179 1.93062 4.81229 57 85 140 255 
-17.8166 1.94261 4.65168 60 79 138 255 
-17.8254 1.94067 4.46397 58 83 139 255 
-17.8078 1.94175 4.27748 60 80 139 255 
-17.7801 1.9422 4.09642 65 68 135 255 
-17.7955 1.93718 3.94881 60 79 138 255 
-17.8041 1.9415 3.76437 55 91 141 255 
-17.7947 1.94974 3.58676 53 95 141 255 
-17.7881 1.95562 3.41371 59 82 139 255 
-17.7553 1.9328 3.25862 55 91 141 255 
-17.7799 1.94201 3.08618 52 97 141 255 
-17.7896 1.95547 2.91146 56 89 140 255 
-17.7731 1.96964 2.7427 55 91 141 255 
-17.7605 1.93649 2.59359 52 97 141 255 
-17.76 1.94297 2.41876 50 101 142 255 
-17.7385 1.95925 2.24502 55 91 141 255 
-17.7299 1.97111 2.07984 62 76 138 255 
-17.7402 1.93429 1.93547 59 82 139 255 
-17.7499 1.95126 1.76661 58 84 140 255 
-17.7297 1.96141 1.59512 60 80 139 255 
-17.7306 1.98057 1.42917 62 76 138 255 
-17.744 1.93783 1.28886 59 82 139 255 
-17.7218 1.95131 1.11858 62 74 137 255 
-6.78056 0.753716 0.363513 68 59 132 255 
-17.7061 1.98408 0.781018 66 65 134 255 
-17.7194 1.9414 0.641169 65 66 135 255 
-17.7209 1.95747 0.473089 66 63 133 255 
-17.708 1.97152 0.304782 66 63 133 255 
-17.6821 1.98764 0.139752 69 55 129 255 
-17.7037 1.9428 -0.00310843 66 63 133 255 
-17.6969 1.96106 -0.170923 67 62 133 255 
-17.6461 1.97087 -0.334729 68 57 131 255 
-17.65 1.99026 -0.50234 68 57 131 255 
-17.701 1.95186 -0.646775 68 57 131 255 
-17.6866 1.96617 -0.811202 68 58 131 255 
-17.6778 1.97753 -0.978937 69 55 129 255 
-17.6519 1.99359 -1.14564 72 41 121 255 
-17.6748 1.95209 -1.29025 70 48 126 255 
-17.6591 1.96935 -1.4546 71 44 122 255 
-16.8533 1.89423 -1.54939 72 20 103 255 
-14.8478 1.67689 -1.50723 72 28 110 255 
-13.3643 1.4831 -1.46549 72 37 118 255 
-12.1607 1.35832 -1.45043 72 35 116 255 
-11.1223 1.25206 -1.4338 72 40 120 255 
-10.2137 1.15713 -1.41536 69 56 130 255 
-9.55477 1.06539 -1.40424 70 52 128 255 
-8.89081 0.996222 -1.39138 67 61 132 255 
-8.3279 0.93896 -1.3829 65 66 135 255 
-7.79311 0.882898 -1.37164 69 56 130 255 
-7.38161 0.828285 -1.36328 66 64 134 255 
-6.94426 0.781791 -1.34823 67 61 132 255 
-6.59497 0.743574 -1.34664 65 68 135 255 
-6.2295 0.704654 -1.336 69 55 129 255 
-5.91478 0.666824 -1.32067 65 68 135 255 
-5.66121 0.639344 -1.31949 62 74 137 255 
-5.42804 0.613923 -1.32055 69 56 130 255 
-5.20103 0.586481 -1.32052 69 56 130 255 
-5.00743 0.568949 -1.31743 67 61 132 255 
-4.77934 0.54313 -1.30507 68 59 132 255 
-4.5897 0.519916 -1.30184 69 53 129 255 
-4.44783 0.499979 -1.31137 70 50 126 255 
-17.8115 2.06216 5.38622 59 82 139 255 
-17.8063 2.04608 5.18352 58 83 139 255 
-17.8221 2.04143 4.99843 56 89 140 255 
-17.7923 2.03837 4.80866 57 86 140 255 
-17.8159 2.05323 4.65469 61 77 138 255 
-17.7948 2.0479 4.45938 61 78 138 255 
-17.8043 2.05198 4.27957 60 80 139 255 
-17.7679 2.05126 4.09642 65 68 135 255 
-17.7736 2.04521 3.94666 62 76 138 255 
-17.7928 2.05082 3.76457 55 90 140 255 
-17.7571 2.05596 3.58165 57 86 140 255 
-17.7641 2.06337 3.41146 56 89 140 255 
-17.7577 2.04339 3.26132 53 95 141 255 
-17.7599 2.05016 3.08482 52 96 141 255 
-17.7439 2.06071 2.906 53 94 141 255 
-17.7322 2.07533 2.73831 55 91 141 255 
-17.7522 2.04589 2.59417 49 103 142 255 
-17.7468 2.05179 2.41862 49 103 142 255 
-17.7419 2.06989 2.24702 53 94 141 255 
-17.7274 2.08102 2.081 61 78 138 255 
-17.7448 2.04504 1.93731 58 83 139 255 
-17.7326 2.05956 1.76612 59 82 139 255 
-17.7203 2.0705 1.59539 61 77 138 255 
-17.7092 2.08828 1.42845 63 72 137 255 
-17.7259 2.04598 1.28843 58 84 140 255 
-17.7135 2.06047 1.11883 62 76 138 255 
-6.77184 0.794841 0.3633 37 133 142 255 
-17.6965 2.09304 0.781149 67 61 132 255 
-17.7191 2.05146 0.641601 66 63 133 255 
-17.7046 2.0657 0.472983 67 62 133 255 
-17.7134 2.08224 0.30509 69 56 130 255 
-17.6854 2.09798 0.139878 68 58 131 255 
-17.6984 2.05219 -0.00310965 66 63 133 255 
-17.6904 2.07031 -0.17098 67 61 132 255 
-17.6218 2.0777 -0.334503 68 57 131 255 
-17.6385 2.09864 -0.502368 71 47 125 255 
-17.6609 2.0572 -0.645758 68 59 132 255 
-17.6732 2.07454 -0.811157 68 57 131 255 
-6.52274 0.77022 -0.361462 71 42 122 255 
-6.54798 0.780242 -0.425279 53 94 141 255 
-6.58888 0.768659 -0.481319 52 97 141 255 
-17.6239 2.07499 -1.45272 69 53 129 255 
-16.8354 1.9969 -1.54885 72 20 103 255 
-14.8066 1.76432 -1.50412 72 32 113 255 
-13.3194 1.56091 -1.46159 72 38 119 255 
-12.1245 1.42965 -1.44714 72 35 116 255 
-11.0839 1.31665 -1.42986 72 36 117 255 
-10.1857 1.21731 -1.4125 70 48 126 255 
-9.53725 1.12273 -1.40265 70 50 126 255 
-8.89532 1.05203 -1.39307 68 59 132 255 
-8.27986 0.985029 -1.3759 65 66 135 255 
-7.77581 0.929296 -1.36957 68 58 131 255 
-7.36271 0.871942 -1.36075 65 68 135 255 
-6.93836 0.824269 -1.34804 68 57 131 255 
-6.56985 0.781595 -1.34247 67 61 132 255 
-6.22992 0.743443 -1.33704 69 56 130 255 
-5.91639 0.703796 -1.32197 67 62 133 255 
-5.63009 0.670842 -1.31317 67 62 133 255 
-5.41549 0.646181 -1.31843 66 63 133 255 
-5.18578 0.617008 -1.31758 69 56 130 255 
-5.00096 0.599318 -1.31667 68 57 131 255 
-4.78645 0.573708 -1.30795 69 56 130 255 
-4.60267 0.550009 -1.30645 70 50 126 255 
-4.45516 0.528505 -1.31447 70 50 126 255 
-17.809 2.17269 5.38939 56 89 140 255 
-17.8259 2.15923 5.19297 55 91 141 255 
-17.7834 2.14763 4.99119 56 88 140 255 
-17.7928 2.14912 4.81229 55 90 140 255 
-17.8 2.16215 4.65394 62 76 138 255 
-17.7829 2.15716 4.45963 58 84 140 255 
-17.7749 2.15919 4.27562 61 77 138 255 
-17.7627 2.16118 4.0982 65 68 135 255 
-17.7694 2.15529 3.9486 61 77 138 255 
-17.778 2.15972 3.76416 58 83 139 255 
-17.7656 2.16749 3.58598 50 100 142 255 
-17.7452 2.17161 3.41034 57 86 140 255 
-17.7449 2.15231 3.26132 53 94 141 255 
-17.7587 2.16052 3.08686 53 95 141 255 
-17.728 2.16919 2.90552 53 94 141 255 
-17.723 2.18457 2.73891 56 89 140 255 
-17.7422 2.15513 2.5946 51 99 141 255 
-17.7447 2.16196 2.4201 50 100 142 255 
-17.7298 2.17884 2.24715 51 98 141 255 
-17.7241 2.19098 2.08216 59 82 139 255 
-17.7349 2.15424 1.93763 59 81 139 255 
-17.7226 2.16869 1.76641 57 85 140 255 
-17.7191 2.18065 1.59646 60 80 139 255 
-17.7168 2.19948 1.43013 61 77 138 255 
-17.71 2.15435 1.28822 58 84 140 255 
-17.6926 2.16815 1.11833 62 74 137 255 
-6.76188 0.835765 0.363034 35 136 142 255 
-6.77712 0.843753 0.299374 60 79 138 255 
-6.77733 0.826832 0.245583 63 71 136 255 
-17.645 2.16857 0.471736 68 57 131 255 
-17.6864 2.18917 0.304851 69 56 130 255 
-6.62833 0.827575 0.0524641 52 96 141 255 
-6.67735 0.815815 -0.00117408 48 105 142 255 
-6.69205 0.824823 -0.0647272 50 101 142 255 
-6.7103 0.832956 -0.127472 49 103 142 255 
-6.69304 0.838024 -0.19077 59 81 139 255 
-6.64574 0.81548 -0.243176 70 50 126 255 
-6.53146 0.807343 -0.3 58 84 140 255 
-6.55852 0.815278 -0.363715 44 113 142 255 
-6.56683 0.823384 -0.426823 62 73 137 255 
-6.62264 0.813817 -0.484141 63 71 136 255 
-6.68826 0.829096 -0.551716 71 47 125 255 
-6.67912 0.833821 -0.614935 69 56 130 255 
-6.67855 0.837392 -0.678947 68 57 131 255 
-13.283 1.63932 -1.45867 72 35 116 255 
-12.0879 1.5006 -1.44384 72 32 113 255 
-11.048 1.38119 -1.4263 72 31 112 255 
-10.1702 1.2788 -1.41141 70 50 126 255 
-9.48206 1.17526 -1.39557 70 50 126 255 
-8.89459 1.10733 -1.39399 66 64 134 255 
-8.26582 1.03483 -1.3746 66 65 134 255 
-7.77094 0.977113 -1.36974 67 61 132 255 
-7.34551 0.915643 -1.35859 63 72 137 255 
-6.74513 0.843317 -1.31148 69 56 130 255 
-6.55812 0.82104 -1.34108 69 55 129 255 
-6.23106 0.782386 -1.33829 70 52 128 255 
-5.88677 0.736932 -1.31634 65 68 135 255 
-5.63167 0.706102 -1.31453 69 55 129 255 
-5.37188 0.674433 -1.3088 67 61 132 255 
-5.1665 0.646889 -1.31367 69 56 130 255 
-4.98951 0.629024 -1.31465 67 61 132 255 
-4.77901 0.602584 -1.3069 68 59 132 255 
-4.58488 0.576439 -1.30238 70 52 128 255 
-4.4566 0.556425 -1.31587 71 46 124 255 
-17.7867 2.28082 5.3868 59 82 139 255 
-17.8066 2.26783 5.1913 56 88 140 255 
-17.7804 2.25804 4.99414 56 89 140 255 
-17.7822 2.25862 4.81307 55 90 140 255 
-17.7778 2.27023 4.65168 61 77 138 255 
-17.7606 2.26513 4.45745 59 82 139 255 
-17.7903 2.27191 4.28259 59 82 139 255 
-17.7327 2.26803 4.09441 63 71 136 255 
-17.7597 2.26478 3.94946 60 79 138 255 
-17.7663 2.26901 3.76457 56 89 140 255 
-17.7578 2.27721 3.58716 51 98 141 255 
-17.7287 2.28008 3.40978 57 85 140 255 
-17.743 2.26265 3.26347 53 95 141 255 
-17.7392 2.2687 3.08584 53 94 141 255 
-17.7329 2.28032 2.90857 53 94 141 255 
-17.7132 2.29379 2.73952 56 88 140 255 
-17.7365 2.26496 2.59575 52 97 141 255 
-17.7331 2.27105 2.42037 50 101 142 255 
-17.7033 2.28593 2.24552 52 96 141 255 
-17.7054 2.29905 2.08158 61 77 138 255 
-17.7292 2.26402 1.93849 57 86 140 255 
-17.711 2.27765 1.76661 59 82 139 255 
-17.7083 2.28972 1.59672 58 83 139 255 
-17.6881 2.30621 1.42893 61 78 138 255 
-17.6925 2.26247 1.28793 60 79 138 255 
-6.78749 0.874083 0.42936 48 105 142 255 
-6.77742 0.879939 0.364151 33 145 140 255 
-6.77578 0.885839 0.299549 44 114 142 255 
-6.76519 0.867512 0.245332 45 113 142 255 
-6.71684 0.867368 0.179713 70 48 126 255 
-6.61535 0.860071 0.114114 50 102 142 255 
