ply
format ascii 1.0
comment VTK generated PLY File
obj_info vtkPolyData points and polygons: vtk4.0
element vertex 1244
property float x
property float y
property float z
property uchar red
property uchar green
property uchar blue
property uchar alpha
element face 0
property list uchar int vertex_indices
end_header
8.05314 3.33501 -0.949981 60 79 138 255 
7.55772 3.12352 -0.969348 59 81 139 255 
7.13256 2.9406 -0.988309 59 81 139 255 
6.71987 2.76486 -1.00055 56 89 140 255 
6.36609 2.63246 -1.00621 56 89 140 255 
6.03714 2.49262 -1.0158 56 88 140 255 
5.76537 2.37576 -1.02896 53 94 141 255 
5.44387 2.23986 -1.0295 56 89 140 255 
5.21692 2.15301 -1.03582 51 99 141 255 
5.01636 2.06808 -1.04684 49 104 142 255 
4.81236 1.98305 -1.05612 61 78 138 255 
4.62514 1.90394 -1.06588 62 76 138 255 
4.46257 1.83896 -1.07092 61 78 138 255 
4.30043 1.77117 -1.07716 62 76 138 255 
4.12109 1.69651 -1.07735 66 63 133 255 
3.97773 1.63905 -1.08543 65 66 135 255 
3.81916 1.56993 -1.07944 62 73 137 255 
3.71249 1.52599 -1.08904 66 65 134 255 
3.59155 1.47779 -1.09458 63 72 137 255 
3.46168 1.42782 -1.09712 68 59 132 255 
11.1292 4.54717 3.61143 68 59 132 255 
9.49585 3.88934 2.96765 69 55 129 255 
14.4586 5.92805 4.35424 66 64 134 255 
25.0478 10.269 7.26887 71 16 99 255 
12.4485 5.09381 3.49102 71 19 101 255 
14.463 5.92083 3.8907 67 61 132 255 
24.69 10.1028 6.37012 71 19 101 255 
10.6689 4.36314 2.63993 71 16 99 255 
10.8609 4.4464 2.58888 72 22 104 255 
11.1803 4.57471 2.53906 57 85 140 255 
10.9983 4.49362 2.3805 55 90 140 255 
23.9323 9.76788 4.93094 72 31 112 255 
24.1197 9.87449 4.7552 72 31 112 255 
23.6774 9.68338 4.414 72 27 109 255 
24.6406 10.0575 4.32962 72 26 108 255 
24.1237 9.82151 3.99497 72 28 110 255 
23.8605 9.76349 3.74263 72 32 113 255 
25.7316 10.5183 3.76343 71 17 100 255 
24.2325 9.87612 3.29184 72 23 105 255 
23.1621 9.42061 2.91525 72 35 116 255 
23.4345 9.58919 2.74622 71 13 96 255 
23.278 9.50106 2.48737 72 23 105 255 
27.1572 11.0626 2.62226 71 19 101 255 
25.3432 10.2923 2.19119 72 27 109 255 
25.2138 10.3121 1.967 72 37 118 255 
26.322 10.7382 1.78356 72 24 106 255 
0 0 0 68 2 86 255 
46.5922 18.9029 2.2041 69 5 89 255 
46.3945 18.9559 1.80269 70 8 92 255 
46.4573 18.9335 1.3312 70 7 90 255 
46.2081 18.7854 0.853254 69 5 89 255 
0 0 0 68 2 86 255 
14.5773 5.95305 -0.0027482 72 36 117 255 
14.4931 5.90072 -0.150217 70 50 126 255 
14.4352 5.86259 -0.293715 72 32 113 255 
14.175 5.73944 -0.432511 72 20 103 255 
14.1646 5.77586 -0.555566 72 24 106 255 
14.8657 6.04638 -0.731557 72 32 113 255 
13.0782 5.30883 -0.776776 67 62 133 255 
11.9831 4.84948 -0.833695 72 40 120 255 
10.9559 4.46524 -0.858427 67 62 133 255 
10.179 4.13601 -0.899455 61 78 138 255 
9.42212 3.81898 -0.928817 67 62 133 255 
8.61878 3.48798 -0.93788 68 58 131 255 
8.06977 3.28403 -0.949548 59 81 139 255 
7.57491 3.07634 -0.969112 58 84 140 255 
7.14771 2.89566 -0.987927 55 90 140 255 
6.73212 2.72172 -0.999865 60 79 138 255 
6.39954 2.60043 -1.00896 58 84 140 255 
6.04225 2.45144 -1.01411 60 80 139 255 
5.79172 2.34515 -1.03107 54 92 141 255 
5.46664 2.21011 -1.03123 54 93 141 255 
5.23642 2.12354 -1.03708 51 98 141 255 
5.03987 2.04169 -1.04911 50 102 142 255 
4.80718 1.94649 -1.05234 62 76 138 255 
4.61679 1.86745 -1.06129 62 76 138 255 
4.47015 1.81008 -1.07005 57 85 140 255 
4.29316 1.73744 -1.07265 62 73 137 255 
4.1125 1.66354 -1.07241 66 65 134 255 
3.97962 1.61134 -1.08322 65 66 135 255 
3.83051 1.54719 -1.07994 64 70 136 255 
3.74147 1.51114 -1.0948 66 65 134 255 
3.60769 1.45861 -1.09675 66 65 134 255 
3.46593 1.40475 -1.09572 66 65 134 255 
14.3965 5.7793 4.66008 72 31 112 255 
11.2333 4.52067 3.50189 62 74 137 255 
11.211 4.51638 3.36781 66 65 134 255 
14.7356 5.93593 4.26563 72 28 110 255 
25.6272 10.3033 7.16895 71 14 97 255 
11.096 4.46316 2.97751 66 65 134 255 
25.0773 10.0821 6.45396 72 23 105 255 
25.5668 10.2732 6.31061 71 17 100 255 
10.8735 4.37385 2.58544 62 74 137 255 
10.9158 4.38848 2.47283 72 27 109 255 
11.0994 4.45564 2.39641 57 86 140 255 
23.9261 9.59453 4.91745 72 22 104 255 
23.7974 9.57249 4.68 72 29 111 255 
23.772 9.55224 4.42064 72 33 115 255 
24.504 9.82675 4.29493 71 13 96 255 
23.8072 9.52279 3.93281 72 31 112 255 
24.0944 9.68705 3.76992 72 33 115 255 
24.2002 9.71941 3.53067 72 24 106 255 
24.2954 9.72835 3.29221 72 24 106 255 
23.2831 9.30374 2.92324 72 41 121 255 
23.04 9.26313 2.69327 72 32 113 255 
23.3552 9.36583 2.48944 72 29 111 255 
27.4992 11.0057 2.64871 71 14 97 255 
25.6142 10.2197 2.20916 72 28 110 255 
25.1979 10.1256 1.96088 72 32 113 255 
26.4208 10.5898 1.78582 72 24 106 255 
0 0 0 68 2 86 255 
46.2962 18.4528 2.1847 69 5 89 255 
0 0 0 69 4 87 255 
0 0 0 68 2 86 255 
0 0 0 68 2 86 255 
0 0 0 69 4 87 255 
14.5486 5.83742 -0.00273598 72 29 111 255 
14.4956 5.79831 -0.149872 70 50 126 255 
14.3808 5.73797 -0.291887 72 36 117 255 
19.2646 7.66295 -0.58636 72 28 110 255 
14.2535 5.71039 -0.557671 72 28 110 255 
15.1437 6.05143 -0.743397 71 46 124 255 
13.1986 5.26362 -0.781996 72 38 119 255 
12.0061 4.77328 -0.833245 71 42 122 255 
10.9905 4.4009 -0.859006 69 55 129 255 
10.1866 4.06646 -0.897905 62 73 137 255 
9.44815 3.7622 -0.92909 65 66 135 255 
8.66406 3.44459 -0.94049 66 64 134 255 
8.08238 3.2315 -0.948681 60 79 138 255 
7.60194 3.03312 -0.970172 58 83 139 255 
7.17917 2.85725 -0.989833 59 81 139 255 
6.74501 2.6789 -0.999319 57 85 140 255 
6.40527 2.55708 -1.00737 54 92 141 255 
6.07462 2.42127 -1.01703 60 80 139 255 
5.78217 2.30009 -1.02684 54 92 141 255 
5.492 2.18125 -1.03347 56 88 140 255 
5.26122 2.09611 -1.03943 50 101 142 255 
5.05048 2.01 -1.04873 49 103 142 255 
4.85182 1.93 -1.0595 61 78 138 255 
4.61998 1.83584 -1.05942 65 66 135 255 
4.46756 1.7772 -1.0668 60 80 139 255 
4.29288 1.70675 -1.06994 62 76 138 255 
4.11811 1.63648 -1.07124 62 73 137 255 
3.97502 1.58116 -1.07931 64 69 136 255 
3.84533 1.5258 -1.08146 65 68 135 255 
3.74709 1.48673 -1.09376 65 66 135 255 
3.6282 1.44106 -1.10028 64 70 136 255 
3.48251 1.38666 -1.09825 65 68 135 255 
14.5911 5.75375 4.71158 72 31 112 255 
12.2855 4.85674 3.82055 72 36 117 255 
11.1785 4.42376 3.34983 72 35 116 255 
11.2614 4.45628 3.25193 66 65 134 255 
14.3484 5.66669 4.00402 72 38 119 255 
14.5535 5.75039 3.89577 71 47 125 255 
24.6384 9.73045 6.32553 72 20 103 255 
24.477 9.66123 6.02686 72 24 106 255 
10.9265 4.31745 2.59168 66 64 134 255 
10.9443 4.32214 2.47324 70 51 127 255 
23.6987 9.345 5.10422 72 35 116 255 
23.9599 9.43782 4.91239 72 20 103 255 
23.9152 9.44979 4.69166 72 23 105 255 
25.3325 9.9992 4.69933 71 14 97 255 
23.6041 9.29818 4.12714 72 24 106 255 
23.5681 9.25979 3.88384 72 37 118 255 
23.8791 9.43069 3.72711 72 31 112 255 
24.2299 9.5591 3.52637 72 24 106 255 
24.0998 9.47886 3.25776 72 20 103 255 
23.6347 9.27647 2.96018 72 35 116 255 
23.6845 9.35385 2.76185 71 16 99 255 
26.139 10.2965 2.77938 71 16 99 255 
23.5923 9.27451 2.26687 72 24 106 255 
25.6151 10.0383 2.20389 72 24 106 255 
24.8096 9.79321 1.92595 72 31 112 255 
0 0 0 68 2 86 255 
46.0384 18.0706 2.63526 70 7 90 255 
57.6483 22.5686 2.71381 69 5 89 255 
0 0 0 69 4 87 255 
0 0 0 68 1 84 255 
0 0 0 68 1 84 255 
75.5811 29.5587 0.637407 69 4 87 255 
14.5748 5.74438 -0.00273423 72 41 121 255 
14.5058 5.69938 -0.149613 72 26 108 255 
25.7139 10.0775 -0.52065 70 10 93 255 
19.369 7.56715 -0.588113 72 32 113 255 
17.4175 6.85425 -0.679803 72 32 113 255 
14.9165 5.85474 -0.730464 72 38 119 255 
13.2428 5.18727 -0.78271 72 37 118 255 
12.0286 4.69699 -0.832794 72 40 120 255 
11.0117 4.33119 -0.858572 70 52 128 255 
10.2207 4.00751 -0.898721 61 77 138 255 
9.48312 3.70887 -0.930273 64 70 136 255 
8.69986 3.39715 -0.942095 69 56 130 255 
8.08818 3.1764 -0.947056 60 80 139 255 
7.62503 2.98823 -0.97076 58 83 139 255 
7.22705 2.82506 -0.994026 59 82 139 255 
6.76224 2.63783 -0.999456 62 76 138 255 
6.40978 2.51339 -1.00563 56 89 140 255 
6.08568 2.38251 -1.01641 59 81 139 255 
5.80536 2.26815 -1.02847 54 93 141 255 
5.5062 2.14787 -1.03364 58 83 139 255 
5.27124 2.06271 -1.03889 51 98 141 255 
5.04443 1.97182 -1.04494 49 103 142 255 
4.86357 1.9002 -1.0595 60 79 138 255 
4.64209 1.81173 -1.06192 65 68 135 255 
4.4802 1.75047 -1.06724 62 73 137 255 
4.33866 1.6942 -1.07874 56 88 140 255 
4.15886 1.62319 -1.07923 64 69 136 255 
3.98916 1.5585 -1.08053 64 69 136 255 
3.85462 1.50217 -1.08146 66 64 134 255 
3.75254 1.46231 -1.09271 66 64 134 255 
3.62891 1.41562 -1.09784 64 70 136 255 
3.46503 1.35513 -1.09009 65 68 135 255 
9.67844 3.74806 3.11775 60 80 139 255 
14.4544 5.61186 4.48426 72 28 110 255 
9.63328 3.74405 2.87983 59 82 139 255 
11.2993 4.39129 3.25504 72 38 119 255 
11.2885 4.37834 3.14257 62 74 137 255 
11.3019 4.38563 3.0181 71 47 125 255 
14.6118 5.66726 3.74236 72 29 111 255 
24.5358 9.51086 6.02686 72 20 103 255 
24.5747 9.53648 5.81497 72 27 109 255 
10.9761 4.25703 2.47447 72 29 111 255 
23.6148 9.14489 5.07396 72 26 108 255 
25.0315 9.68294 5.11982 71 19 101 255 
24.3662 9.45555 4.76867 71 19 101 255 
23.8636 9.25054 4.41621 72 41 121 255 
23.1554 8.95766 4.03899 72 38 119 255 
23.5571 9.08903 3.87277 72 29 111 255 
23.9411 9.28579 3.72783 72 33 115 255 
24.7566 9.59176 3.59439 72 26 108 255 
24.1834 9.34082 3.26126 72 24 106 255 
23.7514 9.15449 2.96771 72 36 117 255 
23.5032 9.11595 2.73414 72 36 117 255 
23.8647 9.23183 2.53148 72 22 104 255 
23.6423 9.12707 2.26625 72 23 105 255 
23.7561 9.14203 2.03907 70 11 94 255 
24.1578 9.36501 1.87086 71 19 101 255 
24.8098 9.59248 1.66885 70 11 94 255 
51.9207 20.0127 2.96488 69 5 89 255 
0 0 0 69 4 87 255 
0 0 0 68 2 86 255 
0 0 0 68 1 84 255 
0 0 0 68 2 86 255 
80.7534 31.0116 0.67941 69 4 87 255 
46.0042 17.8063 -0.00860971 70 7 90 255 
36.7589 14.183 -0.378226 69 5 89 255 
25.6101 9.85593 -0.517314 71 14 97 255 
19.4281 7.45317 -0.588508 72 29 111 255 
17.559 6.78579 -0.683687 72 33 115 255 
15.7351 6.0649 -0.768716 71 42 122 255 
13.3247 5.12528 -0.785678 72 38 119 255 
12.1057 4.64167 -0.836141 72 38 119 255 
11.0334 4.26174 -0.85821 67 61 132 255 
10.2469 3.94544 -0.898884 64 69 136 255 
9.52615 3.65847 -0.932274 67 62 133 255 
8.71311 3.34085 -0.941293 68 59 132 255 
8.10288 3.12492 -0.946514 61 78 138 255 
7.66176 2.94852 -0.973114 57 85 140 255 
7.21925 2.77107 -0.990596 57 85 140 255 
6.80143 2.60514 -1.00287 62 76 138 255 
6.43617 2.47828 -1.00737 55 90 140 255 
6.09834 2.34442 -1.0161 61 78 138 255 
5.81641 2.23143 -1.02798 53 95 141 255 
5.4972 2.10559 -1.0295 57 86 140 255 
5.29573 2.03491 -1.04123 53 94 141 255 
5.0656 1.94435 -1.04684 50 100 142 255 
4.83671 1.85557 -1.05115 62 74 137 255 
4.6586 1.78531 -1.06317 65 68 135 255 
4.4945 1.72434 -1.0681 66 64 134 255 
4.34897 1.66754 -1.07874 57 85 140 255 
4.18327 1.60321 -1.08299 61 77 138 255 
4.00951 1.53816 -1.08347 63 72 137 255 
3.86196 1.4778 -1.08095 63 72 137 255 
3.77496 1.44443 -1.09664 66 64 134 255 
3.60517 1.38094 -1.08807 66 64 134 255 
3.48314 1.33762 -1.09319 66 64 134 255 
9.64397 3.66682 3.09934 65 66 135 255 
9.69616 3.69619 3.00099 51 99 141 255 
9.65337 3.68384 2.87902 69 56 130 255 
9.69371 3.69901 2.78593 69 55 129 255 
14.6303 5.57148 4.06331 72 35 116 255 
10.2087 3.88952 2.71974 69 56 130 255 
11.1359 4.24067 2.84538 68 58 131 255 
11.3403 4.31601 2.77902 69 55 129 255 
24.9394 9.50233 5.88735 71 19 101 255 
24.5411 9.34528 5.51953 72 36 117 255 
24.6081 9.3563 5.27494 72 23 105 255 
23.6487 8.98161 4.82563 72 29 111 255 
24.0358 9.15805 4.69292 72 29 111 255 
14.6667 5.58218 2.70785 72 37 118 255 
23.3132 8.85467 4.05697 72 41 121 255 
23.1983 8.78745 3.80485 72 37 118 255 
23.2217 8.84322 3.60729 72 26 108 255 
24.74 9.41114 3.58352 72 27 109 255 
24.077 9.13034 3.23929 72 36 117 255 
23.8443 9.02264 2.97234 72 35 116 255 
23.7417 9.04127 2.75538 72 38 119 255 
23.7674 9.02692 2.51524 72 29 111 255 
24.185 9.16645 2.31283 72 20 103 255 
23.7875 8.98693 2.037 71 13 96 255 
24.8012 9.43977 1.91616 72 29 111 255 
24.829 9.42519 1.66622 71 16 99 255 
51.8912 19.6365 2.95626 69 5 89 255 
55.2225 20.8411 2.58738 69 4 87 255 
0 0 0 68 2 86 255 
80.4516 30.5076 2.28314 69 4 87 255 
80.5067 30.4489 1.47235 69 4 87 255 
0 0 0 68 2 86 255 
46.6959 17.7453 -0.00871862 69 5 89 255 
37.0388 14.0305 -0.380213 70 8 92 255 
25.4082 9.59966 -0.512037 70 8 92 255 
19.2443 7.24751 -0.581582 72 26 108 255 
17.6442 6.69459 -0.685392 72 33 115 255 
16.0056 6.05662 -0.7801 70 51 127 255 
13.354 5.04272 -0.785568 72 37 118 255 
12.1367 4.56836 -0.836334 72 41 121 255 
11.0668 4.19679 -0.858789 68 59 132 255 
10.3064 3.89588 -0.901984 62 73 137 255 
9.54469 3.59854 -0.93191 66 64 134 255 
8.73345 3.28733 -0.941293 66 63 133 255 
8.14235 3.08289 -0.948898 62 73 137 255 
7.68807 2.90461 -0.974174 59 82 139 255 
7.23611 2.72672 -0.990596 59 81 139 255 
6.80986 2.56057 -1.00177 65 68 135 255 
6.44385 2.43594 -1.00621 54 93 141 255 
6.10522 2.30416 -1.01487 55 90 140 255 
5.82814 2.195 -1.02765 55 90 140 255 
5.51647 2.07424 -1.03071 60 79 138 255 
5.29892 1.99891 -1.03943 52 97 141 255 
5.08662 1.91669 -1.04873 49 104 142 255 
4.85259 1.82759 -1.05214 62 74 137 255 
4.66947 1.75669 -1.06317 63 71 136 255 
4.50865 1.69811 -1.06897 62 74 137 255 
4.32995 1.62985 -1.07152 59 81 139 255 
4.19848 1.57957 -1.0844 59 82 139 255 
4.03067 1.51797 -1.08665 61 77 138 255 
3.89631 1.4636 -1.08803 62 73 137 255 
3.76298 1.41343 -1.09061 64 69 136 255 
3.61447 1.35913 -1.08835 66 63 133 255 
3.50655 1.32198 -1.09797 66 65 134 255 
11.3307 4.22876 3.63301 66 64 134 255 
8.36819 3.13129 2.58398 62 76 138 255 
9.70917 3.63704 2.88896 51 98 141 255 
9.86817 3.69637 2.82949 48 106 142 255 
14.6878 5.49042 4.06984 71 44 122 255 
10.1078 3.78024 2.68665 49 103 142 255 
11.4714 4.28805 2.92435 72 29 111 255 
11.3866 4.25385 2.78393 65 68 135 255 
11.4074 4.26646 2.68668 57 85 140 255 
11.397 4.2601 2.55737 72 32 113 255 
14.6585 5.47062 3.13491 72 37 118 255 
14.3593 5.353 2.92334 69 55 129 255 
15.0929 5.64485 2.94003 71 45 123 255 
14.7395 5.50657 2.71499 69 55 129 255 
23.3394 8.70111 4.05215 71 45 123 255 
23.2648 8.64977 3.80697 72 37 118 255 
23.1791 8.66453 3.59235 72 36 117 255 
27.4254 10.2405 3.96333 70 8 92 255 
23.9429 8.91183 3.21383 72 35 116 255 
23.7968 8.83813 2.9596 72 29 111 255 
23.7167 8.86548 2.74611 72 22 104 255 
25.7758 9.60918 2.72149 71 13 96 255 
24.0232 8.93696 2.29208 72 23 105 255 
24.5731 9.11182 2.09944 70 11 94 255 
24.8409 9.28078 1.91479 71 17 100 255 
27.1964 10.1334 1.82088 71 17 100 255 
27.1778 10.0943 1.54477 72 24 106 255 
27.1823 10.0686 1.27068 70 11 94 255 
27.2221 10.1596 1.04513 71 13 96 255 
27.2635 10.1475 0.77193 71 19 101 255 
27.2685 10.1226 0.497555 71 19 101 255 
27.2618 10.0872 0.228305 72 20 103 255 
27.2893 10.1793 -0.00508345 71 17 100 255 
27.3213 10.1582 -0.279816 72 20 103 255 
25.7535 9.54995 -0.517804 70 8 92 255 
19.3915 7.16742 -0.584692 72 24 106 255 
17.6054 6.55655 -0.682307 72 35 116 255 
16.0088 5.94578 -0.778461 70 50 126 255 
13.4072 4.96901 -0.786887 72 35 116 255 
12.1655 4.49415 -0.836398 69 55 129 255 
11.0924 4.12881 -0.858789 67 61 132 255 
10.3189 3.82841 -0.901005 59 81 139 255 
9.55725 3.53645 -0.931 66 64 134 255 
8.76652 3.23851 -0.942698 67 62 133 255 
8.17696 3.03876 -0.950739 62 76 138 255 
7.70761 2.85807 -0.974409 59 82 139 255 
7.25829 2.68433 -0.991358 59 81 139 255 
6.79385 2.50708 -0.997137 63 71 136 255 
6.45774 2.39602 -1.00607 57 86 140 255 
6.1248 2.26872 -1.0158 57 86 140 255 
5.85631 2.16467 -1.03026 50 101 142 255 
5.53834 2.04377 -1.03243 59 81 139 255 
5.33322 1.97455 -1.04376 52 96 141 255 
5.12039 1.89362 -1.05328 53 94 141 255 
4.88393 1.80525 -1.05652 57 86 140 255 
4.68016 1.72801 -1.06317 63 72 137 255 
4.51075 1.66736 -1.06702 62 73 137 255 
4.34444 1.60493 -1.07265 61 78 138 255 
4.19168 1.54772 -1.08017 62 76 138 255 
4.05264 1.49792 -1.09007 62 73 137 255 
3.9261 1.44737 -1.09385 61 77 138 255 
3.78063 1.39366 -1.09323 63 72 137 255 
3.62997 1.33959 -1.09052 67 62 133 255 
3.51369 1.30011 -1.09768 66 64 134 255 
9.74669 3.5696 3.11804 55 90 140 255 
8.3629 3.07095 2.57648 63 72 137 255 
9.80002 3.60266 2.90936 49 103 142 255 
9.86165 3.62509 2.82119 51 99 141 255 
10.0759 3.69613 2.78558 57 86 140 255 
14.6219 5.36643 3.87765 72 29 111 255 
14.6872 5.38763 3.73563 72 27 109 255 
24.9373 9.14217 6.08312 71 14 97 255 
11.4389 4.1984 2.68797 72 37 118 255 
11.4486 4.19953 2.56313 59 82 139 255 
11.4978 4.21086 2.45339 61 78 138 255 
14.2785 5.22328 2.90029 71 47 125 255 
14.5621 5.34469 2.83018 69 56 130 255 
14.5944 5.35056 2.68217 63 71 136 255 
23.7974 8.70593 4.12232 72 32 113 255 
23.4855 8.56817 3.83442 72 37 118 255 
23.3331 8.55929 3.60801 72 31 112 255 
25.4891 9.33969 3.67516 71 13 96 255 
23.9216 8.73718 3.20372 72 26 108 255 
23.8534 8.69297 2.95995 72 22 104 255 
23.7277 8.70405 2.74115 72 22 104 255 
25.4726 9.31853 2.68339 71 16 99 255 
25.0928 9.15997 2.38872 72 29 111 255 
25.0032 9.0972 2.13138 72 20 103 255 
24.9077 9.13196 1.91558 72 31 112 255 
27.0228 9.88029 1.80517 71 19 101 255 
27.2336 9.92531 1.54445 71 19 101 255 
27.3197 9.92923 1.27422 71 19 101 255 
27.2746 9.98897 1.04477 72 22 104 255 
27.2764 9.96223 0.770551 71 17 100 255 
27.2935 9.94174 0.496888 71 14 97 255 
27.3175 9.91767 0.228258 70 8 92 255 
27.3419 10.0082 -0.0050817 71 19 101 255 
27.3963 9.99517 -0.27995 71 13 96 255 
26.21 9.5367 -0.525796 70 7 90 255 
19.3985 7.03501 -0.583589 72 23 105 255 
17.5805 6.42474 -0.679803 72 33 115 255 
15.9342 5.80708 -0.773087 70 48 126 255 
13.4158 4.8788 -0.785623 72 36 117 255 
12.2585 4.44322 -0.840903 69 55 129 255 
11.1531 4.07367 -0.861539 66 64 134 255 
10.3394 3.764 -0.90076 61 77 138 255 
9.59 3.48182 -0.932092 64 70 136 255 
8.78342 3.18364 -0.942397 69 55 129 255 
8.20946 2.99364 -0.952365 60 80 139 255 
7.71474 2.80699 -0.973114 61 77 138 255 
7.27369 2.63941 -0.991231 60 79 138 255 
6.82308 2.4704 -0.999183 63 72 137 255 
6.47604 2.3577 -1.00664 57 86 140 255 
6.15811 2.23818 -1.01902 58 84 140 255 
5.8667 2.12769 -1.02977 54 92 141 255 
5.56837 2.01612 -1.0357 56 89 140 255 
5.34246 1.94079 -1.04322 51 98 141 255 
5.13191 1.86217 -1.05328 54 93 141 255 
4.89768 1.77626 -1.05711 63 72 137 255 
4.69435 1.70059 -1.064 63 72 137 255 
4.53099 1.64332 -1.0694 62 74 137 255 
4.37527 1.58588 -1.07784 59 81 139 255 
4.18648 1.51667 -1.07641 61 78 138 255 
4.05538 1.47071 -1.08836 60 79 138 255 
3.90943 1.41404 -1.08677 62 74 137 255 
3.8 1.37437 -1.09638 65 66 135 255 
3.66527 1.32712 -1.09865 65 66 135 255 
3.52972 1.28147 -1.10022 66 63 133 255 
8.36687 3.00617 2.67067 72 36 117 255 
8.44304 3.04172 2.59537 60 79 138 255 
9.84913 3.55226 2.91741 57 85 140 255 
10.1445 3.65855 2.89562 56 88 140 255 
14.7204 5.29764 4.06055 71 44 122 255 
12.2926 4.42616 3.25268 72 40 120 255 
10.4845 3.77314 2.66074 70 51 127 255 
12.0287 4.32625 2.9277 71 42 122 255 
11.6335 4.18901 2.72761 72 28 110 255 
14.697 5.28899 3.28305 64 69 136 255 
11.5077 4.13459 2.45005 70 50 126 255 
11.5153 4.13254 2.33383 66 64 134 255 
11.5069 4.1434 2.23141 71 47 125 255 
14.525 5.22422 2.66347 68 57 131 255 
24.418 8.76346 4.22043 72 23 105 255 
23.9266 8.56312 3.89779 72 35 116 255 
15.1034 5.43549 2.33025 66 65 134 255 
15.178 5.4561 2.18357 72 32 113 255 
23.9682 8.58789 3.20285 72 35 116 255 
23.8923 8.54143 2.95821 72 29 111 255 
23.8293 8.5758 2.74676 72 27 109 255 
26.2177 9.40912 2.75575 71 19 101 255 
25.0857 8.98333 2.38275 72 22 104 255 
24.9731 8.91312 2.12412 72 26 108 255 
24.9041 8.95769 1.91104 72 37 118 255 
25.0547 8.98679 1.66998 71 13 96 255 
27.263 9.74693 1.5427 71 19 101 255 
0 0 0 68 2 86 255 
27.2959 9.80724 1.04326 69 4 87 255 
0 0 0 69 4 87 255 
52.9491 18.9197 0.961826 70 7 90 255 
52.9715 18.8643 0.441641 69 5 89 255 
52.8658 18.984 -0.00980369 70 7 90 255 
38.2229 13.6799 -0.389716 70 10 93 255 
26.1945 9.34949 -0.524326 70 8 92 255 
20.0101 7.1182 -0.600665 72 23 105 255 
17.6158 6.3154 -0.679658 72 35 116 255 
16.2244 5.80033 -0.785428 70 52 128 255 
13.4352 4.7927 -0.785018 72 36 117 255 
12.2404 4.35187 -0.837814 69 53 129 255 
11.191 4.00987 -0.862552 66 65 134 255 
10.3679 3.7025 -0.90125 61 77 138 255 
9.60274 3.41991 -0.931273 66 64 134 255 
8.78498 3.12335 -0.94049 70 52 128 255 
8.22861 2.94354 -0.952473 60 79 138 255 
7.72901 2.7586 -0.972761 62 74 137 255 
7.29349 2.59606 -0.991739 59 81 139 255 
6.85211 2.43346 -1.00123 62 73 137 255 
6.48759 2.31692 -1.00621 56 88 140 255 
6.18289 2.20434 -1.02087 60 80 139 255 
5.8722 2.08901 -1.02847 50 100 142 255 
5.57785 1.98092 -1.03519 58 84 140 255 
5.35056 1.90665 -1.0425 52 96 141 255 
5.12752 1.82505 -1.05006 55 91 141 255 
4.91034 1.74683 -1.05751 60 80 139 255 
4.7176 1.67634 -1.06692 64 69 136 255 
4.54559 1.61712 -1.07049 62 74 137 255 
4.39593 1.56292 -1.08055 58 83 139 255 
4.19937 1.49226 -1.07735 61 77 138 255 
4.06798 1.4471 -1.08934 61 78 138 255 
3.908 1.38646 -1.08399 59 81 139 255 
3.81382 1.35296 -1.09795 63 71 136 255 
3.69511 1.31234 -1.10516 64 69 136 255 
3.55198 1.26494 -1.10471 68 59 132 255 
9.70485 3.41981 3.09099 55 91 141 255 
11.1734 3.94807 3.42716 72 36 117 255 
9.93159 3.51328 2.93539 69 56 130 255 
10.1585 3.59334 2.89329 69 55 129 255 
10.1177 3.57124 2.78483 56 88 140 255 
10.2041 3.60357 2.69414 70 51 127 255 
12.3244 4.35006 3.12084 72 22 104 255 
12.0596 4.25398 2.92882 68 59 132 255 
11.8975 4.20177 2.7834 65 66 135 255 
14.7319 5.19969 3.28366 72 36 117 255 
14.753 5.19858 3.13412 70 48 126 255 
14.8817 5.23779 3.00953 71 46 124 255 
11.5571 4.08157 2.23625 62 73 137 255 
11.5932 4.08957 2.12122 69 53 129 255 
14.728 5.18401 2.54006 72 31 112 255 
15.0746 5.29095 2.45041 71 42 122 255 
15.1589 5.35062 2.3337 66 64 134 255 
23.7196 8.3626 3.40496 72 29 111 255 
24.086 8.46369 3.21158 72 28 110 255 
23.9489 8.39631 2.95879 71 16 99 255 
27.937 9.86091 3.21321 71 16 99 255 
25.5362 8.98806 2.67827 72 22 104 255 
25.1469 8.83155 2.38337 72 32 113 255 
24.9662 8.73831 2.11893 72 31 112 255 
24.9163 8.78979 1.9078 72 22 104 255 
26.9443 9.47838 1.79202 69 5 89 255 
27.1338 9.51339 1.53205 70 7 90 255 
0 0 0 68 2 86 255 
0 0 0 68 2 86 255 
59.6862 20.9728 1.67872 69 4 87 255 
78.8905 27.6444 1.42995 69 4 87 255 
78.8052 27.5206 0.655604 69 4 87 255 
54.3178 19.1299 -0.010051 69 5 89 255 
37.9975 13.3368 -0.386578 70 7 90 255 
26.5996 9.31047 -0.531281 70 11 94 255 
20.2611 7.06772 -0.606884 72 24 106 255 
17.3393 6.09648 -0.667535 72 28 110 255 
16.2003 5.67985 -0.782559 71 46 124 255 
13.4756 4.71413 -0.785678 72 33 115 255 
12.3008 4.28851 -0.840131 68 58 131 255 
11.2201 3.94278 -0.862914 66 65 134 255 
10.3867 3.6375 -0.900924 61 77 138 255 
9.61979 3.35961 -0.930909 66 65 134 255 
8.84437 3.08347 -0.944805 68 57 131 255 
8.25027 2.89432 -0.952906 61 78 138 255 
7.74766 2.71178 -0.972997 60 80 139 255 
7.30553 2.54995 -0.991231 61 78 138 255 
6.8772 2.39496 -1.00273 62 76 138 255 
6.50262 2.2774 -1.00635 57 85 140 255 
6.18791 2.16342 -1.01948 58 83 139 255 
5.88678 2.05359 -1.02879 52 97 141 255 
5.59269 1.94763 -1.0357 56 89 140 255 
5.37145 1.87703 -1.0443 55 91 141 255 
5.1516 1.79808 -1.05271 55 91 141 255 
4.91911 1.71602 -1.05711 57 86 140 255 
4.72595 1.64672 -1.0665 66 65 134 255 
4.55727 1.58984 -1.07092 62 76 138 255 
4.38336 1.52822 -1.07513 58 83 139 255 
4.19652 1.4623 -1.07429 64 70 136 255 
4.07861 1.42275 -1.08983 62 76 138 255 
3.90821 1.3596 -1.08171 59 81 139 255 
3.82843 1.33176 -1.09978 64 69 136 255 
3.68946 1.28489 -1.10109 66 64 134 255 
3.55877 1.24281 -1.10443 66 64 134 255 
11.7244 4.05075 3.72622 72 35 116 255 
10.1435 3.51432 3.10461 66 64 134 255 
10.0776 3.49553 2.97216 72 41 121 255 
10.0745 3.49423 2.8632 57 86 140 255 
10.4413 3.61356 2.86773 66 64 134 255 
10.3718 3.59137 2.73255 66 63 133 255 
9.42513 3.26183 2.38157 71 45 123 255 
11.7133 4.05118 2.83863 72 31 112 255 
14.647 5.07196 3.41932 70 50 126 255 
12.0335 4.16443 2.67646 71 46 124 255 
12.0117 4.14996 2.54631 72 36 117 255 
14.9414 5.156 3.01515 72 31 112 255 
11.6117 4.02088 2.242 72 20 103 255 
11.619 4.01868 2.12139 62 76 138 255 
14.3462 4.9509 2.46893 70 52 128 255 
15.1358 5.20832 2.45511 72 31 112 255 
15.155 5.24489 2.3281 72 20 103 255 
24.3417 8.41439 3.4868 72 22 104 255 
23.8964 8.23268 3.17951 72 36 117 255 
24.6134 8.46003 3.03441 71 19 101 255 
24.6693 8.53764 2.83129 70 8 92 255 
25.8675 8.92664 2.70722 71 13 96 255 
25.1969 8.67579 2.38302 72 35 116 255 
25.0184 8.58463 2.11885 71 19 101 255 
25.015 8.65239 1.91126 71 13 96 255 
26.4896 9.13618 1.75802 72 22 104 255 
0 0 0 68 2 86 255 
0 0 0 69 4 87 255 
59.3396 20.5017 2.2582 70 7 90 255 
59.7627 20.5886 1.67729 69 4 87 255 
0 0 0 69 4 87 255 
0 0 0 68 2 86 255 
54.4587 18.8048 -0.0100555 70 8 92 255 
38.3964 13.2128 -0.389803 69 5 89 255 
26.9929 9.26261 -0.537991 70 11 94 255 
20.6814 7.07232 -0.618164 72 23 105 255 
17.7166 6.10721 -0.680601 72 37 118 255 
16.2377 5.58131 -0.782696 71 47 125 255 
13.5355 4.64205 -0.787491 72 37 118 255 
12.3222 4.21134 -0.839809 67 61 132 255 
11.2734 3.88393 -0.865158 66 64 134 255 
10.3899 3.56722 -0.899292 65 66 135 255 
9.66283 3.30826 -0.933093 64 70 136 255 
8.85465 3.02625 -0.943902 69 55 129 255 
8.26505 2.84267 -0.952581 60 80 139 255 
7.75946 2.66258 -0.972408 60 80 139 255 
7.30509 2.49962 -0.989071 60 80 139 255 
6.89646 2.35432 -1.00341 59 81 139 255 
6.51179 2.23585 -1.00563 58 84 140 255 
6.20948 2.1283 -1.02087 56 89 140 255 
5.90767 2.0203 -1.03026 53 95 141 255 
5.58962 1.90819 -1.03295 57 85 140 255 
5.38007 1.84308 -1.04376 57 86 140 255 
5.15789 1.76485 -1.05176 56 88 140 255 
4.93418 1.68739 -1.05811 54 93 141 255 
4.73781 1.61832 -1.06692 62 74 137 255 
4.54754 1.55522 -1.06637 64 70 136 255 
4.39819 1.50319 -1.07649 60 80 139 255 
4.22381 1.44281 -1.07899 61 78 138 255 
4.08543 1.39707 -1.08934 64 69 136 255 
3.94487 1.34527 -1.08955 58 83 139 255 
3.80365 1.29703 -1.09035 63 71 136 255 
3.70001 1.26316 -1.10191 65 66 135 255 
3.55089 1.21566 -1.09965 67 62 133 255 
8.59042 2.9091 2.72447 69 55 129 255 
10.1831 3.4582 3.11017 53 94 141 255 
10.0989 3.43363 2.97216 62 76 138 255 
10.0336 3.4112 2.84557 52 96 141 255 
10.2744 3.48537 2.81598 63 72 137 255 
9.82575 3.33492 2.58325 62 73 137 255 
9.39707 3.18769 2.36949 54 92 141 255 
10.7852 3.65627 2.60823 71 46 124 255 
11.3794 3.86243 2.65092 63 71 136 255 
24.064 8.16279 5.34099 71 16 99 255 
12.0769 4.0897 2.55476 72 32 113 255 
11.6453 3.93877 2.34508 71 47 125 255 
14.387 4.88327 2.77203 72 35 116 255 
11.6593 3.9527 2.12428 69 53 129 255 
11.7341 3.96904 2.01516 65 68 135 255 
15.1834 5.12072 2.45768 71 47 125 255 
15.2637 5.17787 2.33988 72 40 120 255 
24.0532 8.14976 3.43823 72 32 113 255 
23.9756 8.09574 3.18337 72 36 117 255 
24.0266 8.09386 2.9559 72 29 111 255 
24.9076 8.44935 2.85264 72 26 108 255 
24.4172 8.25887 2.55009 72 26 108 255 
25.1222 8.47803 2.37099 72 22 104 255 
25.1925 8.47195 2.12915 72 22 104 255 
24.8664 8.43052 1.89592 72 24 106 255 
24.8481 8.39976 1.64562 72 24 106 255 
24.8874 8.38428 1.3993 69 5 89 255 
0 0 0 69 4 87 255 
0 0 0 68 2 86 255 
0 0 0 68 1 84 255 
78.9831 26.5931 1.4256 69 5 89 255 
0 0 0 69 4 87 255 
54.8393 18.5603 -0.0101046 69 5 89 255 
39.4754 13.3138 -0.39992 69 5 89 255 
27.1743 9.13888 -0.540479 71 13 96 255 
20.8363 6.98276 -0.6215 72 20 103 255 
17.7187 5.98656 -0.679259 72 31 112 255 
16.2489 5.47392 -0.781603 71 47 125 255 
13.5258 4.54618 -0.785293 66 63 133 255 
12.3213 4.12678 -0.838007 70 48 126 255 
11.2932 3.81341 -0.864868 65 68 135 255 
10.4721 3.52375 -0.904514 61 77 138 255 
9.70938 3.25778 -0.93564 59 82 139 255 
8.91174 2.98482 -0.948017 68 58 131 255 
8.27292 2.78873 -0.951498 61 77 138 255 
7.79259 2.62062 -0.974527 60 79 138 255 
7.33157 2.45853 -0.990596 61 78 138 255 
6.90513 2.31007 -1.00259 61 78 138 255 
6.54321 2.20185 -1.00838 56 89 140 255 
6.21399 2.08732 -1.01948 59 81 139 255 
5.91715 1.98307 -1.02977 53 94 141 255 
5.60216 1.87417 -1.03312 55 90 140 255 
5.39035 1.80972 -1.04358 52 96 141 255 
5.15652 1.72911 -1.0493 59 81 139 255 
4.95281 1.65989 -1.0599 54 92 141 255 
4.73096 1.58363 -1.06317 64 69 136 255 
4.55699 1.52728 -1.06637 62 73 137 255 
4.40363 1.47494 -1.07558 61 78 138 255 
4.20677 1.40823 -1.07241 62 74 137 255 
4.09117 1.37105 -1.08861 66 64 134 255 
3.96314 1.32441 -1.09233 64 70 136 255 
3.81428 1.27458 -1.09114 64 69 136 255 
3.70951 1.24105 -1.10245 62 73 137 255 
3.56738 1.1969 -1.10246 65 66 135 255 
8.5672 2.84276 2.71152 53 94 141 255 
11.9114 3.96376 3.63052 72 41 121 255 
10.1216 3.37221 2.9727 62 74 137 255 
9.98379 3.32607 2.8256 49 103 142 255 
10.3746 3.44852 2.83758 68 58 131 255 
9.45377 3.14411 2.48033 51 98 141 255 
9.42938 3.13427 2.37274 50 102 142 255 
11.2191 3.72676 2.70758 72 35 116 255 
14.4395 4.80246 3.35684 72 24 106 255 
12.8815 4.28159 2.85315 66 64 134 255 
13.4651 4.4679 2.84257 72 29 111 255 
11.7708 3.90092 2.3655 68 58 131 255 
11.7759 3.91658 2.26425 70 48 126 255 
11.7544 3.90469 2.1372 72 27 109 255 
11.7929 3.90845 2.0211 59 81 139 255 
15.0606 4.9766 2.43282 70 50 126 255 
15.3553 5.10409 2.34907 64 69 136 255 
24.0848 7.99608 3.43568 72 40 120 255 
23.9495 7.92355 3.17339 72 37 118 255 
23.9315 7.89865 2.93818 71 13 96 255 
24.726 8.2189 2.82601 71 14 97 255 
24.493 8.11734 2.55275 72 26 108 255 
28.964 9.57697 2.72798 71 13 96 255 
25.4674 8.39083 2.14799 72 23 105 255 
25.0199 8.31175 1.9037 72 28 110 255 
26.1081 8.64755 1.72552 72 20 103 255 
39.1529 12.9232 2.19688 70 7 90 255 
49.5014 16.2902 2.28441 70 7 90 255 
0 0 0 69 4 87 255 
0 0 0 68 1 84 255 
0 0 0 69 5 89 255 
0 0 0 69 4 87 255 
55.235 18.3173 -0.0101566 69 5 89 255 
42.0971 13.9109 -0.425608 69 5 89 255 
27.7484 9.1428 -0.55077 71 14 97 255 
21.4932 7.05652 -0.639791 71 19 101 255 
17.7067 5.86171 -0.677408 72 31 112 255 
16.0308 5.29114 -0.769536 71 45 123 255 
13.5061 4.44749 -0.782546 70 52 128 255 
12.3293 4.0455 -0.836849 71 45 123 255 
11.3372 3.75094 -0.86646 66 64 134 255 
10.4623 3.44913 -0.901821 61 78 138 255 
9.76419 3.20965 -0.939007 57 85 140 255 
8.94123 2.9338 -0.949221 68 59 132 255 
8.29365 2.73916 -0.951931 65 66 135 255 
7.81984 2.57648 -0.97594 61 78 138 255 
7.36914 2.42093 -0.993645 62 73 137 255 
6.92765 2.27043 -1.00382 61 77 138 255 
6.56505 2.16445 -1.00968 56 88 140 255 
6.22105 2.0473 -1.01856 57 86 140 255 
5.93951 1.95012 -1.03156 50 100 142 255 
5.61917 1.8416 -1.03415 56 88 140 255 
5.39855 1.77569 -1.04304 51 99 141 255 
5.17823 1.70111 -1.05157 57 85 140 255 
4.98059 1.63527 -1.06367 52 96 141 255 
4.72944 1.55091 -1.06067 65 66 135 255 
4.58297 1.50477 -1.07027 62 73 137 255 
4.41075 1.44728 -1.07513 59 81 139 255 
4.24674 1.39269 -1.0804 60 79 138 255 
4.11056 1.34955 -1.09154 62 73 137 255 
3.98039 1.30308 -1.09486 63 71 136 255 
3.81561 1.24905 -1.08931 63 72 137 255 
3.71249 1.21676 -1.10109 62 73 137 255 
3.58287 1.17769 -1.105 68 59 132 255 
11.2177 3.64598 3.54325 71 47 125 255 
11.9656 3.90043 3.63969 71 19 101 255 
10.4315 3.40448 3.05752 57 86 140 255 
10.071 3.28662 2.84453 59 82 139 255 
10.3054 3.35543 2.81296 52 96 141 255 
9.51717 3.10048 2.49193 46 111 142 255 
9.48728 3.089 2.38249 60 80 139 255 
9.88012 3.2148 2.37962 72 26 108 255 
9.9859 3.25333 2.31681 72 41 121 255 
13.1504 4.28155 2.90684 70 51 127 255 
11.7047 3.8042 2.46596 63 72 137 255 
11.7609 3.81771 2.35876 72 31 112 255 
11.8137 3.84882 2.26695 68 58 131 255 
11.8578 3.85841 2.15165 64 70 136 255 
11.8373 3.84272 2.02463 67 62 133 255 
11.8821 3.84562 1.91554 70 51 127 255 
15.3534 4.99905 2.34404 72 40 120 255 
24.2682 7.89197 3.45487 72 38 119 255 
24.312 7.8783 3.21495 72 26 108 255 
26.9103 8.69908 3.29729 70 10 93 255 
26.2185 8.53673 2.99055 70 11 94 255 
28.1523 9.13879 2.92824 71 16 99 255 
26.6685 8.63678 2.50673 70 11 94 255 
25.5991 8.26042 2.15478 71 13 96 255 
25.7903 8.39232 1.95836 71 14 97 255 
26.1606 8.4872 1.72552 72 20 103 255 
26.7519 8.64834 1.49805 70 10 93 255 
49.5947 15.9844 2.28415 69 5 89 255 
0 0 0 68 2 86 255 
0 0 0 68 1 84 255 
80.2597 25.9308 1.44279 69 5 89 255 
0 0 0 69 4 87 255 
0 0 -0 69 4 87 255 
43.1454 13.9642 -0.435332 69 5 89 255 
28.1922 9.09765 -0.55846 70 8 92 255 
21.7188 6.98326 -0.645219 71 13 96 255 
17.5503 5.69069 -0.670076 72 26 108 255 
16.0478 5.18776 -0.768807 72 41 121 255 
13.5616 4.37373 -0.784194 68 59 132 255 
12.3634 3.97283 -0.837492 72 40 120 255 
11.36 3.6813 -0.86646 64 70 136 255 
10.4671 3.37966 -0.900434 62 76 138 255 
9.79129 3.15211 -0.939735 57 85 140 255 
8.98937 2.88863 -0.952433 68 58 131 255 
8.31598 2.69005 -0.952581 64 69 136 255 
7.85535 2.53485 -0.978411 59 81 139 255 
7.39802 2.38022 -0.995551 64 69 136 255 
6.94994 2.23061 -1.00505 60 79 138 255 
6.56691 2.12047 -1.00794 55 91 141 255 
6.24102 2.01152 -1.01979 58 84 140 255 
5.9401 1.91001 -1.02961 53 95 141 255 
5.64537 1.8119 -1.03691 58 84 140 255 
5.40372 1.74072 -1.04196 56 89 140 255 
5.20072 1.67322 -1.05403 55 90 140 255 
4.97933 1.60108 -1.06129 53 95 141 255 
4.77332 1.53293 -1.06838 62 73 137 255 
4.57911 1.47244 -1.06724 65 68 135 255 
4.42047 1.42049 -1.07536 61 78 138 255 
4.25613 1.3669 -1.08064 61 77 138 255 
4.09015 1.31511 -1.08396 63 71 136 255 
3.97357 1.27391 -1.09082 63 72 137 255 
3.83607 1.22974 -1.09297 63 72 137 255 
3.70064 1.18779 -1.0954 62 74 137 255 
3.58729 1.1548 -1.10415 64 69 136 255 
10.3856 3.30523 3.27397 71 47 125 255 
10.72 3.42178 3.25436 63 71 136 255 
14.2308 4.54801 4.16286 71 42 122 255 
10.4112 3.32707 2.93478 58 83 139 255 
10.5287 3.35682 2.86823 67 61 132 255 
9.95573 3.17591 2.60161 64 69 136 255 
9.53107 3.0387 2.38877 58 83 139 255 
9.76685 3.1118 2.3477 60 79 138 255 
10.0001 3.19021 2.31552 44 113 142 255 
11.4216 3.64135 2.51972 61 77 138 255 
9.548 3.0386 2.00762 66 65 134 255 
24.4267 7.76379 4.88934 72 24 106 255 
11.8006 3.7646 2.25995 68 58 131 255 
11.8324 3.77003 2.14281 69 55 129 255 
11.8738 3.77421 2.02688 68 59 132 255 
11.9225 3.77801 1.91827 60 80 139 255 
11.0834 3.53367 1.68879 70 48 126 255 
24.4087 7.77238 3.46801 72 31 112 255 
24.4894 7.77008 3.23205 72 31 112 255 
24.895 7.87922 3.04437 71 13 96 255 
26.2572 8.37147 2.98904 72 23 105 255 
26.0389 8.27647 2.70308 71 13 96 255 
27.04 8.57414 2.53666 70 11 94 255 
29.5169 9.32506 2.47969 70 11 94 255 
27.4806 8.75626 2.08259 71 19 101 255 
26.3825 8.3806 1.73673 71 13 96 255 
39.3513 12.4553 2.19927 70 8 92 255 
0 0 0 68 2 86 255 
50.0905 15.9413 1.89076 69 5 89 255 
0 0 0 68 2 86 255 
81.0531 25.639 1.4542 69 5 89 255 
0 0 0 69 4 87 255 
0 0 -0 69 5 89 255 
43.1511 13.6742 -0.434535 69 5 89 255 
32.3546 10.2221 -0.63966 70 10 93 255 
21.6631 6.81895 -0.642307 71 14 97 255 
17.7773 5.64398 -0.677408 72 29 111 255 
15.845 5.01504 -0.757605 71 44 122 255 
13.6501 4.30998 -0.787766 69 56 130 255 
12.4189 3.90677 -0.839616 71 44 122 255 
11.3738 3.60881 -0.865809 62 73 137 255 
10.4915 3.31658 -0.90076 59 82 139 255 
9.81329 3.09288 -0.940007 56 89 140 255 
8.99744 2.83043 -0.951429 68 57 131 255 
8.33138 2.63868 -0.952473 64 70 136 255 
7.86792 2.48571 -0.978058 61 78 138 255 
7.40964 2.33389 -0.99517 58 83 139 255 
6.97295 2.19089 -1.00641 62 76 138 255 
6.57414 2.07835 -1.00708 55 91 141 255 
6.25796 1.97467 -1.02056 57 85 140 255 
5.95359 1.87412 -1.02993 52 97 141 255 
5.66108 1.7787 -1.03777 58 84 140 255 
5.42087 1.7096 -1.04322 53 94 141 255 
5.21369 1.64216 -1.0546 56 88 140 255 
4.97504 1.56609 -1.05831 54 92 141 255 
4.7845 1.5042 -1.0688 62 76 138 255 
4.59737 1.44725 -1.0694 65 66 135 255 
4.43096 1.39392 -1.07581 60 80 139 255 
4.26721 1.34163 -1.08134 60 80 139 255 
4.11294 1.29464 -1.08787 66 65 134 255 
3.98685 1.25124 -1.09233 62 76 138 255 
3.84723 1.20734 -1.09402 67 61 132 255 
3.69133 1.15986 -1.09052 62 73 137 255 
3.59613 1.13334 -1.10471 66 64 134 255 
10.296 3.20726 3.23944 52 97 141 255 
10.7921 3.37198 3.26991 66 64 134 255 
12.0961 3.78414 3.53154 71 47 125 255 
10.5401 3.29715 2.96538 64 70 136 255 
10.234 3.19382 2.78257 58 83 139 255 
10.1695 3.1755 2.65234 61 77 138 255 
9.54489 2.97872 2.3876 49 104 142 255 
9.71782 3.03063 2.3314 60 80 139 255 
9.90203 3.09212 2.28838 47 107 142 255 
9.62679 3.00418 2.11965 59 82 139 255 
9.5646 2.97937 2.00723 59 82 139 255 
24.4832 7.61668 4.89121 71 17 100 255 
14.8171 4.62696 2.83216 61 77 138 255 
14.925 4.6547 2.69765 72 37 118 255 
15.1237 4.70525 2.57667 68 58 131 255 
11.9634 3.71035 1.92115 68 58 131 255 
11.9674 3.73477 1.81995 63 71 136 255 
24.3907 7.60212 3.45876 72 37 118 255 
24.5139 7.61261 3.22906 72 33 115 255 
24.5871 7.61611 3.00094 72 27 109 255 
25.3172 7.90099 2.87647 71 17 100 255 
25.254 7.8567 2.61654 72 26 108 255 
25.6395 7.95725 2.40065 71 17 100 255 
25.7442 7.95979 2.15861 71 17 100 255 
25.4381 7.93385 1.92408 71 19 101 255 
25.5204 7.9347 1.67674 71 14 97 255 
35.519 11.003 1.98128 70 7 90 255 
0 0 0 69 4 87 255 
0 0 0 69 4 87 255 
0 0 0 68 1 84 255 
0 0 0 69 4 87 255 
81.7227 25.2052 0.671697 70 7 90 255 
0 0 -0 69 5 89 255 
0 0 -0 68 2 86 255 
32.4167 10.0234 -0.63966 70 11 94 255 
22.3082 6.87188 -0.660174 71 16 99 255 
17.7266 5.5084 -0.674177 72 33 115 255 
15.6875 4.85949 -0.748634 72 40 120 255 
13.6829 4.2282 -0.78815 68 58 131 255 
12.4541 3.83402 -0.840389 70 51 127 255 
11.3729 3.53186 -0.864072 68 57 131 255 
10.5116 3.25214 -0.90076 60 80 139 255 
9.83209 3.0326 -0.940007 56 89 140 255 
8.99467 2.76902 -0.949321 68 58 131 255 
8.35406 2.58957 -0.953231 64 69 136 255 
7.87448 2.43475 -0.976999 60 79 138 255 
7.41435 2.28546 -0.993899 62 74 137 255 
6.98247 2.1469 -1.00587 60 80 139 255 
6.58677 2.03797 -1.00708 54 93 141 255 
6.29167 1.94294 -1.02409 58 83 139 255 
5.97157 1.83959 -1.03107 54 92 141 255 
5.67189 1.74393 -1.03777 59 82 139 255 
5.44535 1.68066 -1.04593 53 94 141 255 
5.22273 1.60985 -1.05441 58 84 140 255 
4.97613 1.53293 -1.05652 53 94 141 255 
4.79083 1.47395 -1.06817 62 74 137 255 
4.61176 1.42074 -1.0707 63 71 136 255 
4.4264 1.3627 -1.07265 61 77 138 255 
4.28373 1.318 -1.08346 63 72 137 255 
4.12822 1.27167 -1.08983 62 76 138 255 
3.97965 1.22221 -1.08829 63 71 136 255 
3.82596 1.17492 -1.0859 66 63 133 255 
3.70113 1.13804 -1.09133 66 65 134 255 
3.61586 1.11522 -1.10865 67 62 133 255 
8.47132 2.58195 2.66031 66 63 133 255 
10.4277 3.18802 3.15351 57 85 140 255 
11.0616 3.38615 3.2234 69 53 129 255 
10.5713 3.23581 2.96849 67 62 133 255 
10.109 3.08687 2.74337 56 88 140 255 
9.70162 2.96418 2.52551 64 70 136 255 
9.54625 2.91498 2.38342 55 90 140 255 
9.78845 2.98687 2.3439 59 82 139 255 
9.80595 2.9962 2.26188 58 84 140 255 
9.66469 2.95106 2.12397 47 108 142 255 
14.8547 4.52744 3.11153 72 37 118 255 
10.0127 3.04768 1.99655 67 61 132 255 
15.0259 4.59115 2.86662 63 71 136 255 
15.007 4.57943 2.70734 68 57 131 255 
15.2203 4.63306 2.58823 71 44 122 255 
25.9534 7.87501 4.15991 71 13 96 255 
12.0383 3.67601 1.82728 63 71 136 255 
12.1052 3.69162 1.71335 67 61 132 255 
24.5725 7.4658 3.23068 72 32 113 255 
25.2864 7.663 3.0805 71 19 101 255 
25.1142 7.66885 2.848 72 31 112 255 
25.2427 7.68363 2.61044 72 23 105 255 
25.3085 7.68461 2.3652 71 14 97 255 
24.6639 7.46027 2.06415 72 23 105 255 
25.6189 7.81808 1.93409 71 14 97 255 
25.8388 7.86016 1.69446 70 11 94 255 
0 0 0 68 2 86 255 
50.5089 15.2586 2.31292 69 4 87 255 
50.1763 15.2931 1.88677 69 5 89 255 
0 0 0 68 2 86 255 
0 0 0 69 4 87 255 
82.1353 24.7816 0.673825 70 7 90 255 
82.0128 24.9809 -0.0149632 70 7 90 255 
0 0 -0 68 2 86 255 
29.5147 8.92803 -0.581305 70 10 93 255 
22.2361 6.70055 -0.65681 70 11 94 255 
17.9599 5.46028 -0.681763 72 38 119 255 
16.0765 4.87208 -0.765756 71 47 125 255 
13.7526 4.15746 -0.790678 68 59 132 255 
12.4832 3.75926 -0.840775 72 40 120 255 
11.4068 3.46578 -0.865013 70 52 128 255 
10.5533 3.19422 -0.902637 62 73 137 255 
9.82953 2.96589 -0.938006 59 81 139 255 
9.02006 2.71636 -0.950225 69 55 129 255 
8.37835 2.54086 -0.954207 61 78 138 255 
7.88927 2.38638 -0.976999 62 73 137 255 
7.42348 2.23849 -0.993264 62 73 137 255 
6.99931 2.10516 -1.00641 61 77 138 255 
6.61714 2.00297 -1.00982 56 88 140 255 
6.31482 1.90773 -1.02594 55 90 140 255 
5.98086 1.80234 -1.03075 56 89 140 255 
5.68531 1.70995 -1.03829 56 89 140 255 
5.46969 1.65148 -1.04864 53 95 141 255 
5.23251 1.57777 -1.05441 58 83 139 255 
4.98919 1.5035 -1.05731 54 93 141 255 
4.79792 1.44396 -1.06776 63 72 137 255 
4.62413 1.39354 -1.07157 64 69 136 255 
4.46919 1.3459 -1.081 63 71 136 255 
4.27219 1.2858 -1.07852 62 73 137 255 
4.14244 1.24827 -1.09154 64 70 136 255 
3.97411 1.19387 -1.08475 62 73 137 255 
3.87839 1.16503 -1.09873 64 70 136 255 
3.71542 1.11753 -1.0935 65 66 135 255 
3.62171 1.09273 -1.10837 63 71 136 255 
8.47048 2.525 2.65514 46 109 142 255 
10.7913 3.2269 3.25741 66 63 133 255 
11.2732 3.37541 3.27896 70 48 126 255 
10.6436 3.18667 2.98327 67 62 133 255 
10.1092 3.01924 2.73835 54 92 141 255 
9.88978 2.95544 2.56972 58 84 140 255 
9.58725 2.86331 2.38923 57 85 140 255 
9.66555 2.88466 2.31019 65 68 135 255 
13.3337 3.98482 3.06991 71 42 122 255 
9.74451 2.91018 2.13755 57 86 140 255 
9.98851 2.97745 2.08837 59 81 139 255 
14.9748 4.45784 2.98049 71 46 124 255 
15.0886 4.50928 2.87326 70 50 126 255 
15.2595 4.55433 2.74781 64 69 136 255 
15.3033 4.55592 2.59755 68 59 132 255 
25.5568 7.58374 4.08881 72 29 111 255 
11.0157 3.28998 1.66896 60 80 139 255 
12.1333 3.61897 1.71415 61 77 138 255 
25.2731 7.5096 3.31668 72 31 112 255 
25.1949 7.46678 3.06371 72 29 111 255 
25.6476 7.65999 2.9031 71 17 100 255 
25.5564 7.6081 2.638 72 28 110 255 
24.8873 7.39024 2.32156 72 32 113 255 
24.7159 7.31077 2.06471 72 31 112 255 
25.0194 7.46761 1.88533 72 22 104 255 
26.0004 7.73533 1.70191 72 22 104 255 
25.9164 7.68105 1.44027 69 5 89 255 
50.3946 14.8872 2.30346 69 5 89 255 
50.0192 14.9104 1.87739 70 10 93 255 
0 0 0 68 2 86 255 
0 0 0 69 4 87 255 
82.7375 24.4104 0.677525 70 7 90 255 
0 0 -0 69 4 87 255 
0 0 -0 68 2 86 255 
28.8767 8.542 -0.567696 70 10 93 255 
21.9757 6.47527 -0.647933 71 14 97 255 
17.9107 5.32548 -0.678642 72 37 118 255 
16.1071 4.77363 -0.765801 72 37 118 255 
13.7769 4.07271 -0.790623 70 51 127 255 
12.4687 3.6716 -0.838265 72 40 120 255 
11.4288 3.39601 -0.865085 69 55 129 255 
10.5335 3.11781 -0.899292 62 74 137 255 
9.84086 2.90355 -0.937369 61 78 138 255 
9.04897 2.66462 -0.951529 69 53 129 255 
8.40046 2.49138 -0.954965 65 68 135 255 
7.91234 2.34047 -0.978058 60 79 138 255 
7.43327 2.19178 -0.992756 61 77 138 255 
7.00354 2.05966 -1.00518 62 76 138 255 
6.60559 1.9553 -1.00621 57 85 140 255 
6.32072 1.86727 -1.02502 56 89 140 255 
5.99654 1.767 -1.03156 56 88 140 255 
5.70609 1.67809 -1.04018 56 88 140 255 
5.47406 1.61621 -1.04755 53 95 141 255 
5.2421 1.54564 -1.05441 54 92 141 255 
5.01713 1.4784 -1.06129 53 94 141 255 
4.80575 1.41422 -1.06755 61 78 138 255 
4.6251 1.36293 -1.06984 62 76 138 255 
4.4755 1.31791 -1.08055 59 82 139 255 
4.28 1.25957 -1.07852 63 72 137 255 
4.13886 1.21954 -1.08861 61 78 138 255 
4.00363 1.17601 -1.09082 62 76 138 255 
3.86602 1.1355 -1.09323 66 64 134 255 
3.7416 1.10041 -1.0992 66 63 133 255 
3.61454 1.06642 -1.10415 65 66 135 255 
12.217 3.56035 3.8226 72 35 116 255 
10.8422 3.16979 3.26686 68 58 131 255 
11.9538 3.49941 3.47061 72 41 121 255 
11.3322 3.3172 3.1705 71 46 124 255 
10.1573 2.96584 2.74639 63 72 137 255 
9.70281 2.83484 2.51657 60 80 139 255 
9.67653 2.82542 2.40711 64 69 136 255 
9.5792 2.79499 2.28541 60 80 139 255 
9.78012 2.85757 2.24766 65 66 135 255 
10.0478 2.93372 2.20008 50 101 142 255 
9.97459 2.90678 2.08169 66 65 134 255 
15.0151 4.36971 2.98311 72 31 112 255 
15.167 4.43152 2.88295 71 42 122 255 
15.2011 4.4355 2.73233 66 63 133 255 
25.5453 7.43472 4.32817 72 20 103 255 
25.6038 7.42705 4.08896 72 28 110 255 
11.0309 3.22094 1.66824 72 26 108 255 
12.1924 3.55527 1.71938 63 72 137 255 
12.2882 3.56939 1.60972 64 69 136 255 
25.2431 7.31288 3.06406 72 37 118 255 
25.2036 7.35925 2.84768 72 29 111 255 
25.2634 7.35242 2.60305 72 22 104 255 
25.0527 7.27239 2.33278 71 19 101 255 
25.0111 7.23152 2.08563 71 16 99 255 
25.1815 7.34804 1.89412 72 27 109 255 
26.9875 7.84908 1.76334 70 8 92 255 
35.5141 10.289 1.97011 70 7 90 255 
47.7418 13.7856 2.1783 69 4 87 255 
0 0 0 68 2 86 255 
0 0 0 68 2 86 255 
0 0 0 69 5 89 255 
0 0 0 69 5 89 255 
83.0419 24.1848 -0.0150957 70 7 90 255 
28.4613 8.25619 -0.284481 72 20 103 255 
28.41 8.21469 -0.557518 71 14 97 255 
22.185 6.38927 -0.652937 71 19 101 255 
17.778 5.16751 -0.672399 72 36 117 255 
16.2646 4.71196 -0.771903 72 33 115 255 
13.7239 3.96565 -0.786172 66 63 133 255 
12.4737 3.59006 -0.837106 72 36 117 255 
11.4283 3.3197 -0.863493 66 63 133 255 
10.5812 3.06143 -0.901739 62 73 137 255 
9.87476 2.8478 -0.938916 62 76 138 255 
9.06419 2.60877 -0.951429 70 51 127 255 
8.42704 2.44311 -0.956265 62 73 137 255 
7.93132 2.29325 -0.978647 62 74 137 255 
7.44467 2.14558 -0.992502 63 71 136 255 
7.01795 2.01719 -1.00546 62 74 137 255 
6.63077 1.91859 -1.00823 56 88 140 255 
6.30263 1.81995 -1.02025 60 80 139 255 
6.01106 1.73127 -1.03221 51 98 141 255 
5.70681 1.64033 -1.03846 56 88 140 255 
5.4782 1.58096 -1.04647 55 90 140 255 
5.24865 1.51263 -1.05384 52 96 141 255 
5.02045 1.44596 -1.0601 53 95 141 255 
4.83595 1.39093 -1.07234 61 78 138 255 
4.64933 1.33912 -1.07352 61 77 138 255 
4.47414 1.28773 -1.07829 60 80 139 255 
4.30446 1.23812 -1.08275 59 82 139 255 
4.1239 1.18768 -1.08273 62 74 137 255 
4.02472 1.15542 -1.09461 62 73 137 255 
3.87941 1.11362 -1.09507 64 69 136 255 
3.74643 1.0769 -1.09865 65 68 135 255 
3.64131 1.05007 -1.11034 64 70 136 255 
8.50083 2.42086 2.65514 65 66 135 255 
8.48302 2.42366 2.55148 59 81 139 255 
10.7961 3.0887 3.12892 62 76 138 255 
12.1425 3.47366 3.39119 68 59 132 255 
10.421 2.97358 2.81271 70 51 127 255 
10.0335 2.86476 2.59774 61 77 138 255 
9.7629 2.78574 2.4243 63 71 136 255 
9.87551 2.81581 2.35194 71 46 124 255 
9.85662 2.8144 2.26123 59 81 139 255 
14.9515 4.26613 3.26803 72 38 119 255 
15.1524 4.31501 3.15671 71 46 124 255 
15.1815 4.31726 3.01084 66 64 134 255 
15.1854 4.33594 2.88134 72 32 113 255 
15.1105 4.30863 2.71125 69 55 129 255 
25.7424 7.32103 4.35386 72 27 109 255 
26.3906 7.48006 4.20721 72 20 103 255 
11.1885 3.19257 1.68907 59 81 139 255 
12.2416 3.48827 1.72327 70 48 126 255 
12.2985 3.49068 1.60823 59 81 139 255 
25.4499 7.20384 3.08374 72 24 106 255 
24.9978 7.13299 2.81943 72 29 111 255 
24.9146 7.08539 2.56259 72 32 113 255 
25.6009 7.26149 2.37963 72 23 105 255 
27.0024 7.62802 2.24773 71 16 99 255 
27.9319 7.96497 2.09729 70 8 92 255 
27.0975 7.70107 1.76741 71 17 100 255 
29.3245 8.30107 1.62389 71 14 97 255 
48.1851 13.5939 2.19468 70 10 93 255 
48.2357 13.7366 1.80399 70 7 90 255 
0 0 0 68 2 86 255 
83.9854 23.7585 1.49302 70 7 90 255 
0 0 0 68 2 86 255 
83.8428 23.8609 -0.0152144 70 7 90 255 
28.5759 8.09967 -0.285124 72 22 104 255 
28.9236 8.17123 -0.566603 70 10 93 255 
22.0237 6.19671 -0.647057 70 10 93 255 
17.9738 5.10502 -0.678605 72 32 113 255 
16.0549 4.5446 -0.76061 72 38 119 255 
13.7432 3.88001 -0.785897 65 66 135 255 
12.4782 3.50859 -0.835948 72 40 120 255 
11.4072 3.2378 -0.860381 67 61 132 255 
10.6448 3.00919 -0.905574 64 70 136 255 
9.88917 2.78635 -0.938643 60 80 139 255 
9.0398 2.54179 -0.947214 70 51 127 255 
8.44283 2.39163 -0.956373 62 73 137 255 
7.93951 2.24292 -0.977941 62 73 137 255 
7.44338 2.09582 -0.990596 63 71 136 255 
7.0445 1.97811 -1.0075 61 78 138 255 
6.64622 1.87894 -1.00881 58 84 140 255 
6.3308 1.78607 -1.02302 56 89 140 255 
6.02442 1.69516 -1.0327 52 96 141 255 
5.71582 1.60501 -1.03829 57 85 140 255 
5.4878 1.54732 -1.04647 54 93 141 255 
5.25311 1.47906 -1.0529 53 95 141 255 
5.03772 1.41752 -1.06188 52 96 141 255 
4.8491 1.36255 -1.07338 59 81 139 255 
4.6584 1.31083 -1.07374 61 77 138 255 
4.48195 1.26025 -1.07829 61 78 138 255 
4.29513 1.20695 -1.07852 63 72 137 255 
4.13951 1.16472 -1.08494 61 77 138 255 
4.01218 1.12522 -1.0893 62 74 137 255 
3.88617 1.0898 -1.09507 65 66 135 255 
3.77613 1.0604 -1.10544 63 72 137 255 
3.64399 1.02666 -1.10921 68 58 131 255 
12.1943 3.39194 3.80218 71 45 123 255 
8.53012 2.38061 2.5612 54 92 141 255 
10.7564 3.00606 3.11201 67 62 133 255 
11.1395 3.11291 3.10567 68 59 132 255 
10.7001 2.98234 2.88306 69 55 129 255 
10.4987 2.92801 2.71346 66 63 133 255 
11.1937 3.11985 2.77478 71 42 122 255 
10.1414 2.82447 2.4111 63 71 136 255 
