ply
format ascii 1.0
comment VTK generated PLY File
obj_info vtkPolyData points and polygons: vtk4.0
element vertex 1225
property float x
property float y
property float z
property uchar red
property uchar green
property uchar blue
property uchar alpha
element face 0
property list uchar int vertex_indices
end_header
-15.4331 -15.2901 2.94117 71 44 122 255 
-15.449 -15.274 2.73292 71 42 122 255 
-15.4423 -15.2456 2.52997 71 46 124 255 
-15.4529 -15.3207 2.36009 71 47 125 255 
-15.4738 -15.3143 2.15382 70 52 128 255 
-15.4605 -15.2801 1.94382 71 46 124 255 
-17.826 -17.5805 2.00562 72 31 112 255 
-20.046 -19.8677 2.03794 72 24 106 255 
-20.0523 -19.8386 1.76973 72 28 110 255 
-22.3571 -22.073 1.67401 72 20 103 255 
-25.5654 -25.1958 1.57347 70 11 94 255 
-25.5453 -25.3004 1.29323 71 13 96 255 
-22.1823 -21.9306 0.827714 72 32 113 255 
-25.5113 -25.1784 0.61314 72 20 103 255 
-25.5495 -25.1626 0.281649 71 16 99 255 
-0 -0 -0 68 2 86 255 
-22.265 -21.9971 -0.300454 70 11 94 255 
-20.9242 -20.6368 -0.554031 72 32 113 255 
-21.0141 -20.6815 -0.833869 71 17 100 255 
-20.1598 -19.9387 -1.02979 72 24 106 255 
-19.149 -18.9054 -1.22664 72 41 121 255 
-19.5177 -19.2428 -1.50838 71 16 99 255 
-19.5627 -19.2463 -1.76985 72 22 104 255 
-19.4456 -19.2256 -1.98411 70 11 94 255 
-15.9955 -15.7809 -1.83946 71 16 99 255 
-13.7547 -13.5468 -1.76374 71 16 99 255 
-12.0069 -11.8127 -1.69902 71 17 100 255 
-10.6894 -10.5574 -1.63744 72 38 119 255 
-9.59025 -9.45833 -1.59663 71 42 122 255 
-8.67689 -8.54276 -1.55985 72 33 115 255 
-7.99957 -7.86472 -1.54468 70 50 126 255 
-7.29736 -7.19973 -1.49732 71 46 124 255 
-6.78014 -6.6822 -1.48051 68 57 131 255 
-6.2719 -6.17279 -1.4521 70 52 128 255 
-5.87091 -5.77194 -1.43986 70 48 126 255 
-5.53575 -5.45408 -1.42628 68 59 132 255 
-5.22743 -5.14653 -1.41529 63 72 137 255 
-4.97249 -4.89392 -1.41565 54 92 141 255 
-4.7222 -4.64421 -1.41145 57 86 140 255 
-4.50244 -4.43138 -1.40168 48 106 142 255 
-4.29455 -4.22514 -1.3953 53 95 141 255 
-4.07206 -4.00492 -1.3807 55 90 140 255 
-3.87828 -3.8169 -1.37287 57 85 140 255 
-3.73498 -3.66963 -1.36877 60 80 139 255 
-3.61777 -3.55433 -1.37603 59 81 139 255 
-3.46123 -3.40297 -1.36803 57 85 140 255 
-3.30929 -3.25918 -1.36086 66 63 133 255 
-0 -0 0 69 4 87 255 
-0 -0 0 68 2 86 255 
-0 -0 0 68 2 86 255 
-0 -0 0 68 2 86 255 
-0 -0 0 68 2 86 255 
-0 -0 0 68 2 86 255 
-0 -0 0 68 2 86 255 
-0 -0 0 69 4 87 255 
-34.4276 -33.7286 10.6319 71 14 97 255 
-34.4631 -33.7506 10.1388 70 11 94 255 
-26.9728 -26.388 7.56055 71 13 96 255 
-25.7684 -25.1912 6.87427 71 19 101 255 
-25.7877 -25.2641 6.58671 71 16 99 255 
-15.4833 -15.1579 3.73878 68 59 132 255 
-15.4707 -15.1247 3.5197 64 69 136 255 
-15.5205 -15.1464 3.32623 72 41 121 255 
-15.496 -15.1761 3.14871 71 47 125 255 
-15.465 -15.1348 2.9295 71 47 125 255 
-15.4977 -15.1352 2.72506 70 50 126 255 
-15.5071 -15.1228 2.52534 70 48 126 255 
-15.4897 -15.1699 2.35147 70 51 127 255 
-15.5098 -15.1627 2.14585 68 57 131 255 
-15.5027 -15.1348 1.93741 71 46 124 255 
-17.8914 -17.4298 2.00091 72 27 109 255 
-20.169 -19.7457 2.03809 72 22 104 255 
-20.175 -19.7166 1.76985 72 29 111 255 
-22.4856 -21.9291 1.67353 71 14 97 255 
-24.2506 -23.6085 1.4836 69 5 89 255 
-22.4041 -21.9186 1.12738 72 36 117 255 
-25.687 -25.0858 0.95273 72 22 104 255 
-25.8249 -25.177 0.616954 69 4 87 255 
-0 -0 0 68 2 86 255 
-25.5967 -25.0333 -0.0062488 70 8 92 255 
-22.3909 -21.8516 -0.300339 69 5 89 255 
-21.145 -20.6001 -0.556519 72 27 109 255 
-21.193 -20.603 -0.835932 72 23 105 255 
-20.3854 -19.9158 -1.03506 72 24 106 255 
-19.3269 -18.8482 -1.2306 71 44 122 255 
-19.7234 -19.2084 -1.51514 72 20 103 255 
-19.6847 -19.1301 -1.77023 71 16 99 255 
-19.0994 -18.653 -1.93707 70 11 94 255 
-16.1013 -15.6915 -1.84052 70 11 94 255 
-13.784 -13.41 -1.75692 71 19 101 255 
-12.0863 -11.7457 -1.70003 71 16 99 255 
-10.7376 -10.4756 -1.63495 72 41 121 255 
-9.65024 -9.40138 -1.59698 71 47 125 255 
-8.75972 -8.51909 -1.56531 72 29 111 255 
-8.03915 -7.8072 -1.54304 69 55 129 255 
-7.35345 -7.16656 -1.49978 69 56 130 255 
-6.80756 -6.62738 -1.47759 70 52 128 255 
-6.34573 -6.16926 -1.4604 70 50 126 255 
-5.91753 -5.74679 -1.44261 70 48 126 255 
-5.56841 -5.41933 -1.4261 67 61 132 255 
-5.28355 -5.13832 -1.42192 68 57 131 255 
-4.98135 -4.84282 -1.40968 55 90 140 255 
-4.74499 -4.60969 -1.40978 57 85 140 255 
-4.52395 -4.39823 -1.39995 48 105 142 255 
-4.3204 -4.19871 -1.3953 52 97 141 255 
-4.10144 -3.9846 -1.38234 58 83 139 255 
-3.90928 -3.80046 -1.37556 57 86 140 255 
-3.7727 -3.66147 -1.37433 57 85 140 255 
-3.62635 -3.5193 -1.37106 61 78 138 255 
-3.48412 -3.38368 -1.36884 56 89 140 255 
-3.31203 -3.22208 -1.35383 69 55 129 255 
-0 -0 0 69 4 87 255 
-0 -0 0 68 2 86 255 
-0 -0 0 68 2 86 255 
-0 -0 0 69 4 87 255 
-0 -0 0 68 2 86 255 
-0 -0 0 69 4 87 255 
-0 -0 0 68 2 86 255 
-0 -0 0 69 4 87 255 
-34.8473 -33.7232 10.6974 70 11 94 255 
-34.8981 -33.7597 10.2056 71 13 96 255 
-27.1701 -26.2567 7.57057 72 22 104 255 
-27.1866 -26.2534 7.2095 71 14 97 255 
-15.4924 -14.9927 3.9335 72 28 110 255 
-15.5321 -15.0201 3.72824 62 76 138 255 
-15.5043 -14.9726 3.50637 71 46 124 255 
-15.5711 -15.0104 3.31729 71 44 122 255 
-15.5455 -15.0388 3.13995 70 50 126 255 
-15.5362 -15.0189 2.92547 69 53 129 255 
-15.5224 -14.9744 2.7132 69 53 129 255 
-15.5738 -15.0026 2.52117 71 47 125 255 
-15.5461 -15.0394 2.34597 68 58 131 255 
-15.5381 -15.005 2.13699 68 57 131 255 
-15.558 -15.0035 1.93278 70 48 126 255 
-17.9808 -17.3031 1.99899 72 31 112 255 
-20.2532 -19.5862 2.03441 72 20 103 255 
-20.2921 -19.589 1.76954 72 31 112 255 
-22.6147 -21.7859 1.67316 72 23 105 255 
-24.3921 -23.4564 1.48343 70 7 90 255 
-22.7192 -21.9557 1.13643 71 19 101 255 
-25.8887 -24.9743 0.954508 69 4 87 255 
-0 -0 0 68 2 86 255 
-0 -0 0 68 1 84 255 
-25.757 -24.8827 -0.00625055 69 4 87 255 
-0 -0 -0 68 2 86 255 
-21.325 -20.522 -0.557933 72 33 115 255 
-21.3759 -20.5273 -0.838166 72 23 105 255 
-20.633 -19.9118 -1.04141 72 26 108 255 
-19.4529 -18.7397 -1.23128 72 23 105 255 
-19.8517 -19.0974 -1.51597 72 22 104 255 
-19.8751 -19.0794 -1.7768 72 24 106 255 
-19.6442 -18.9509 -1.98049 71 16 99 255 
-16.2016 -15.5966 -1.84101 71 13 96 255 
-13.8991 -13.357 -1.7611 71 16 99 255 
-12.1674 -11.6803 -1.70133 71 19 101 255 
-10.8052 -10.413 -1.63549 72 35 116 255 
-9.70345 -9.33786 -1.59628 71 46 124 255 
-8.81254 -8.46587 -1.56544 72 27 109 255 
-8.09405 -7.76459 -1.5444 70 51 127 255 
-7.39657 -7.12062 -1.49963 70 48 126 255 
-6.86376 -6.60055 -1.48097 69 55 129 255 
-6.3735 -6.12064 -1.45812 70 52 128 255 
-5.96476 -5.72197 -1.44554 70 50 126 255 
-5.61006 -5.39324 -1.42827 67 61 132 255 
-5.31002 -5.10104 -1.4206 68 59 132 255 
-5.01097 -4.81216 -1.40968 56 89 140 255 
-4.76331 -4.57101 -1.40686 57 85 140 255 
-4.5424 -4.36227 -1.39735 52 97 141 255 
-4.33764 -4.16402 -1.3926 54 93 141 255 
-4.13282 -3.96609 -1.38469 54 92 141 255 
-3.92763 -3.7717 -1.37384 58 84 140 255 
-3.79509 -3.63825 -1.37433 55 91 141 255 
-3.63813 -3.48763 -1.36739 57 85 140 255 
-3.50759 -3.36491 -1.36993 58 84 140 255 
-3.33035 -3.20037 -1.35327 68 57 131 255 
-0 -0 0 68 2 86 255 
-0 -0 0 68 2 86 255 
-0 -0 0 68 2 86 255 
-0 -0 0 68 2 86 255 
-0 -0 0 68 2 86 255 
-0 -0 0 68 2 86 255 
-0 -0 0 68 2 86 255 
-35.1895 -33.6137 11.1455 70 7 90 255 
-35.2907 -33.7354 10.7698 70 11 94 255 
-35.1987 -33.6348 10.233 70 8 92 255 
-27.4279 -26.1823 7.59748 72 22 104 255 
-27.4694 -26.2027 7.24173 71 17 100 255 
-15.513 -14.8293 3.91555 69 53 129 255 
-15.6054 -14.9069 3.72382 58 83 139 255 
-15.5873 -14.869 3.50445 72 29 111 255 
-15.6336 -14.8867 3.31107 70 48 126 255 
-15.5824 -14.8904 3.12889 70 50 126 255 
-15.5808 -14.8782 2.91662 70 50 126 255 
-15.5925 -14.8584 2.70946 71 45 123 255 
-15.603 -14.8471 2.51109 71 44 122 255 
-15.5928 -14.9004 2.33917 69 53 129 255 
-15.5925 -14.8737 2.13187 69 56 130 255 
-15.6014 -14.8617 1.92681 71 47 125 255 
-18.0982 -17.2034 2.00027 72 31 112 255 
-20.373 -19.4616 2.03441 72 23 105 255 
-20.4025 -19.4552 1.76872 72 29 111 255 
-22.7053 -21.6061 1.67002 72 20 103 255 
-24.5645 -23.3339 1.48518 70 10 93 255 
-22.8824 -21.8435 1.13787 70 11 94 255 
-0 -0 0 68 2 86 255 
-0 -0 0 68 1 84 255 
-27.6162 -26.2143 0.299061 69 4 87 255 
-22.964 -21.9137 -0.00554002 69 4 87 255 
-21.3213 -20.303 -0.282628 72 40 120 255 
-21.2832 -20.2316 -0.553579 72 33 115 255 
-21.3332 -20.2362 -0.831607 72 31 112 255 
-20.838 -19.8642 -1.04558 71 19 101 255 
-20.8941 -19.8822 -1.31475 72 20 103 255 
-20.2117 -19.2063 -1.53443 72 26 108 255 
-20.057 -19.0189 -1.78259 71 16 99 255 
-19.8063 -18.8741 -1.98512 70 8 92 255 
-16.3035 -15.5031 -1.84174 71 17 100 255 
-14.0147 -13.3036 -1.76538 71 16 99 255 
-12.2374 -11.6041 -1.70113 70 11 94 255 
-10.8531 -10.3314 -1.6331 72 38 119 255 
-9.75409 -9.27199 -1.59522 71 46 124 255 
-8.86216 -8.40959 -1.56505 72 22 104 255 
-8.14442 -7.7175 -1.54495 69 55 129 255 
-7.45088 -7.08533 -1.5018 71 46 124 255 
-6.8941 -6.54878 -1.47882 68 58 131 255 
-6.42096 -6.09093 -1.4604 70 52 128 255 
-6.01263 -5.69746 -1.44864 70 50 126 255 
-5.64875 -5.36413 -1.42971 68 58 131 255 
-5.32982 -5.05755 -1.41757 66 64 134 255 
-5.05107 -4.79144 -1.41266 57 86 140 255 
-4.80191 -4.55179 -1.40999 56 88 140 255 
-4.57546 -4.34036 -1.3993 50 102 142 255 
-4.36028 -4.13465 -1.39169 52 97 141 255 
-4.14862 -3.93263 -1.38187 58 84 140 255 
-3.94859 -3.74553 -1.37311 59 82 139 255 
-3.81734 -3.61489 -1.37433 57 86 140 255 
-3.65946 -3.46524 -1.36739 57 85 140 255 
-3.52957 -3.34464 -1.37047 64 69 136 255 
-3.35967 -3.18913 -1.3572 70 51 127 255 
-0 -0 0 68 2 86 255 
-0 -0 0 68 2 86 255 
-0 -0 0 68 2 86 255 
-0 -0 0 68 2 86 255 
-0 -0 0 68 1 84 255 
-0 -0 0 68 2 86 255 
-0 -0 0 68 2 86 255 
-35.7439 -33.7262 11.2554 70 11 94 255 
-35.6461 -33.659 10.815 70 8 92 255 
-27.8886 -26.324 8.06065 70 10 93 255 
-27.8042 -26.2173 7.65701 72 20 103 255 
-15.6418 -14.7383 4.09972 72 22 104 255 
-15.6109 -14.7406 3.91735 64 70 136 255 
-15.6242 -14.7425 3.70665 67 61 132 255 
-26.8889 -25.3366 6.01031 72 23 105 255 
-15.6699 -14.739 3.29955 71 46 124 255 
-15.6461 -14.7687 3.12343 70 51 127 255 
-15.6632 -14.7741 2.91501 70 51 127 255 
-15.6689 -14.7488 2.70696 69 53 129 255 
-15.6779 -14.7362 2.50855 71 45 123 255 
-15.6319 -14.7553 2.33141 70 51 127 255 
-15.6436 -14.7402 2.12645 68 57 131 255 
-15.6647 -14.7398 1.92343 70 50 126 255 
-18.1903 -17.0798 1.99883 72 31 112 255 
-20.5036 -19.3471 2.03556 72 23 105 255 
-20.5142 -19.3228 1.7681 72 28 110 255 
-22.8324 -21.4616 1.66965 72 24 106 255 
-24.7721 -23.2435 1.48908 71 13 96 255 
-35.5591 -33.53 1.75798 69 5 89 255 
-23.2277 -21.8634 0.846441 71 13 96 255 
-23.247 -21.8437 0.545667 70 10 93 255 
-23.2517 -21.8017 0.250343 70 7 90 255 
-0 -0 -0 68 2 86 255 
-21.3545 -20.0861 -0.281428 71 44 122 255 
-21.4302 -20.1225 -0.554182 72 38 119 255 
-21.438 -20.0871 -0.830872 72 40 120 255 
-21.1108 -19.8784 -1.05313 72 20 103 255 
-21.1248 -19.8563 -1.32158 71 17 100 255 
-20.4056 -19.1537 -1.5402 72 24 106 255 
-20.4304 -19.1363 -1.80531 72 26 108 255 
-19.9944 -18.8205 -1.99236 70 7 90 255 
-16.3867 -15.3918 -1.84044 71 13 96 255 
-14.0873 -13.2092 -1.76429 71 17 100 255 
-12.3258 -11.5451 -1.70354 71 17 100 255 
-10.9156 -10.264 -1.633 72 36 117 255 
-9.82021 -9.2208 -1.59675 71 46 124 255 
-8.91577 -8.35709 -1.56544 72 20 103 255 
-8.18149 -7.65791 -1.54304 70 51 127 255 
-7.50864 -7.05303 -1.50469 70 50 126 255 
-6.94424 -6.51582 -1.48097 69 53 129 255 
-6.47981 -6.07165 -1.46528 69 53 129 255 
-6.03597 -5.64969 -1.44589 70 48 126 255 
-5.68587 -5.33341 -1.43079 66 63 133 255 
-5.34786 -5.01266 -1.41416 64 69 136 255 
-5.0911 -4.77041 -1.41565 54 92 141 255 
-4.81547 -4.50887 -1.40582 58 83 139 255 
-4.59986 -4.31021 -1.39865 50 102 142 255 
-4.38202 -4.10449 -1.39057 57 86 140 255 
-4.17622 -3.91042 -1.38305 55 90 140 255 
-3.98635 -3.73515 -1.37825 61 77 138 255 
-3.84299 -3.59471 -1.3756 58 84 140 255 
-3.68558 -3.44734 -1.36923 60 80 139 255 
-3.5416 -3.31503 -1.36721 66 64 134 255 
-3.38128 -3.17042 -1.35805 69 53 129 255 
-0 -0 0 68 2 86 255 
-0 -0 0 68 2 86 255 
-0 -0 0 68 2 86 255 
-0 -0 0 68 2 86 255 
-0 -0 0 68 2 86 255 
-0 -0 0 68 2 86 255 
-0 -0 0 68 2 86 255 
-35.9894 -33.5428 11.2677 70 7 90 255 
-35.8877 -33.473 10.8258 70 8 92 255 
-28.1283 -26.2258 8.08328 71 17 100 255 
-28.0671 -26.1418 7.68511 72 22 104 255 
-15.6622 -14.5771 4.08154 71 45 123 255 
-15.6758 -14.6211 3.91107 65 68 135 255 
-15.6927 -14.6262 3.70155 70 48 126 255 
-27.1429 -25.2632 6.03231 72 26 108 255 
-15.7239 -14.6089 3.29197 72 40 120 255 
-15.7125 -14.6502 3.11869 70 50 126 255 
-15.7187 -14.6453 2.90857 70 51 127 255 
-15.6668 -14.5666 2.69111 71 47 125 255 
-15.6915 -14.5687 2.49639 71 46 124 255 
-15.6945 -14.6334 2.32731 68 58 131 255 
-15.7097 -14.6215 2.1232 67 62 133 255 
-15.7323 -14.6223 1.92067 71 44 122 255 
-18.2845 -16.9584 1.99771 72 35 116 255 
-20.6037 -19.204 2.03376 72 20 103 255 
-20.6032 -19.1693 1.76559 72 27 109 255 
-22.9731 -21.3299 1.67034 72 20 103 255 
-25.0388 -23.2065 1.49652 71 13 96 255 
-25.2827 -23.5486 1.24276 69 4 87 255 
-25.2934 -23.5167 0.916443 69 5 89 255 
-25.2361 -23.4229 0.588972 70 10 93 255 
-25.2991 -23.4314 0.270834 71 13 96 255 
-25.2204 -23.4824 -0.0060144 69 5 89 255 
-21.7425 -20.2011 -0.284903 71 44 122 255 
-21.716 -20.1416 -0.558366 72 41 121 255 
-21.6247 -20.0143 -0.833332 72 38 119 255 
-21.2441 -19.7594 -1.05371 71 16 99 255 
-21.4198 -19.8873 -1.33238 71 17 100 255 
-20.6282 -19.1259 -1.54811 72 20 103 255 
-20.6529 -19.1082 -1.81458 71 16 99 255 
-20.2694 -18.8462 -2.00821 70 7 90 255 
-16.5005 -15.3093 -1.84264 71 17 100 255 
-14.1294 -13.0867 -1.75947 71 17 100 255 
-12.4008 -11.4733 -1.70414 71 14 97 255 
-10.9827 -10.2009 -1.63365 72 35 116 255 
-9.88534 -9.16848 -1.59816 70 48 126 255 
-8.93485 -8.27257 -1.55985 72 22 104 255 
-8.23415 -7.61294 -1.54413 70 50 126 255 
-7.54089 -6.99673 -1.50252 70 48 126 255 
-6.98699 -6.47578 -1.48159 70 52 128 255 
-6.50898 -6.02441 -1.46349 70 52 128 255 
-6.07992 -5.62124 -1.44813 70 50 126 255 
-5.70045 -5.28171 -1.42628 67 61 132 255 
-5.37635 -4.97775 -1.41359 68 59 132 255 
-5.10157 -4.72178 -1.41048 55 90 140 255 
-4.84305 -4.47924 -1.40582 59 82 139 255 
-4.60616 -4.26333 -1.39259 51 98 141 255 
-4.40068 -4.07157 -1.38853 52 97 141 255 
-4.20013 -3.88472 -1.38305 55 90 140 255 
-4.01489 -3.71589 -1.38021 62 76 138 255 
-3.86426 -3.5704 -1.37534 60 79 138 255 
-3.70667 -3.42466 -1.36923 59 82 139 255 
-3.58519 -3.3148 -1.37617 59 82 139 255 
-3.39856 -3.14766 -1.3572 70 51 127 255 
-0 -0 0 68 2 86 255 
-0 -0 0 69 4 87 255 
-0 -0 0 68 2 86 255 
-0 -0 0 69 4 87 255 
-0 -0 0 68 2 86 255 
-0 -0 0 68 2 86 255 
-36.5371 -33.6497 11.8609 70 7 90 255 
-36.4298 -33.5379 11.3409 70 8 92 255 
-35.8238 -33.0047 10.7452 70 11 94 255 
-28.3585 -26.117 8.10323 72 23 105 255 
-28.3843 -26.1138 7.72793 71 19 101 255 
-15.7246 -14.4561 4.07461 67 61 132 255 
-15.7385 -14.5 3.90443 67 61 132 255 
-15.7648 -14.5136 3.69747 72 20 103 255 
-27.4899 -25.2732 6.07486 72 28 110 255 
-15.76 -14.4634 3.2809 72 38 119 255 
-15.7344 -14.4911 3.10533 72 41 121 255 
-15.7536 -14.4982 2.89851 69 55 129 255 
-15.7471 -14.4621 2.68961 69 53 129 255 
-15.7536 -14.4473 2.4921 70 52 128 255 
-15.7372 -14.4937 2.32041 69 55 129 255 
-15.7456 -14.4757 2.11602 69 53 129 255 
-15.7571 -14.4663 1.91283 71 44 122 255 
-18.3941 -16.8512 1.99835 72 35 116 255 
-20.6683 -19.0285 2.02858 72 24 106 255 
-20.7601 -19.079 1.76897 72 26 108 255 
-23.0999 -21.1852 1.67007 72 24 106 255 
-25.3686 -23.2245 1.50769 70 10 93 255 
-25.4267 -23.393 1.24276 72 27 109 255 
-25.4107 -23.3368 0.915488 72 23 105 255 
-25.383 -23.2709 0.589058 72 22 104 255 
-25.4099 -23.246 0.270488 71 16 99 255 
-25.35 -23.3143 -0.00601109 71 17 100 255 
-21.8314 -20.0355 -0.284452 71 42 122 255 
-21.868 -20.0343 -0.559101 72 40 120 255 
-21.9515 -20.068 -0.841162 72 40 120 255 
-21.5585 -19.8065 -1.06326 72 23 105 255 
-18.8917 -17.3255 -1.16849 70 8 92 255 
-20.6111 -18.8762 -1.53811 71 16 99 255 
-20.8869 -19.0881 -1.82481 71 14 97 255 
-20.3751 -18.7127 -2.00727 70 7 90 255 
-16.5941 -15.2078 -1.84264 70 10 93 255 
-14.2168 -13.0065 -1.76038 70 11 94 255 
-12.4952 -11.4191 -1.70745 71 17 100 255 
-11.0531 -10.1407 -1.63484 72 37 118 255 
-9.93701 -9.10362 -1.59745 70 50 126 255 
-8.98471 -8.21693 -1.55972 72 26 108 255 
-8.28802 -7.56895 -1.54549 69 53 129 255 
-7.57784 -6.94498 -1.50137 70 50 126 255 
-7.02587 -6.43212 -1.48143 68 58 131 255 
-6.5349 -5.97437 -1.46105 70 50 126 255 
-6.09248 -5.5639 -1.44296 69 55 129 255 
-5.75161 -5.26389 -1.43098 66 63 133 255 
-5.43071 -4.96654 -1.41984 68 59 132 255 
-5.12249 -4.68311 -1.40829 62 74 137 255 
-4.87477 -4.4534 -1.40707 62 74 137 255 
-4.6344 -4.23697 -1.39324 52 96 141 255 
-4.43062 -4.04909 -1.39011 53 95 141 255 
-4.22102 -3.85626 -1.38211 56 89 140 255 
-4.03976 -3.69315 -1.38094 60 80 139 255 
-3.88895 -3.54923 -1.37636 58 83 139 255 
-3.7269 -3.4012 -1.36896 60 80 139 255 
-3.60191 -3.28949 -1.37481 65 66 135 255 
-3.42135 -3.12998 -1.35861 70 52 128 255 
-0 -0 0 69 4 87 255 
-0 -0 0 68 2 86 255 
-0 -0 0 68 2 86 255 
-0 -0 0 68 2 86 255 
-0 -0 0 68 2 86 255 
-0 -0 0 68 2 86 255 
-36.8241 -33.4989 11.8872 70 8 92 255 
-36.8476 -33.5072 11.4067 70 7 90 255 
-28.8813 -26.2827 8.61432 70 8 92 255 
-28.6717 -26.0821 8.14684 72 20 103 255 
-28.7145 -26.0941 7.7741 71 17 100 255 
-15.789 -14.3376 4.06842 64 70 136 255 
-15.7806 -14.3607 3.89294 71 47 125 255 
-28.7004 -26.0991 6.6937 71 13 96 255 
-27.7687 -25.2169 6.10215 72 24 106 255 
-15.7906 -14.314 3.26893 71 46 124 255 
-15.7996 -14.373 3.10073 71 44 122 255 
-15.7851 -14.3493 2.88804 68 58 131 255 
-15.7966 -14.3299 2.683 69 55 129 255 
-15.8191 -14.3297 2.48851 70 48 126 255 
-15.7964 -14.3701 2.3161 70 52 128 255 
-15.8076 -14.3547 2.11247 69 56 130 255 
-15.808 -14.3352 1.90828 71 46 124 255 
-18.4839 -16.726 1.99691 72 29 111 255 
-20.7869 -18.9034 2.02879 72 23 105 255 
-20.8346 -18.9131 1.7654 72 27 109 255 
-23.2198 -21.0343 1.66938 72 22 104 255 
-25.6033 -23.1522 1.51316 71 14 97 255 
-25.4869 -23.1613 1.23874 71 16 99 255 
-25.5838 -23.2079 0.916576 71 16 99 255 
-25.5735 -23.1584 0.59017 70 10 93 255 
-28.8514 -26.0711 0.305415 70 11 94 255 
-25.4933 -23.159 -0.00601126 71 17 100 255 
-22.0962 -20.0302 -0.286295 71 44 122 255 
-22.1328 -20.0286 -0.56272 72 36 117 255 
-22.184 -20.0321 -0.845347 72 35 116 255 
-21.8003 -19.7833 -1.06917 71 19 101 255 
-18.9303 -17.1482 -1.16434 70 10 93 255 
-21.122 -19.1071 -1.56745 72 22 104 255 
-21.1348 -19.078 -1.8362 71 19 101 255 
-20.3366 -18.4486 -1.99229 70 7 90 255 
-16.6761 -15.0956 -1.84142 70 11 94 255 
-14.3126 -12.9337 -1.76238 70 10 93 255 
-12.5665 -11.3436 -1.70765 71 14 97 255 
-11.1093 -10.0673 -1.63397 72 35 116 255 
-10.017 -9.06447 -1.60134 71 45 123 255 
-9.03717 -8.16364 -1.5601 72 20 103 255 
-8.34313 -7.52592 -1.54713 70 50 126 255 
-7.61298 -6.89171 -1.49992 71 45 123 255 
-7.074 -6.39684 -1.48328 70 51 127 255 
-6.57436 -5.9368 -1.4617 70 50 126 255 
-6.12577 -5.52575 -1.44279 69 53 129 255 
-5.77943 -5.22455 -1.42989 64 70 136 255 
-5.45671 -4.92917 -1.4187 66 63 133 255 
-5.15622 -4.65619 -1.40968 62 73 137 255 
-4.91072 -4.43127 -1.40957 61 78 138 255 
-4.67335 -4.22023 -1.39713 51 98 141 255 
-4.45538 -4.02183 -1.39011 55 91 141 255 
-4.22584 -3.81335 -1.376 57 86 140 255 
-4.05299 -3.65984 -1.37776 56 88 140 255 
-3.89197 -3.50846 -1.36978 59 81 139 255 
-3.75845 -3.38796 -1.37289 54 92 141 255 
-3.60201 -3.24928 -1.36721 66 64 134 255 
-3.43337 -3.1025 -1.3558 69 55 129 255 
-0 -0 0 69 4 87 255 
-0 -0 0 68 2 86 255 
-0 -0 0 68 2 86 255 
-0 -0 0 68 2 86 255 
-0 -0 0 69 4 87 255 
-0 -0 0 68 2 86 255 
-37.1874 -33.4146 11.938 70 8 92 255 
-37.1403 -33.3593 11.4338 70 7 90 255 
-29.0217 -26.0868 8.60828 70 10 93 255 
-28.9811 -26.0404 8.18921 72 22 104 255 
-28.9887 -26.0203 7.80495 71 17 100 255 
-15.827 -14.1958 4.05568 66 65 134 255 
-15.7857 -14.1893 3.87266 72 29 111 255 
-29.047 -26.0904 6.73706 71 14 97 255 
-28.1103 -25.2141 6.1431 72 23 105 255 
-15.8274 -14.1713 3.25846 72 40 120 255 
-15.8249 -14.2196 3.08852 71 45 123 255 
-15.8374 -14.2204 2.8816 69 53 129 255 
-15.865 -14.2155 2.67975 70 51 127 255 
-15.829 -14.1628 2.47635 70 52 128 255 
-15.8406 -14.2337 2.30974 69 55 129 255 
-15.8539 -14.2203 2.10696 69 56 130 255 
-15.8378 -14.1861 1.90134 71 47 125 255 
-18.5861 -16.6123 1.99691 72 33 115 255 
-20.921 -18.7921 2.0306 72 24 106 255 
-20.9287 -18.7655 1.76359 72 27 109 255 
-23.3239 -20.8695 1.66763 72 22 104 255 
-25.7218 -22.974 1.5118 71 14 97 255 
-0 -0 0 68 1 84 255 
-0 -0 0 68 1 84 255 
-0 -0 0 68 2 86 255 
-29.131 -26.0007 0.306679 72 23 105 255 
-0 -0 -0 68 2 86 255 
-22.3043 -19.9709 -0.287399 72 40 120 255 
-22.4387 -20.0563 -0.567357 71 46 124 255 
-22.4363 -20.0114 -0.850266 72 38 119 255 
-22.0425 -19.7579 -1.07509 71 19 101 255 
-19.0143 -17.0131 -1.16307 70 10 93 255 
-21.3118 -19.0423 -1.57284 71 14 97 255 
-21.2924 -18.9844 -1.83974 70 7 90 255 
-19.8121 -17.7524 -1.9302 70 8 92 255 
-16.7773 -15.001 -1.8424 71 14 97 255 
-14.4184 -12.8695 -1.76565 70 10 93 255 
-12.6351 -11.2656 -1.70755 71 19 101 255 
-11.1471 -9.97775 -1.6305 72 33 115 255 
-10.0739 -9.00416 -1.60157 70 48 126 255 
-9.11373 -8.13181 -1.56467 72 23 105 255 
-8.36401 -7.45218 -1.54249 70 52 128 255 
-7.64848 -6.83893 -1.49862 70 50 126 255 
-7.10206 -6.34344 -1.48097 70 51 127 255 
-6.6114 -5.89701 -1.46187 70 50 126 255 
-6.16545 -5.4933 -1.44416 70 51 127 255 
-5.7857 -5.16606 -1.42357 65 68 135 255 
-5.48025 -4.88972 -1.417 67 62 133 255 
-5.18981 -4.62903 -1.41107 64 70 136 255 
-4.93563 -4.3991 -1.40894 60 79 138 255 
-4.70426 -4.19602 -1.39865 50 100 142 255 
-4.48361 -3.99766 -1.39124 56 88 140 255 
-4.24698 -3.78541 -1.37529 56 88 140 255 
-4.06814 -3.62845 -1.37531 61 78 138 255 
-3.91415 -3.48516 -1.37003 62 74 137 255 
-3.76259 -3.35007 -1.36687 57 85 140 255 
-3.61398 -3.22007 -1.36423 67 61 132 255 
-3.46594 -3.09351 -1.36114 70 51 127 255 
-0 -0 0 68 2 86 255 
-0 -0 0 68 2 86 255 
-0 -0 0 68 2 86 255 
-0 -0 0 68 2 86 255 
-0 -0 0 69 4 87 255 
-0 -0 0 69 4 87 255 
-37.7089 -33.4673 12.0393 71 13 96 255 
-35.4776 -31.4748 10.8622 69 5 89 255 
-29.3185 -26.0301 8.64878 71 17 100 255 
-29.3461 -26.0447 8.24701 71 19 101 255 
-29.3158 -25.9909 7.84994 71 14 97 255 
-15.8719 -14.0613 4.045 70 50 126 255 
-15.8593 -14.0804 3.86943 72 32 113 255 
-15.8376 -14.051 3.65326 72 27 109 255 
-15.8684 -14.0587 3.44889 72 33 115 255 
-15.8896 -14.0523 3.25346 66 63 133 255 
-15.8771 -14.0913 3.08177 69 53 129 255 
-15.8999 -14.1013 2.87718 69 55 129 255 
-15.9111 -14.0817 2.67289 69 55 129 255 
-15.8977 -14.0497 2.47357 71 47 125 255 
-15.8898 -14.1026 2.30424 69 55 129 255 
-15.8962 -14.0831 2.10105 70 48 126 255 
-15.8962 -14.0635 1.89795 71 45 123 255 
-18.6743 -16.4861 1.99548 72 35 116 255 
-21.0292 -18.6575 2.02995 71 19 101 255 
-21.045 -18.6381 1.76371 72 27 109 255 
-23.4425 -20.7181 1.66699 72 22 104 255 
-25.9012 -22.8501 1.51408 70 10 93 255 
-0 -0 0 68 1 84 255 
-0 -0 0 68 1 84 255 
-0 -0 0 68 2 86 255 
-29.4422 -25.9557 0.308273 72 26 108 255 
-0 -0 -0 68 2 86 255 
-22.7276 -20.1 -0.291258 72 29 111 255 
-22.6378 -19.9857 -0.569279 72 38 119 255 
-22.6944 -19.9929 -0.855383 72 32 113 255 
-22.2262 -19.6779 -1.07814 72 22 104 255 
-22.2667 -19.6785 -1.3546 72 20 103 255 
-21.5967 -19.0599 -1.5852 72 24 106 255 
-21.5972 -19.0196 -1.85596 71 17 100 255 
-20.6467 -18.273 -2.00054 70 7 90 255 
-16.8705 -14.8991 -1.84256 71 16 99 255 
-14.5061 -12.7887 -1.76674 71 16 99 255 
-12.7302 -11.2109 -1.71107 71 17 100 255 
-11.1873 -9.89073 -1.62747 72 31 112 255 
-10.1133 -8.92837 -1.5991 71 46 124 255 
-9.17908 -8.0895 -1.56734 71 47 125 255 
-8.42445 -7.41381 -1.54522 70 52 128 255 
-7.69549 -6.79646 -1.49963 71 47 125 255 
-7.15419 -6.31151 -1.48374 70 50 126 255 
-6.62599 -5.83742 -1.45714 71 45 123 255 
-6.21161 -5.46643 -1.44709 71 45 123 255 
-5.81286 -5.12656 -1.42249 66 63 133 255 
-5.49837 -4.84561 -1.41397 67 62 133 255 
-5.18944 -4.57183 -1.40332 68 59 132 255 
-4.95665 -4.36356 -1.40728 57 85 140 255 
-4.72039 -4.15869 -1.39583 51 98 141 255 
-4.51171 -3.97329 -1.39237 54 92 141 255 
-4.27086 -3.75992 -1.37553 59 81 139 255 
-4.09323 -3.60599 -1.37629 63 72 137 255 
-3.93837 -3.46363 -1.37105 60 79 138 255 
-3.78452 -3.3282 -1.36739 62 73 137 255 
-3.63873 -3.20229 -1.36613 69 56 130 255 
-3.49062 -3.07727 -1.36339 70 52 128 255 
-0 -0 0 68 2 86 255 
-0 -0 0 68 2 86 255 
-0 -0 0 68 2 86 255 
-0 -0 0 69 4 87 255 
-0 -0 0 68 2 86 255 
-37.9136 -33.2464 12.5539 70 7 90 255 
-38.0277 -33.3353 12.0755 70 8 92 255 
-29.9568 -26.2502 9.12245 70 7 90 255 
-29.7332 -26.0738 8.72375 71 17 100 255 
-29.6172 -25.9622 8.27827 71 16 99 255 
-29.5566 -25.8822 7.87174 71 16 99 255 
-15.8543 -13.8731 4.01877 72 28 110 255 
-15.8307 -13.8823 3.8416 71 19 101 255 
-15.8509 -13.8899 3.63659 72 24 106 255 
-15.8949 -13.9091 3.43604 72 27 109 255 
-15.939 -13.9227 3.24603 66 64 134 255 
-15.9275 -13.9623 3.07487 70 51 127 255 
-15.9235 -13.9486 2.86591 70 50 126 255 
-15.912 -13.9094 2.65866 69 55 129 255 
-15.9589 -13.9303 2.46975 71 47 125 255 
-15.9259 -13.9609 2.29701 70 52 128 255 
-15.9344 -13.9434 2.09475 70 51 127 255 
-15.9814 -13.9651 1.89786 72 37 118 255 
-18.7473 -16.3469 1.99252 72 32 113 255 
-21.1208 -18.5084 2.02779 72 24 106 255 
-21.1274 -18.481 1.76108 72 29 111 255 
-23.5707 -20.5751 1.66709 72 22 104 255 
-25.9264 -22.591 1.50742 71 14 97 255 
-0 -0 0 68 2 86 255 
-0 -0 0 68 2 86 255 
-0 -0 0 68 2 86 255 
-29.7895 -25.9388 0.310237 72 22 104 255 
-0 -0 -0 68 2 86 255 
-22.8535 -19.9628 -0.291296 71 42 122 255 
-22.9205 -19.9864 -0.573294 71 42 122 255 
-23.1055 -20.1046 -0.86621 72 23 105 255 
-22.515 -19.6885 -1.08627 71 17 100 255 
-22.4999 -19.6401 -1.36143 71 16 99 255 
-21.8404 -19.0379 -1.59449 71 19 101 255 
-21.791 -18.9542 -1.86259 71 19 101 255 
-20.8966 -18.2668 -2.01385 70 7 90 255 
-16.9451 -14.7809 -1.84077 71 16 99 255 
-14.6151 -12.7262 -1.77047 71 13 96 255 
-12.7739 -11.111 -1.70775 71 14 97 255 
-11.271 -9.84217 -1.63083 72 23 105 255 
-10.1679 -8.86615 -1.5991 71 44 122 255 
-9.24501 -8.04736 -1.57014 71 46 124 255 
-8.47501 -7.36653 -1.54618 69 53 129 255 
-7.76837 -6.77643 -1.5057 70 48 126 255 
-7.19352 -6.26814 -1.48389 68 57 131 255 
-6.65648 -5.79212 -1.456 70 50 126 255 
-6.24354 -5.42692 -1.44675 69 56 130 255 
-5.86497 -5.10888 -1.42755 66 64 134 255 
-5.53318 -4.8163 -1.41529 66 64 134 255 
-5.21887 -4.54119 -1.40372 68 57 131 255 
-4.97153 -4.3228 -1.40394 58 83 139 255 
-4.74214 -4.12644 -1.39475 54 93 141 255 
-4.53894 -3.94809 -1.39327 54 92 141 255 
-4.31072 -3.74832 -1.38093 56 88 140 255 
-4.11309 -3.57889 -1.37556 60 80 139 255 
-3.96393 -3.44321 -1.37256 62 76 138 255 
-3.79176 -3.29352 -1.36268 68 59 132 255 
-3.64596 -3.16917 -1.36152 69 56 130 255 
-3.50075 -3.04823 -1.36002 67 61 132 255 
-0 -0 0 68 2 86 255 
-0 -0 0 68 2 86 255 
-0 -0 0 68 2 86 255 
-0 -0 0 69 4 87 255 
-0 -0 0 68 2 86 255 
-38.5078 -33.3518 12.6826 70 7 90 255 
-38.5551 -33.3815 12.1777 70 8 92 255 
-29.9729 -25.9408 9.07869 71 13 96 255 
-29.9192 -25.9138 8.7315 71 17 100 255 
-29.9498 -25.9305 8.32661 71 19 101 255 
-16.0878 -13.9143 4.2618 71 47 125 255 
-16.0239 -13.8488 4.04013 71 13 96 255 
-30.0272 -26.0074 7.24777 70 11 94 255 
-30.0081 -25.9718 6.84792 72 22 104 255 
-28.993 -25.0583 6.23414 71 19 101 255 
-16.0107 -13.813 3.2433 72 41 121 255 
-15.9897 -13.8443 3.07042 69 55 129 255 
-15.9886 -13.8331 2.86229 69 53 129 255 
-15.9873 -13.8031 2.65704 69 55 129 255 
-15.9779 -13.775 2.45956 71 47 125 255 
-15.9602 -13.8187 2.28968 70 52 128 255 
-15.9827 -13.8135 2.08993 69 53 129 255 
-16.0261 -13.8316 1.89305 72 35 116 255 
-18.8563 -16.2394 1.99348 72 28 110 255 
-21.2649 -18.4052 2.03074 72 24 106 255 
-21.2359 -18.3471 1.76071 72 27 109 255 
-23.6927 -20.4269 1.66683 72 26 108 255 
-26.1198 -22.479 1.51062 71 17 100 255 
-30.0688 -26.0068 1.42997 69 5 89 255 
-30.0886 -25.9773 1.0548 70 8 92 255 
-30.1081 -25.9488 0.679911 70 10 93 255 
-30.1149 -25.8989 0.311965 71 19 101 255 
-29.9468 -25.8921 -0.00690941 69 5 89 255 
-23.0982 -19.928 -0.292851 72 40 120 255 
-23.229 -20.0059 -0.577931 72 40 120 255 
-23.2815 -20.0081 -0.868189 72 35 116 255 
-22.7368 -19.6375 -1.09113 71 19 101 255 
-22.7842 -19.6432 -1.37131 71 17 100 255 
-22.0741 -19.0045 -1.60301 72 20 103 255 
-21.9228 -18.8338 -1.86394 71 13 96 255 
-20.9169 -18.0594 -2.0051 70 7 90 255 
-17.0234 -14.6662 -1.83946 71 14 97 255 
-14.7004 -12.6428 -1.77138 70 11 94 255 
-12.8223 -11.0155 -1.70515 70 11 94 255 
-11.3334 -9.77477 -1.63115 71 16 99 255 
-10.2387 -8.81785 -1.60169 71 44 122 255 
-9.2912 -7.98789 -1.56963 70 48 126 255 
-8.51855 -7.3131 -1.5459 70 48 126 255 
-7.80081 -6.72089 -1.50397 70 50 126 255 
-7.24758 -6.23742 -1.48712 70 50 126 255 
-6.69788 -5.75631 -1.45731 69 55 129 255 
-6.2842 -5.39493 -1.44847 69 55 129 255 
-5.90143 -5.07729 -1.42881 65 68 135 255 
-5.54923 -4.77073 -1.41188 67 62 133 255 
-5.22063 -4.48673 -1.39676 67 61 132 255 
-5.00612 -4.29922 -1.40624 58 84 140 255 
-4.77995 -4.10808 -1.39843 52 97 141 255 
-4.56308 -3.92016 -1.39327 57 85 140 255 
-4.34322 -3.73003 -1.38399 58 84 140 255 
-4.12247 -3.54285 -1.3714 60 80 139 255 
-3.98278 -3.41693 -1.3718 62 76 138 255 
-3.81849 -3.27585 -1.36504 68 59 132 255 
-3.66972 -3.1505 -1.36314 69 53 129 255 
-3.51648 -3.02419 -1.35889 69 55 129 255 
-0 -0 0 68 2 86 255 
-0 -0 0 68 2 86 255 
-0 -0 0 68 2 86 255 
-0 -0 0 68 2 86 255 
-0 -0 0 68 2 86 255 
-38.8378 -33.2227 12.7239 70 8 92 255 
-38.8427 -33.2158 12.204 70 8 92 255 
-30.2901 -25.892 9.12646 71 13 96 255 
-30.3277 -25.9437 8.8041 71 19 101 255 
-30.2638 -25.8792 8.3696 72 20 103 255 
-16.1706 -13.8134 4.26121 63 71 136 255 
-30.2985 -25.8627 7.59906 71 19 101 255 
-30.3006 -25.9205 7.27523 71 16 99 255 
-30.3624 -25.9543 6.8923 71 19 101 255 
-29.3699 -25.0709 6.28199 71 17 100 255 
-16.0831 -13.7043 3.24088 71 45 123 255 
-16.0225 -13.7015 3.0605 71 42 122 255 
-16.0603 -13.7238 2.86 68 58 131 255 
-16.043 -13.6802 2.65229 69 53 129 255 
-16.0425 -13.66 2.45655 70 51 127 255 
-16.022 -13.7011 2.28645 70 50 126 255 
-16.0422 -13.6938 2.08668 69 53 129 255 
-16.0629 -13.6923 1.88744 72 32 113 255 
-18.9381 -16.1085 1.99164 72 31 112 255 
-21.3623 -18.2614 2.0293 72 23 105 255 
-21.3549 -18.2223 1.76127 72 26 108 255 
-23.7621 -20.2338 1.66294 72 23 105 255 
-26.2428 -22.3061 1.50979 71 13 96 255 
-28.2294 -24.1146 1.33543 70 10 93 255 
-30.2497 -25.7941 1.05488 71 13 96 255 
-30.2812 -25.7759 0.680236 71 14 97 255 
-30.3365 -25.7674 0.312617 71 14 97 255 
-30.1902 -25.7806 -0.00692896 72 23 105 255 
-23.2924 -19.8475 -0.293763 72 32 113 255 
-23.3582 -19.8688 -0.578101 71 45 123 255 
-23.4152 -19.8746 -0.868613 72 36 117 255 
-22.945 -19.5729 -1.09534 72 20 103 255 
-22.9172 -19.514 -1.37209 70 10 93 255 
-21.3961 -18.1934 -1.54564 71 13 96 255 
-22.3309 -18.9475 -1.88872 72 20 103 255 
-20.9712 -17.8828 -1.99974 70 10 93 255 
-17.088 -14.5402 -1.83677 71 16 99 255 
-14.739 -12.5195 -1.76674 71 14 97 255 
-12.8828 -10.9309 -1.70424 71 14 97 255 
-11.3901 -9.70247 -1.63072 71 17 100 255 
-10.3017 -8.76258 -1.6031 71 46 124 255 
-9.33172 -7.92367 -1.56823 71 44 122 255 
-8.55268 -7.25172 -1.54399 71 42 122 255 
-7.8517 -6.68123 -1.50585 70 50 126 255 
-7.27668 -6.18516 -1.48528 70 52 128 255 
-6.76015 -5.73809 -1.46317 69 55 129 255 
-6.32019 -5.35881 -1.44916 69 56 130 255 
-5.92797 -5.03716 -1.42773 66 64 134 255 
-5.57166 -4.73087 -1.41018 65 66 135 255 
-5.26375 -4.46793 -1.40093 69 56 130 255 
-5.02793 -4.26463 -1.40498 58 84 140 255 
-4.8006 -4.07489 -1.39713 54 92 141 255 
-4.59225 -3.8965 -1.39485 55 90 140 255 
-4.36973 -3.70645 -1.38516 58 83 139 255 
-4.16187 -3.53254 -1.37727 59 82 139 255 
-4.00514 -3.39368 -1.37231 62 76 138 255 
-3.85987 -3.27045 -1.37263 62 73 137 255 
-3.70366 -3.14037 -1.36857 69 53 129 255 
-3.52984 -2.9982 -1.35692 70 52 128 255 
-0 -0 0 68 2 86 255 
-0 -0 0 68 2 86 255 
-0 -0 0 68 2 86 255 
-0 -0 0 68 2 86 255 
-39.3203 -33.209 13.3584 70 7 90 255 
-39.3085 -33.2099 12.8112 70 10 93 255 
-39.1491 -33.064 12.2362 69 5 89 255 
-30.6785 -25.8999 9.19545 71 14 97 255 
-30.4908 -25.7609 8.80539 70 11 94 255 
-30.407 -25.6803 8.36549 71 13 96 255 
-16.2131 -13.6785 4.25021 62 73 137 255 
-30.6594 -25.8473 7.64965 70 8 92 255 
-30.6875 -25.9271 7.32979 71 17 100 255 
-30.7176 -25.9334 6.93668 71 14 97 255 
-29.7722 -25.1002 6.33498 70 11 94 255 
-16.0935 -13.5436 3.22617 71 42 122 255 
-16.0722 -13.5742 3.05404 70 50 126 255 
-16.0753 -13.5669 2.8478 69 55 129 255 
-16.1016 -13.5605 2.64817 69 55 129 255 
-16.0963 -13.5364 2.45203 70 51 127 255 
-16.0776 -13.5788 2.28246 69 55 129 255 
-16.0879 -13.5631 2.08175 68 59 132 255 
-16.1443 -13.5916 1.88718 72 27 109 255 
-19.0328 -15.9888 1.99124 72 32 113 255 
-21.4183 -18.083 2.02404 72 20 103 255 
-21.4739 -18.0974 1.7619 72 28 110 255 
-23.9355 -20.1294 1.6664 72 23 105 255 
-26.4167 -22.1761 1.51194 71 14 97 255 
-30.4567 -25.6957 1.43331 71 14 97 255 
-28.229 -23.7734 0.979309 71 14 97 255 
-30.4572 -25.605 0.680647 70 8 92 255 
-30.6863 -25.7421 0.314588 71 19 101 255 
-30.5764 -25.7876 -0.00698114 71 16 99 255 
-23.8207 -20.0467 -0.29887 72 22 104 255 
-23.6695 -19.8846 -0.582775 71 44 122 255 
-23.6631 -19.8365 -0.873278 72 38 119 255 
-23.2886 -19.6204 -1.10598 72 20 103 255 
-23.3041 -19.5981 -1.38802 71 13 96 255 
-22.5098 -18.9036 -1.61768 72 22 104 255 
-22.5845 -18.9255 -1.9003 72 22 104 255 
-21.1491 -17.8116 -2.00625 70 7 90 255 
-17.2578 -14.503 -1.84542 70 11 94 255 
-14.8491 -12.457 -1.77075 71 13 96 255 
-12.9603 -10.8606 -1.70565 71 14 97 255 
-11.4624 -9.64328 -1.63256 72 20 103 255 
-10.3712 -8.71262 -1.60557 71 45 123 255 
-9.39157 -7.87582 -1.57014 70 48 126 255 
-8.57347 -7.17939 -1.53976 71 46 124 255 
-7.86679 -6.61128 -1.50093 71 45 123 255 
-7.29633 -6.12514 -1.48159 69 56 130 255 
-6.79145 -5.69333 -1.46235 69 55 129 255 
-6.35673 -5.32309 -1.45002 69 53 129 255 
-5.94747 -4.99121 -1.42502 68 59 132 255 
-5.60284 -4.69849 -1.41075 68 58 131 255 
-5.30158 -4.44436 -1.40372 69 55 129 255 
-5.054 -4.2337 -1.40498 59 82 139 255 
-4.81355 -4.03532 -1.39367 54 92 141 255 
-4.60637 -3.86012 -1.39192 55 91 141 255 
-4.39463 -3.68144 -1.38587 60 80 139 255 
-4.18347 -3.50694 -1.37727 58 84 140 255 
-4.02144 -3.36531 -1.37079 62 73 137 255 
-3.8658 -3.23494 -1.36765 66 64 134 255 
-3.72581 -3.12006 -1.36965 70 48 126 255 
-3.54009 -2.96971 -1.35383 71 45 123 255 
-0 -0 0 68 2 86 255 
-0 -0 0 68 2 86 255 
-0 -0 0 68 1 84 255 
-0 -0 0 68 2 86 255 
-39.8125 -33.2083 13.4561 70 7 90 255 
-39.7857 -33.1968 12.9001 70 7 90 255 
-31.07 -25.9158 9.6612 71 13 96 255 
-30.2319 -25.2068 9.01506 70 8 92 255 
-30.2209 -25.2167 8.6826 71 14 97 255 
-30.1853 -25.1774 8.26182 71 16 99 255 
-16.259 -13.5474 4.24038 62 73 137 255 
-30.1667 -25.1169 7.48813 71 13 96 255 
-30.1382 -25.1477 7.16161 71 19 101 255 
-30.1798 -25.1639 6.78025 72 22 104 255 
-30.2253 -25.1665 6.39841 71 17 100 255 
-16.1277 -13.4041 3.21647 71 42 122 255 
-16.1248 -13.45 3.04829 70 50 126 255 
-16.1172 -13.4337 2.84055 70 51 127 255 
-16.138 -13.4227 2.64056 69 56 130 255 
-16.1524 -13.4151 2.44798 70 51 127 255 
-16.1271 -13.4519 2.27771 70 52 128 255 
-16.1379 -13.4367 2.07752 68 57 131 255 
-16.1677 -13.4426 1.88023 72 20 103 255 
-19.1336 -15.8743 1.99156 72 29 111 255 
-21.5549 -17.9729 2.02649 72 20 103 255 
-21.5845 -17.9653 1.7619 72 26 108 255 
-24.0647 -19.9873 1.66683 72 20 103 255 
-26.5692 -22.0276 1.5129 71 14 97 255 
-28.9616 -24.1317 1.35596 70 10 93 255 
-28.3421 -23.5729 0.978195 70 11 94 255 
-28.7529 -23.8726 0.639274 71 13 96 255 
-30.0682 -24.9109 0.306679 70 11 94 255 
-29.9657 -24.9595 -0.00680661 71 14 97 255 
-23.8633 -19.8337 -0.297872 72 27 109 255 
-23.8996 -19.829 -0.585433 72 41 121 255 
-23.9461 -19.8248 -0.879215 72 32 113 255 
-23.4754 -19.5327 -1.10914 72 22 104 255 
-23.47 -19.493 -1.39076 70 11 94 255 
-21.3257 -17.6873 -1.52476 71 17 100 255 
-21.3217 -17.6458 -1.78491 70 11 94 255 
-21.0403 -17.5004 -1.9857 70 11 94 255 
-17.328 -14.3816 -1.84346 71 13 96 255 
-14.8946 -12.3402 -1.76711 71 17 100 255 
-13.032 -10.7853 -1.70635 71 14 97 255 
-11.5603 -9.60517 -1.63809 72 20 103 255 
-10.4268 -8.65072 -1.60593 71 46 124 255 
-9.45576 -7.83134 -1.57281 72 40 120 255 
-8.61889 -7.12791 -1.54004 72 41 121 255 
-7.89883 -6.55594 -1.49934 70 50 126 255 
-7.33606 -6.08215 -1.48205 70 51 127 255 
-6.81866 -5.64526 -1.46073 70 51 127 255 
-6.39686 -5.29027 -1.45174 70 50 126 255 
-5.99161 -4.96592 -1.42827 68 58 131 255 
-5.63308 -4.66528 -1.41113 69 55 129 255 
-5.34536 -4.4255 -1.40809 69 56 130 255 
-5.07159 -4.19575 -1.40269 63 72 137 255 
-4.83822 -4.00571 -1.39367 51 98 141 255 
-4.62096 -3.82433 -1.38921 54 93 141 255 
-4.40815 -3.64697 -1.38305 60 79 138 255 
-4.20267 -3.47935 -1.37654 56 88 140 255 
-4.03903 -3.33811 -1.36978 61 78 138 255 
-3.9012 -3.22407 -1.37315 67 61 132 255 
-3.72412 -3.07996 -1.36206 70 51 127 255 
-3.59593 -2.97915 -1.36817 71 47 125 255 
-0 -0 0 69 4 87 255 
-0 -0 0 68 2 86 255 
-0 -0 0 69 4 87 255 
-0 -0 0 68 2 86 255 
-40.2306 -33.1406 13.5285 70 8 92 255 
-40.1789 -33.1088 12.9614 70 10 93 255 
-0 -0 0 68 2 86 255 
-21.1463 -17.4126 6.27377 69 5 89 255 
-30.2402 -24.9197 8.64404 71 17 100 255 
-30.2327 -24.9039 8.23281 71 17 100 255 
-16.2964 -13.41 4.2286 66 65 134 255 
-30.2816 -24.8995 7.47858 72 20 103 255 
-30.1485 -24.8441 7.12769 71 17 100 255 
-30.2142 -24.8799 6.75355 71 17 100 255 
-30.0925 -24.7449 6.33803 71 17 100 255 
-16.2035 -13.2999 3.21526 71 45 123 255 
-16.1772 -13.3263 3.04269 70 48 126 255 
-16.1786 -13.3175 2.83693 69 55 129 255 
-16.1879 -13.297 2.63532 68 58 131 255 
-16.1798 -13.2711 2.43976 71 47 125 255 
-16.1794 -13.328 2.27351 70 52 128 255 
-16.1632 -13.2907 2.07024 69 55 129 255 
-16.2383 -13.3337 1.87889 72 24 106 255 
-19.2314 -15.7572 1.99164 72 28 110 255 
-21.6802 -17.853 2.02793 72 23 105 255 
-21.6944 -17.8325 1.7619 72 27 109 255 
-24.1607 -19.8177 1.66502 72 23 105 255 
-26.6969 -21.8585 1.5125 70 11 94 255 
-29.9456 -24.6419 1.39492 71 16 99 255 
-28.4908 -23.4024 0.978355 71 17 100 255 
-29.8939 -24.5117 0.661286 71 17 100 255 
-28.3554 -23.1999 0.287751 71 13 96 255 
-30.021 -24.6951 -0.00678462 72 22 104 255 
-27.5895 -22.6459 -0.342642 71 16 99 255 
-27.9348 -22.889 -0.680825 70 7 90 255 
-27.956 -22.8569 -1.02127 71 14 97 255 
-23.7909 -19.5495 -1.11835 72 22 104 255 
-23.7923 -19.5152 -1.40273 71 13 96 255 
-23.0228 -18.8575 -1.63779 71 16 99 255 
-23.0607 -18.8478 -1.92077 71 13 96 255 
-21.5418 -17.6951 -2.02275 70 7 90 255 
-17.3666 -14.2345 -1.83824 70 11 94 255 
-14.9223 -12.2095 -1.76147 71 16 99 255 
-13.0779 -10.6887 -1.70374 71 16 99 255 
-11.6467 -9.55676 -1.64199 72 24 106 255 
-10.4827 -8.5891 -1.6064 70 48 126 255 
-9.50056 -7.77066 -1.5723 71 45 123 255 
-8.67091 -7.08178 -1.54154 72 38 119 255 
-7.94962 -6.51613 -1.50137 71 45 123 255 
-7.38547 -6.04704 -1.48451 71 47 125 255 
-6.84324 -5.5952 -1.45861 70 48 126 255 
-6.42615 -5.24843 -1.45106 70 52 128 255 
-6.02958 -4.93529 -1.43007 66 64 134 255 
-5.65855 -4.62814 -1.41037 66 63 133 255 
-5.35648 -4.37959 -1.40392 68 57 131 255 
-5.07679 -4.14784 -1.39706 63 72 137 255 
-4.87026 -3.98213 -1.39583 53 95 141 255 
-4.6383 -3.79097 -1.38741 55 91 141 255 
-4.42442 -3.61494 -1.38117 58 84 140 255 
-4.22319 -3.45288 -1.37629 55 91 141 255 
-4.05119 -3.30654 -1.367 61 77 138 255 
-3.91343 -3.19397 -1.37054 70 51 127 255 
-3.74593 -3.05949 -1.36314 70 51 127 255 
-3.60597 -2.95035 -1.36508 70 52 128 255 
-0 -0 0 69 4 87 255 
-0 -0 0 68 2 86 255 
-0 -0 0 68 2 86 255 
-0 -0 0 68 2 86 255 
-40.669 -33.0849 13.6073 70 7 90 255 
-40.3309 -32.8206 12.9452 70 8 92 255 
-0 -0 0 69 4 87 255 
-21.0069 -17.0826 6.20122 70 8 92 255 
-21.1135 -17.1823 6.00497 72 35 116 255 
-21.1355 -17.1936 5.72667 72 35 116 255 
-16.3099 -13.2541 4.21091 72 38 119 255 
-21.098 -17.1322 5.18447 72 27 109 255 
-21.0945 -17.1668 4.96215 72 41 121 255 
-21.0939 -17.1536 4.69133 72 27 109 255 
-21.1159 -17.1474 4.42516 72 31 112 255 
-16.1934 -13.1262 3.19722 71 44 122 255 
-16.2364 -13.2086 3.03852 68 58 131 255 
-16.207 -13.1749 2.82767 69 53 129 255 
-16.2306 -13.1661 2.62908 68 59 132 255 
-16.2247 -13.1421 2.43432 70 52 128 255 
-16.2354 -13.2078 2.26995 68 58 131 255 
-16.2321 -13.1812 2.06866 70 52 128 255 
-16.4242 -13.3185 1.89092 71 19 101 255 
-19.3401 -15.6489 1.99292 72 29 111 255 
-21.7939 -17.7234 2.02836 72 20 103 255 
-21.7887 -17.6871 1.76071 72 29 111 255 
-24.2686 -19.6584 1.66411 72 22 104 255 
-26.752 -21.6308 1.50808 71 13 96 255 
-30.1769 -24.5232 1.39866 72 23 105 255 
-28.9141 -23.4545 0.98793 71 13 96 255 
-30.2675 -24.509 0.666211 71 13 96 255 
-31.897 -25.7724 0.322081 70 8 92 255 
-30.1859 -24.5218 -0.00678776 72 22 104 255 
-27.87 -22.5914 -0.344399 71 17 100 255 
-28.4268 -23.0021 -0.689363 72 22 104 255 
-28.3041 -22.8532 -1.02885 72 20 103 255 
-23.9842 -19.4629 -1.1218 71 19 101 255 
-24.0762 -19.5022 -1.41239 70 10 93 255 
-23.3616 -18.8968 -1.65362 71 13 96 255 
-23.2287 -18.7485 -1.92515 71 16 99 255 
-21.5416 -17.4746 -2.01262 70 8 92 255 
-17.4203 -14.1008 -1.83473 71 13 96 255 
-15.0379 -12.1509 -1.76629 71 13 96 255 
-13.1967 -10.6514 -1.71067 70 11 94 255 
-11.7013 -9.48198 -1.64145 72 22 104 255 
-10.5391 -8.52774 -1.60699 71 44 122 255 
-9.58587 -7.74276 -1.57852 71 42 122 255 
-8.70571 -7.02161 -1.54004 72 35 116 255 
-8.00484 -6.47968 -1.50426 70 50 126 255 
-7.44088 -6.01652 -1.4882 69 55 129 255 
-6.90047 -5.5717 -1.46349 70 52 128 255 
-6.4682 -5.21694 -1.45329 70 52 128 255 
-6.05669 -4.89573 -1.42935 68 58 131 255 
-5.68379 -4.59086 -1.40961 68 58 131 255 
-5.40231 -4.36203 -1.40889 67 62 133 255 
-5.0953 -4.11109 -1.39519 68 59 132 255 
-4.88701 -3.94603 -1.39367 54 93 141 255 
-4.66299 -3.76366 -1.38786 54 93 141 255 
-4.43517 -3.57857 -1.37764 59 81 139 255 
-4.26164 -3.44091 -1.38192 59 82 139 255 
-4.06387 -3.27554 -1.36447 64 70 136 255 
-3.94273 -3.17777 -1.37394 71 47 125 255 
-3.76014 -3.03282 -1.36152 69 56 130 255 
-3.60908 -2.9161 -1.35945 70 48 126 255 
-0 -0 0 68 2 86 255 
-0 -0 0 68 2 86 255 
-0 -0 0 68 2 86 255 
-0 -0 0 68 2 86 255 
-41.2621 -33.1488 13.7375 70 7 90 255 
-32.053 -25.759 10.2373 70 8 92 255 
-32.0695 -25.7635 9.82285 71 13 96 255 
-32.033 -25.724 9.40932 70 10 93 255 
-31.04 -24.9455 8.78449 70 11 94 255 
-31.0495 -24.9435 8.37125 71 17 100 255 
-16.3734 -13.1397 4.2064 72 23 105 255 
-32.1198 -25.7569 7.8539 70 11 94 255 
-32.1089 -25.8046 7.51575 70 11 94 255 
-16.2137 -13.0206 3.58813 71 45 123 255 
-16.2496 -13.031 3.38851 72 26 108 255 
-16.2822 -13.0334 3.19888 72 40 120 255 
-16.2578 -13.061 3.02746 69 53 129 255 
-16.2612 -13.0541 2.82311 68 58 131 255 
-16.2569 -13.0229 2.62034 70 50 126 255 
-16.2841 -13.0256 2.43119 70 52 128 255 
-16.272 -13.0724 2.2638 70 50 126 255 
-16.2638 -13.0421 2.06246 70 48 126 255 
-16.508 -13.2193 1.89118 72 23 105 255 
-19.4521 -15.543 1.9946 72 31 112 255 
-21.8953 -17.5838 2.02771 72 24 106 255 
-21.9108 -17.5643 1.76184 72 29 111 255 
-24.3927 -19.5123 1.66438 72 27 109 255 
-26.8765 -21.46 1.50764 70 11 94 255 
-32.0742 -25.7399 1.47925 70 8 92 255 
-0 -0 0 68 2 86 255 
-0 -0 0 68 2 86 255 
-32.1702 -25.6685 0.323243 72 24 106 255 
-32.0994 -25.751 -0.00718238 72 23 105 255 
-28.158 -22.54 -0.346242 71 13 96 255 
-28.4401 -22.7255 -0.686291 72 20 103 255 
-28.3203 -22.5806 -1.02438 72 20 103 255 
-24.3714 -19.5304 -1.13429 71 19 101 255 
-24.381 -19.5026 -1.42322 71 13 96 255 
-23.4959 -18.768 -1.65493 71 19 101 255 
-23.5743 -18.7898 -1.9442 70 11 94 255 
-21.6429 -17.3377 -2.01212 70 10 93 255 
-17.6069 -14.0739 -1.84525 71 13 96 255 
-15.1558 -12.0932 -1.77138 71 14 97 255 
-13.2416 -10.5541 -1.70806 71 13 96 255 
-11.7592 -9.41001 -1.64145 72 26 108 255 
-10.5982 -8.46849 -1.60805 71 44 122 255 
-9.62777 -7.67946 -1.57763 71 47 125 255 
-8.74553 -6.96559 -1.53949 71 42 122 255 
-8.07691 -6.45639 -1.51033 70 50 126 255 
-7.45603 -5.95349 -1.48389 70 48 126 255 
-6.93453 -5.52925 -1.46349 69 55 129 255 
-6.50779 -5.18329 -1.45502 70 52 128 255 
-6.08508 -4.85725 -1.42899 67 61 132 255 
-5.73411 -4.57366 -1.4151 66 64 134 255 
-5.42131 -4.32269 -1.4069 67 62 133 255 
-5.13267 -4.0895 -1.39852 66 64 134 255 
-4.90579 -3.91171 -1.39215 54 93 141 255 
-4.686 -3.73498 -1.38786 56 89 140 255 
-4.43804 -3.53614 -1.37177 59 81 139 255 
-4.26069 -3.39717 -1.37482 61 78 138 255 
-4.08162 -3.24874 -1.36371 68 59 132 255 
-3.94856 -3.1427 -1.36923 71 47 125 255 
-3.78319 -3.01329 -1.36314 67 61 132 255 
-3.63216 -2.89809 -1.36142 70 50 126 255 
-0 -0 0 68 2 86 255 
-0 -0 0 68 2 86 255 
-0 -0 0 68 2 86 255 
-0 -0 0 68 2 86 255 
-39.9626 -31.7033 13.2398 69 4 87 255 
-32.3754 -25.6927 10.2898 71 13 96 255 
-32.3451 -25.6599 9.85885 71 14 97 255 
-32.4392 -25.7244 9.4821 71 16 99 255 
-32.2473 -25.5917 9.08156 71 13 96 255 
-31.333 -24.8566 8.40642 71 17 100 255 
-31.3497 -24.8435 8.01457 71 19 101 255 
-32.4767 -25.7172 7.90243 71 16 99 255 
-16.2724 -12.9139 3.79027 71 17 100 255 
-16.2778 -12.9086 3.58473 68 58 131 255 
-16.33 -12.9316 3.38868 72 38 119 255 
-16.3448 -12.9197 3.19555 71 42 122 255 
-16.3182 -12.9457 3.02387 69 56 130 255 
-16.3139 -12.9325 2.81842 68 57 131 255 
-16.3178 -12.9081 2.61734 68 58 131 255 
-16.2982 -12.8737 2.42146 69 53 129 255 
-16.3301 -12.955 2.26078 70 52 128 255 
-16.3279 -12.9297 2.06049 68 59 132 255 
-16.5544 -13.0906 1.88726 72 24 106 255 
-19.5495 -15.4253 1.99484 72 28 110 255 
-22.034 -17.4739 2.0306 72 20 103 255 
-22.0385 -17.4456 1.76346 72 28 110 255 
-24.5268 -19.374 1.66539 72 27 109 255 
-27.0492 -21.3275 1.50996 71 16 99 255 
-32.3577 -25.6426 1.48504 71 14 97 255 
-0 -0 0 68 2 86 255 
-0 -0 0 68 1 84 255 
-32.5423 -25.6402 0.325395 72 22 104 255 
-32.2663 -25.561 -0.00718447 71 17 100 255 
-28.4856 -22.5168 -0.348565 70 7 90 255 
-28.4911 -22.4812 -0.684179 71 19 101 255 
-28.467 -22.4132 -1.02469 72 22 104 255 
-24.5401 -19.4196 -1.13657 71 17 100 255 
-24.5598 -19.3997 -1.42668 71 13 96 255 
-23.8301 -18.7966 -1.67032 71 19 101 255 
-23.8342 -18.7589 -1.9561 71 17 100 255 
-21.7607 -17.2139 -2.0132 69 5 89 255 
-17.7172 -13.9847 -1.84778 71 13 96 255 
-15.1992 -11.9759 -1.76784 71 13 96 255 
-13.2897 -10.4597 -1.70595 71 17 100 255 
-11.8214 -9.34137 -1.6421 72 24 106 255 
-10.6507 -8.40392 -1.60816 71 44 122 255 
-9.66692 -7.61411 -1.57636 71 42 122 255 
-8.80057 -6.92159 -1.54167 72 40 120 255 
-8.0822 -6.37974 -1.50397 70 52 128 255 
-7.49397 -5.90885 -1.4842 70 52 128 255 
-6.96445 -5.48355 -1.46268 69 53 129 255 
-6.52012 -5.12803 -1.45071 68 58 131 255 
-6.11708 -4.82165 -1.42953 66 64 134 255 
-5.7559 -4.53353 -1.41359 68 57 131 255 
-5.43772 -4.28146 -1.40431 68 57 131 255 
-5.16842 -4.06639 -1.40144 67 62 133 255 
-4.92739 -3.87973 -1.3915 55 90 140 255 
-4.72031 -3.7152 -1.39124 58 83 139 255 
-4.47875 -3.52387 -1.37764 57 86 140 255 
-4.28755 -3.37576 -1.37678 57 86 140 255 
-4.10224 -3.22423 -1.36396 64 69 136 255 
-3.93059 -3.08919 -1.3564 71 46 124 255 
-3.79631 -2.98586 -1.36125 69 56 130 255 
-3.63253 -2.86209 -1.35495 70 51 127 255 
-0 -0 0 68 2 86 255 
-0 -0 0 68 2 86 255 
-0 -0 0 68 2 86 255 
-0 -0 0 68 2 86 255 
-40.1091 -31.4205 13.2242 70 7 90 255 
-32.7166 -25.6378 10.348 70 11 94 255 
-32.7316 -25.6409 9.92853 70 11 94 255 
-32.72 -25.6216 9.51805 71 13 96 255 
-32.7319 -25.6506 9.17354 71 13 96 255 
-31.7022 -24.834 8.46442 71 14 97 255 
-31.6467 -24.7642 8.0515 71 16 99 255 
-32.151 -25.1399 7.78551 70 7 90 255 
-16.3126 -12.7835 3.7813 72 32 113 255 
-16.3428 -12.7976 3.58167 62 73 137 255 
-16.3771 -12.8063 3.38209 71 44 122 255 
-16.3809 -12.7857 3.18721 71 47 125 255 
-16.3639 -12.819 3.01769 68 57 131 255 
-16.364 -12.8096 2.81345 69 55 129 255 
-16.3686 -12.7858 2.61285 70 51 127 255 
-16.3652 -12.7643 2.41972 70 48 126 255 
-16.3388 -12.7994 2.25108 69 56 130 255 
-16.3646 -12.7962 2.05517 68 57 131 255 
-16.6242 -12.9808 1.88611 71 17 100 255 
-19.6186 -15.2854 1.99228 72 32 113 255 
-22.0764 -17.2879 2.02469 72 24 106 255 
-22.1388 -17.3051 1.76296 72 31 112 255 
