ply
format ascii 1.0
comment VTK generated PLY File
obj_info vtkPolyData points and polygons: vtk4.0
element vertex 1174
property float x
property float y
property float z
property uchar red
property uchar green
property uchar blue
property uchar alpha
element face 0
property list uchar int vertex_indices
end_header
-19.7708 16.1535 7.38356 72 24 106 255 
-20.2949 16.5697 7.30036 72 31 112 255 
-21.0053 17.1504 7.28132 70 8 92 255 
-24.9353 20.3872 8.35976 69 5 89 255 
-25.1873 20.5865 8.09859 71 13 96 255 
-24.8296 20.3009 7.65845 70 11 94 255 
-25.0514 20.4904 7.41235 70 7 90 255 
-24.3051 19.8648 6.92458 70 11 94 255 
-0 0 0 68 1 84 255 
-0 0 0 68 2 86 255 
-24.6476 20.1888 6.07771 71 14 97 255 
-25.3399 20.7106 5.97106 72 24 106 255 
-25.1346 20.558 5.60291 70 11 94 255 
-25.2311 20.6659 5.30572 70 11 94 255 
-0 0 0 68 2 86 255 
-19.9711 16.3284 3.74492 72 38 119 255 
-19.9407 16.3156 3.48814 72 24 106 255 
-11.458 9.3949 1.86397 70 48 126 255 
-10.6479 8.74337 1.60632 66 65 134 255 
-10.7106 8.75704 1.5005 65 68 135 255 
-10.6895 8.75555 1.367 60 80 139 255 
-9.97519 8.18198 1.1537 60 79 138 255 
-9.94428 8.17431 1.0312 63 71 136 255 
-9.97189 8.15593 0.930206 57 86 140 255 
-9.25999 7.58739 0.751083 60 80 139 255 
-9.24096 7.58784 0.637105 64 69 136 255 
-9.2454 7.60523 0.524781 63 72 137 255 
-7.85875 6.43218 0.365284 51 98 141 255 
-7.84994 6.43661 0.26937 52 96 141 255 
-7.11663 5.84562 0.157539 56 89 140 255 
-7.10121 5.84558 0.0722402 54 92 141 255 
-7.13849 5.84475 -0.00161024 51 98 141 255 
-7.10876 5.83302 -0.0882739 56 89 140 255 
-7.10433 5.83966 -0.173368 60 80 139 255 
-6.42995 5.29677 -0.235607 65 66 135 255 
-6.42199 5.26371 -0.301574 57 86 140 255 
-6.41102 5.26424 -0.378142 56 89 140 255 
-6.38816 5.25285 -0.455152 54 93 141 255 
-6.4044 5.2776 -0.535202 54 93 141 255 
-6.39303 5.24184 -0.599857 58 84 140 255 
-6.39907 5.25817 -0.678018 63 71 136 255 
-5.79497 4.77017 -0.685718 66 65 134 255 
-5.67966 4.68037 -0.742376 54 92 141 255 
-5.69317 4.67298 -0.802738 53 94 141 255 
-5.6822 4.67077 -0.871883 51 99 141 255 
-5.67999 4.67718 -0.942565 52 97 141 255 
-5.68331 4.68671 -1.01432 50 100 142 255 
-5.68267 4.66934 -1.07428 54 93 141 255 
-5.68825 4.67908 -1.1455 47 108 142 255 
-5.6073 4.61897 -1.19877 60 79 138 255 
-5.33502 4.39949 -1.20936 53 95 141 255 
-5.08107 4.18095 -1.20767 48 106 142 255 
-4.81922 3.96845 -1.20445 58 83 139 255 
-4.61123 3.79846 -1.21222 51 99 141 255 
-4.42389 3.64684 -1.22178 53 94 141 255 
-4.24539 3.49704 -1.22038 55 90 140 255 
-4.07493 3.35795 -1.22292 62 74 137 255 
-3.89262 3.2088 -1.21951 65 66 135 255 
-3.74868 3.08804 -1.22535 65 68 135 255 
-3.60502 2.97482 -1.22183 64 69 136 255 
-3.46731 2.8613 -1.21971 66 64 134 255 
-3.37283 2.78131 -1.23212 66 65 134 255 
-3.22373 2.65371 -1.22337 69 55 129 255 
-19.125 15.8503 7.46165 72 28 110 255 
-19.4988 16.1319 7.31883 72 32 113 255 
-20.201 16.7006 7.30332 72 29 111 255 
-24.7204 20.4377 8.61243 71 17 100 255 
-24.818 20.5466 8.36252 70 10 93 255 
-24.8445 20.5618 8.02878 70 11 94 255 
-24.7742 20.5105 7.68005 71 17 100 255 
-24.6738 20.4354 7.33756 71 16 99 255 
-24.0526 19.9059 6.88732 71 17 100 255 
-24.3975 20.199 6.65742 71 17 100 255 
-24.7046 20.4747 6.42894 72 26 108 255 
-24.6987 20.4851 6.12119 72 26 108 255 
-24.8258 20.5458 5.87952 71 19 101 255 
-24.8729 20.5999 5.57264 72 26 108 255 
-24.9526 20.695 5.27377 71 13 96 255 
-24.8522 20.649 4.95584 70 11 94 255 
-19.6899 16.3011 3.71088 72 40 120 255 
-19.6991 16.3207 3.46332 72 40 120 255 
-11.3551 9.42763 1.8566 63 71 136 255 
-10.617 8.82759 1.60979 64 69 136 255 
-10.6644 8.82893 1.50158 63 71 136 255 
-10.6547 8.83686 1.36946 61 77 138 255 
-9.92939 8.24685 1.15423 63 71 136 255 
-9.92458 8.26068 1.03439 64 70 136 255 
-9.93087 8.2246 0.931071 59 81 139 255 
-9.22939 7.65744 0.752398 54 92 141 255 
-9.20882 7.65653 0.638116 60 79 138 255 
-9.19856 7.66181 0.524781 63 72 137 255 
-7.83452 6.49303 0.366003 51 98 141 255 
-7.82337 6.49551 0.269821 50 102 142 255 
-7.09139 5.89812 0.157779 56 89 140 255 
-7.06982 5.89288 0.0722873 55 90 140 255 
-7.10865 5.89354 -0.00161164 47 108 142 255 
-7.09129 5.89187 -0.0885043 50 101 142 255 
-7.07682 5.89018 -0.173575 60 80 139 255 
-6.39579 5.33484 -0.23555 65 68 135 255 
-6.39495 5.30748 -0.301828 52 96 141 255 
-6.39166 5.31434 -0.378916 54 92 141 255 
-6.37269 5.306 -0.456361 53 95 141 255 
-6.36347 5.30976 -0.534494 57 85 140 255 
-6.36535 5.28479 -0.600291 52 96 141 255 
-6.36438 5.29542 -0.677773 61 78 138 255 
-5.75488 4.79671 -0.684444 60 79 138 255 
-5.65619 4.7196 -0.743078 54 92 141 255 
-5.66362 4.70719 -0.80263 50 100 142 255 
-5.66641 4.71635 -0.873884 50 102 142 255 
-5.66032 4.71957 -0.94409 52 96 141 255 
-5.65977 4.72593 -1.01528 52 97 141 255 
-5.6676 4.71551 -1.07688 47 107 142 255 
-5.65867 4.71326 -1.14535 49 104 142 255 
-5.58416 4.65771 -1.19991 59 81 139 255 
-5.28448 4.41257 -1.20402 55 90 140 255 
-5.06514 4.22023 -1.21002 46 110 142 255 
-4.79025 3.99418 -1.20331 52 97 141 255 
-4.5916 3.82982 -1.21321 51 98 141 255 
-4.39843 3.67141 -1.22095 56 88 140 255 
-4.21486 3.51552 -1.21778 59 81 139 255 
-4.0737 3.39911 -1.22879 60 79 138 255 
-3.87659 3.23574 -1.22068 64 69 136 255 
-3.70137 3.08738 -1.21606 63 71 136 255 
-3.58521 2.99564 -1.22132 63 71 136 255 
-3.46376 2.89428 -1.22468 66 65 134 255 
-3.35127 2.79825 -1.23049 66 63 133 255 
-3.1978 2.66545 -1.21971 69 55 129 255 
-19.0626 15.9969 7.47546 72 32 113 255 
-19.4407 16.2858 7.33439 72 32 113 255 
-20.107 16.8317 7.30654 72 27 109 255 
-24.5693 20.5679 8.60362 70 8 92 255 
-23.7219 19.8857 8.03417 71 17 100 255 
-24.8034 20.7855 8.05656 71 17 100 255 
-24.6442 20.659 7.67889 71 16 99 255 
-23.5179 19.7227 7.0297 71 19 101 255 
-23.4832 19.6787 6.75871 71 13 96 255 
-23.5554 19.7467 6.46057 72 29 111 255 
-24.444 20.5131 6.39378 72 24 106 255 
-24.3273 20.4303 6.0601 71 14 97 255 
-24.9775 20.9309 5.94575 71 17 100 255 
-24.8947 20.8769 5.60614 72 23 105 255 
-24.9408 20.9448 5.29834 72 24 106 255 
-24.7401 20.8138 4.95888 69 5 89 255 
-19.4158 16.276 3.67798 72 41 121 255 
-19.3959 16.2712 3.4275 72 40 120 255 
-11.297 9.49713 1.8566 58 83 139 255 
-10.6097 8.93224 1.61697 62 73 137 255 
-10.6245 8.90633 1.50363 63 72 137 255 
-10.6087 8.90911 1.37054 60 80 139 255 
-9.88165 8.31019 1.15459 62 73 137 255 
-9.88514 8.33106 1.03559 62 76 138 255 
-9.89933 8.3014 0.932871 62 76 138 255 
-9.19522 7.72484 0.753462 55 90 140 255 
-9.17389 7.72318 0.638968 63 72 137 255 
-9.14985 7.71682 0.524693 67 61 132 255 
-7.80908 6.55319 0.366686 50 101 142 255 
-7.79714 6.55497 0.270299 53 95 141 255 
-7.07113 5.95505 0.158138 56 88 140 255 
-7.04881 5.94905 0.0724444 57 85 140 255 
-7.07772 5.94155 -0.00161286 54 93 141 255 
-7.06419 5.94299 -0.0886195 56 89 140 255 
-7.04513 5.93736 -0.173688 64 70 136 255 
-6.36752 5.37786 -0.23572 64 69 136 255 
-6.36838 5.35176 -0.302119 50 102 142 255 
-6.35969 5.3541 -0.378962 55 91 141 255 
-6.34154 5.34629 -0.456471 55 91 141 255 
-6.34449 5.3603 -0.535653 54 92 141 255 
-6.34502 5.33402 -0.601449 53 95 141 255 
-6.34549 5.34593 -0.679242 55 90 140 255 
-5.68881 4.8011 -0.680077 62 76 138 255 
-5.64308 4.7677 -0.745186 49 104 142 255 
-5.64148 4.74761 -0.803605 54 92 141 255 
-5.64647 4.75871 -0.875297 52 97 141 255 
-5.6449 4.76573 -0.946377 50 101 142 255 
-5.63974 4.76825 -1.01692 50 102 142 255 
-5.64991 4.75976 -1.07905 48 106 142 255 
-5.62965 4.74789 -1.14535 50 100 142 255 
-5.55321 4.68998 -1.19942 55 91 141 255 
-5.24452 4.4341 -1.20109 58 84 140 255 
-5.03915 4.25123 -1.21002 45 112 142 255 
-4.75515 4.01462 -1.20066 50 100 142 255 
-4.54405 3.83769 -1.20685 51 98 141 255 
-4.37806 3.70022 -1.22157 53 95 141 255 
-4.18649 3.53564 -1.21583 59 82 139 255 
-4.03714 3.41084 -1.22405 63 71 136 255 
-3.85963 3.26197 -1.22162 64 70 136 255 
-3.69495 3.12067 -1.22022 65 66 135 255 
-3.56455 3.01571 -1.22056 65 66 135 255 
-3.4253 2.89803 -1.21735 65 68 135 255 
-3.3333 2.81814 -1.23022 67 61 132 255 
-3.19238 2.69431 -1.22393 70 48 126 255 
-18.8875 16.0485 7.44525 72 36 117 255 
-19.3734 16.4327 7.34689 72 31 112 255 
-20.0092 16.9597 7.30868 72 23 105 255 
-24.3115 20.6071 8.55746 72 20 103 255 
-24.6311 20.9066 8.38538 69 4 87 255 
-24.0857 20.437 7.86402 70 11 94 255 
-24.3011 20.6267 7.6113 71 16 99 255 
-24.115 20.4767 7.24558 70 7 90 255 
-24.9235 21.1472 7.21044 71 14 97 255 
-24.2395 20.5748 6.68272 71 13 96 255 
-24.5531 20.8627 6.45566 72 23 105 255 
-23.522 20.0014 5.88996 70 8 92 255 
-24.5868 20.8616 5.88311 72 24 106 255 
-24.6573 20.9367 5.58148 72 23 105 255 
-24.8141 21.0994 5.29882 72 29 111 255 
-19.0754 16.249 3.84336 71 17 100 255 
-19.124 16.2322 3.64149 72 40 120 255 
-19.1227 16.243 3.39678 72 40 120 255 
-11.2733 9.59585 1.86235 54 92 141 255 
-10.5812 9.01972 1.62102 68 58 131 255 
-10.5636 8.96621 1.50277 65 66 135 255 
-10.5621 8.98112 1.37162 57 86 140 255 
-9.85854 8.39456 1.15789 63 72 137 255 
-9.84369 8.39997 1.03663 57 85 140 255 
-9.86341 8.3749 0.934312 57 86 140 255 
-9.15221 7.785 0.753838 54 92 141 255 
-9.13165 7.78386 0.63934 64 70 136 255 
-9.11372 7.78255 0.52535 66 64 134 255 
-7.771 6.60292 0.366793 50 102 142 255 
-7.74688 6.59426 0.269954 55 91 141 255 
-7.04359 6.00611 0.158343 59 82 139 255 
-7.02662 6.00453 0.0725936 54 93 141 255 
-7.05332 5.99523 -0.00161565 58 84 140 255 
-7.03216 5.99012 -0.0886771 61 78 138 255 
-7.01237 5.98372 -0.173783 66 64 134 255 
-6.3344 5.41683 -0.23572 60 79 138 255 
-6.33619 5.39139 -0.302155 52 96 141 255 
-6.329 5.39497 -0.379098 56 89 140 255 
-6.32456 5.39871 -0.457625 54 93 141 255 
-6.32589 5.41146 -0.536876 52 97 141 255 
-6.32052 5.37996 -0.602245 55 91 141 255 
-6.33153 5.40094 -0.681282 53 95 141 255 
-5.64789 4.82621 -0.678712 62 74 137 255 
-5.61599 4.80417 -0.745487 52 96 141 255 
-5.63192 4.7989 -0.806422 50 100 142 255 
-5.62925 4.80358 -0.87718 51 99 141 255 
-5.61781 4.80221 -0.946758 53 94 141 255 
-5.62167 4.81243 -1.01896 50 101 142 255 
-5.62512 4.79819 -1.07992 46 109 142 255 
-5.62671 4.8048 -1.15072 46 110 142 255 
-5.50108 4.70409 -1.19437 56 89 140 255 
-5.21048 4.46043 -1.19954 56 89 140 255 
-4.98082 4.2546 -1.20226 49 104 142 255 
-4.72296 4.03735 -1.19876 52 96 141 255 
-4.52489 3.86932 -1.20804 52 96 141 255 
-4.36271 3.73338 -1.22366 55 90 140 255 
-4.18698 3.5803 -1.22233 64 69 136 255 
-4.01835 3.43745 -1.22473 64 70 136 255 
-3.83955 3.28559 -1.22162 63 71 136 255 
-3.68015 3.14706 -1.22168 63 72 137 255 
-3.55259 3.04319 -1.22284 64 69 136 255 
-3.40306 2.91522 -1.21578 68 59 132 255 
-3.3196 2.84167 -1.23158 68 59 132 255 
-3.18674 2.7232 -1.22815 70 52 128 255 
-18.6667 16.0591 7.39692 72 29 111 255 
-19.2744 16.5531 7.34772 72 29 111 255 
-0 0 0 68 1 84 255 
-24.746 21.2377 8.7561 71 16 99 255 
-24.5427 21.092 8.3992 72 23 105 255 
-24.1711 20.7659 7.93335 71 14 97 255 
-24.6566 21.19 7.7632 71 14 97 255 
-23.4737 20.1814 7.08998 70 11 94 255 
-24.0429 20.6551 6.99222 70 10 93 255 
-24.665 21.1977 6.83576 71 13 96 255 
-24.438 21.0244 6.4592 71 17 100 255 
-23.8589 20.5415 6.00576 71 17 100 255 
-24.2218 20.8089 5.82621 72 20 103 255 
-24.553 21.1088 5.58709 72 24 106 255 
-24.9198 21.4541 5.3494 72 26 108 255 
-18.7441 16.1663 3.79651 72 29 111 255 
-18.8604 16.2086 3.61017 72 41 121 255 
-18.8611 16.2211 3.36793 72 41 121 255 
-11.2187 9.66873 1.86309 57 86 140 255 
-10.97 9.46802 1.68946 69 53 129 255 
-10.7655 9.25182 1.53954 69 53 129 255 
-10.5121 9.05031 1.37231 65 68 135 255 
-9.79628 8.44578 1.15664 63 71 136 255 
-9.81837 8.48302 1.03942 59 81 139 255 
-9.83377 8.45412 0.9364 58 83 139 255 
-9.12242 7.85664 0.755341 56 89 140 255 
-9.11395 7.86584 0.641468 62 74 137 255 
-9.08696 7.85662 0.526576 67 62 133 255 
-7.73262 6.65243 0.366901 51 98 141 255 
-7.70097 6.63711 0.269768 54 92 141 255 
-7.01039 6.05248 0.158429 59 81 139 255 
-6.99342 6.0508 0.0726329 60 79 138 255 
-7.02398 6.04492 -0.0016174 60 79 138 255 
-7.00209 6.03903 -0.0887635 58 84 140 255 
-6.99897 6.0469 -0.174367 63 72 137 255 
-6.29425 5.4497 -0.235466 60 80 139 255 
-6.30299 5.43016 -0.302155 54 93 141 255 
-6.30863 5.44479 -0.379873 56 89 140 255 
-6.30491 5.44917 -0.458614 49 103 142 255 
-6.29709 5.45409 -0.537262 57 85 140 255 
-6.29797 5.42776 -0.603258 56 88 140 255 
-6.27338 5.41819 -0.678589 56 88 140 255 
-5.6129 4.85621 -0.678075 59 82 139 255 
-5.59317 4.84441 -0.74639 54 93 141 255 
-5.60537 4.83597 -0.806855 52 97 141 255 
-5.60493 4.84257 -0.878004 50 102 142 255 
-5.58899 4.83724 -0.946885 52 96 141 255 
-5.58904 4.84423 -1.01842 51 99 141 255 
-5.61354 4.84814 -1.08339 48 106 142 255 
-5.61656 4.85604 -1.15472 50 100 142 255 
-5.4669 4.73323 -1.19323 57 86 140 255 
-5.17929 4.48909 -1.19868 60 80 139 255 
-4.95536 4.28573 -1.20244 45 113 142 255 
-4.68622 4.05597 -1.19573 50 100 142 255 
-4.50328 3.89894 -1.20864 50 102 142 255 
-4.34637 3.76584 -1.22553 52 97 141 255 
-4.14427 3.58803 -1.21627 66 65 134 255 
-3.9854 3.45184 -1.22112 62 73 137 255 
-3.80168 3.29382 -1.21598 60 80 139 255 
-3.64538 3.15625 -1.21655 63 72 137 255 
-3.52069 3.05352 -1.21829 63 72 137 255 
-3.38511 2.93605 -1.21578 68 57 131 255 
-3.2941 2.85505 -1.22859 67 61 132 255 
-3.16634 2.73956 -1.22674 70 51 127 255 
-18.5584 16.1652 7.39318 72 35 116 255 
-19.1797 16.6774 7.3505 72 31 112 255 
-24.5479 21.3298 9.06144 69 5 89 255 
-24.3732 21.1789 8.67 70 7 90 255 
-24.2237 21.0776 8.33413 71 13 96 255 
-23.6867 20.6036 7.8157 72 23 105 255 
-23.9046 20.8001 7.56648 71 17 100 255 
-23.909 20.8121 7.25987 71 13 96 255 
-25.2478 21.961 7.3817 71 19 101 255 
-23.9904 20.8752 6.68416 72 20 103 255 
-24.0128 20.9164 6.38061 71 17 100 255 
-23.3481 20.3525 5.90851 71 14 97 255 
-23.9913 20.868 5.80145 72 24 106 255 
-24.7426 21.5373 5.66021 71 16 99 255 
-25.0741 21.8563 5.41122 72 23 105 255 
-18.5701 16.216 3.78135 72 38 119 255 
-18.6038 16.1876 3.58 72 38 119 255 
-18.5894 16.1869 3.33707 72 41 121 255 
-11.1921 9.76608 1.86859 57 86 140 255 
-10.9364 9.55672 1.69329 70 50 126 255 
-10.7167 9.32488 1.54072 67 61 132 255 
-10.4961 9.14929 1.37753 64 69 136 255 
-9.77054 8.52866 1.15976 64 70 136 255 
-9.76913 8.54573 1.03974 64 70 136 255 
-9.77494 8.5084 0.935752 61 77 138 255 
-9.08533 7.92231 0.75628 57 86 140 255 
-9.08131 7.93542 0.642586 60 80 139 255 
-9.07316 7.9425 0.528591 67 61 132 255 
-7.70446 6.71091 0.367512 50 102 142 255 
-7.65709 6.6816 0.269662 51 98 141 255 
-6.98065 6.10196 0.1586 58 83 139 255 
-6.96143 6.09821 0.0726878 59 82 139 255 
-6.98902 6.08987 -0.00161792 51 99 141 255 
-6.9649 6.08188 -0.0887635 53 94 141 255 
-6.96249 6.09038 -0.174386 62 74 137 255 
-6.25543 5.48361 -0.235268 59 81 139 255 
-6.28536 5.48253 -0.302917 51 98 141 255 
-6.28639 5.49326 -0.380556 51 98 141 255 
-6.27587 5.4917 -0.458944 51 99 141 255 
-6.26426 5.49328 -0.537326 53 94 141 255 
-6.27507 5.47548 -0.604272 51 99 141 255 
-6.22276 5.44149 -0.676713 60 79 138 255 
-5.57775 4.88597 -0.677439 57 86 140 255 
-5.57008 4.88454 -0.747293 53 95 141 255 
-5.57934 4.87354 -0.807397 52 96 141 255 
-5.57437 4.87622 -0.877887 53 95 141 255 
-5.56517 4.87667 -0.947902 54 93 141 255 
-5.57261 4.8902 -1.02087 50 102 142 255 
-5.5971 4.89421 -1.08599 43 116 142 255 
-5.58517 4.88911 -1.15441 48 105 142 255 
-5.42885 4.75888 -1.19128 58 83 139 255 
-5.14646 4.51623 -1.19747 58 84 140 255 
-4.92453 4.31217 -1.20135 44 113 142 255 
-4.65239 4.07688 -1.19346 51 98 141 255 
-4.47706 3.92456 -1.20804 50 101 142 255 
-4.31951 3.78921 -1.22449 55 91 141 255 
-4.13172 3.62176 -1.21908 58 84 140 255 
-3.94584 3.46017 -1.21548 62 76 138 255 
-3.79309 3.32734 -1.21974 61 77 138 255 
-3.64928 3.19902 -1.22438 64 69 136 255 
-3.48226 3.05783 -1.21146 65 66 135 255 
-3.37138 2.96058 -1.21735 68 57 131 255 
-3.25771 2.8587 -1.22154 68 59 132 255 
-3.15524 2.76399 -1.22899 67 61 132 255 
-18.2779 16.1191 7.32068 72 27 109 255 
-19.0676 16.7865 7.34689 72 22 104 255 
-24.418 21.4813 9.06197 69 4 87 255 
-24.2341 21.3204 8.66689 70 11 94 255 
-23.4766 20.682 8.12059 71 14 97 255 
-23.8205 20.9782 7.90219 71 16 99 255 
-23.4262 20.6378 7.45499 71 14 97 255 
-23.7793 20.9571 7.25942 71 13 96 255 
-23.7268 20.8951 6.97434 71 14 97 255 
-24.3509 21.4528 6.82115 71 13 96 255 
-23.9266 21.1009 6.39201 71 13 96 255 
-23.4084 20.6591 5.95573 71 19 101 255 
-23.7026 20.8737 5.7625 72 20 103 255 
-24.0415 21.1877 5.52945 71 19 101 255 
-24.5547 21.6701 5.32772 71 17 100 255 
-18.251 16.1358 3.73648 72 40 120 255 
-18.3252 16.1438 3.54537 72 41 121 255 
-18.3499 16.1774 3.31185 71 44 122 255 
-11.1572 9.85691 1.87283 58 83 139 255 
-10.8976 9.64142 1.69641 69 55 129 255 
-10.6601 9.39112 1.54083 68 59 132 255 
-10.4525 9.22472 1.37921 65 68 135 255 
-10.0837 8.91164 1.2034 69 55 129 255 
-9.91874 8.78461 1.06138 69 55 129 255 
-9.70983 8.55701 0.934528 67 62 133 255 
-9.04478 7.98517 0.756969 54 92 141 255 
-9.04516 8.00224 0.64349 59 82 139 255 
-9.03397 8.00664 0.52916 65 66 135 255 
-7.67438 6.76798 0.368051 48 105 142 255 
-7.61969 6.73177 0.269795 56 88 140 255 
-6.95356 6.15396 0.158839 63 72 137 255 
-6.94109 6.15607 0.0728685 62 74 137 255 
-6.95827 6.1386 -0.00161949 57 85 140 255 
-6.94019 6.13576 -0.0889267 63 71 136 255 
-6.92574 6.13365 -0.174405 65 66 135 255 
-6.23811 5.53649 -0.23589 57 86 140 255 
-6.26659 5.53422 -0.303643 49 103 142 255 
-6.26229 5.54034 -0.381148 55 90 140 255 
-6.24654 5.53408 -0.459274 54 93 141 255 
-6.24163 5.54155 -0.538291 51 98 141 255 
-6.24883 5.52048 -0.604995 50 101 142 255 
-6.19149 5.48155 -0.676957 62 76 138 255 
-5.55735 4.92869 -0.678621 61 77 138 255 
-5.53703 4.91598 -0.746892 59 82 139 255 
-5.55678 4.91427 -0.808481 51 99 141 255 
-5.5659 4.92942 -0.8813 50 102 142 255 
-5.54405 4.91862 -0.949427 52 96 141 255 
-5.53584 4.91838 -1.01964 51 99 141 255 
-5.5677 4.92912 -1.08613 44 114 142 255 
-5.55728 4.92525 -1.15487 48 105 142 255 
-5.39733 4.79014 -1.19079 63 72 137 255 
-5.11497 4.54446 -1.19661 59 81 139 255 
-4.88988 4.33512 -1.19937 45 113 142 255 
-4.62728 4.10535 -1.19346 50 102 142 255 
-4.43971 3.94025 -1.20446 50 100 142 255 
-4.26985 3.79226 -1.21699 53 94 141 255 
-4.10942 3.64704 -1.21908 63 72 137 255 
-3.91506 3.47591 -1.21254 61 78 138 255 
-3.77406 3.35184 -1.22021 61 77 138 255 
-3.62595 3.21813 -1.22315 66 64 134 255 
-3.46922 3.08428 -1.21348 67 62 133 255 
-3.35964 2.98698 -1.21971 68 58 131 255 
-3.24658 2.88439 -1.22398 66 64 134 255 
-3.13248 2.77821 -1.22674 63 71 136 255 
-17.8 15.8929 7.1682 72 36 117 255 
-17.8764 15.9336 6.92544 72 37 118 255 
-17.9267 15.9669 6.68918 72 33 115 255 
-17.9258 15.9668 6.44578 72 32 113 255 
-17.897 15.9627 6.22435 72 38 119 255 
-17.976 16.028 5.99585 71 42 122 255 
-17.9167 15.9805 5.7328 71 42 122 255 
-17.9277 15.9965 5.50289 72 35 116 255 
-17.9471 16.0018 5.30422 71 45 123 255 
-17.9337 15.9959 5.05097 71 42 122 255 
-17.9316 16.0106 4.8166 72 40 120 255 
-17.9275 16.0187 4.58616 72 35 116 255 
-17.9575 16.0111 4.38958 72 28 110 255 
-17.9397 16.0068 4.14858 72 33 115 255 
-17.9421 16.0312 3.91422 72 36 117 255 
-17.9373 16.0557 3.69236 71 47 125 255 
-18.0367 16.0873 3.50859 71 47 125 255 
-18.0433 16.105 3.27429 70 51 127 255 
-11.0928 9.92187 1.87221 60 80 139 255 
-10.856 9.72401 1.69919 68 57 131 255 
-10.6089 9.46231 1.5418 68 58 131 255 
-10.3994 9.292 1.3797 66 64 134 255 
-10.1521 9.0836 1.21818 68 59 132 255 
-9.89433 8.87193 1.06457 68 58 131 255 
-9.68915 8.64498 0.937624 66 63 133 255 
-9.00231 8.0465 0.757532 53 94 141 255 
-9.0011 8.06225 0.643863 60 80 139 255 
-8.99211 8.06859 0.529598 65 66 135 255 
-7.64464 6.82559 0.368627 49 104 142 255 
-7.57452 6.77506 0.269662 56 88 140 255 
-6.9313 6.21052 0.159198 56 88 140 255 
-6.9136 6.2079 0.0729784 57 85 140 255 
-6.94061 6.19916 -0.0016242 51 98 141 255 
-6.92998 6.20291 -0.0892818 60 80 139 255 
-6.90807 6.19406 -0.174914 62 74 137 255 
-6.21964 5.58869 -0.236483 57 86 140 255 
-6.23922 5.57857 -0.30397 49 104 142 255 
-6.22818 5.57866 -0.381148 56 89 140 255 
-6.22733 5.58563 -0.460373 54 92 141 255 
-6.22309 5.59376 -0.539643 52 96 141 255 
-6.22822 5.57069 -0.606298 48 106 142 255 
-6.14512 5.50813 -0.67557 62 73 137 255 
-5.54034 4.97467 -0.680259 56 88 140 255 
-5.54154 4.98112 -0.751609 58 83 139 255 
-5.54504 4.96485 -0.811189 50 101 142 255 
-5.53777 4.96547 -0.881653 50 102 142 255 
-5.52484 4.96249 -0.951333 56 88 140 255 
-5.51292 4.95888 -1.02101 54 93 141 255 
-5.53441 4.96055 -1.08556 51 98 141 255 
-5.5299 4.9619 -1.15549 53 94 141 255 
-5.36637 4.82185 -1.19046 62 76 138 255 
-5.08187 4.57114 -1.1954 58 84 140 255 
-4.8566 4.35913 -1.19774 49 103 142 255 
-4.60493 4.13629 -1.19422 53 95 141 255 
-4.40597 3.9589 -1.20188 49 104 142 255 
-4.23341 3.80662 -1.21324 53 95 141 255 
-4.08406 3.66958 -1.21821 63 72 137 255 
-3.90815 3.51289 -1.21705 60 80 139 255 
-3.74186 3.36453 -1.21645 63 71 136 255 
-3.60542 3.23967 -1.22291 66 64 134 255 
-3.47396 3.12687 -1.22183 66 63 133 255 
-3.32762 2.99528 -1.21473 65 66 135 255 
-3.25101 2.92421 -1.23239 64 69 136 255 
-3.10823 2.79096 -1.22393 65 68 135 255 
-17.6489 15.9536 7.14663 72 35 116 255 
-17.6221 15.902 6.8646 72 40 120 255 
-17.6739 15.9373 6.6312 72 41 121 255 
-17.6869 15.9497 6.39495 72 38 119 255 
-17.7017 15.9846 6.19043 71 42 122 255 
-17.6857 15.965 5.93159 72 38 119 255 
-17.705 15.9878 5.69634 71 45 123 255 
-17.6962 15.986 5.46181 72 41 121 255 
-17.716 15.9919 5.26479 71 42 122 255 
-17.7008 15.9843 5.01292 70 48 126 255 
-17.6985 15.9987 4.78025 71 47 125 255 
-17.6853 15.9986 4.54924 72 41 121 255 
-17.7538 16.026 4.36374 70 50 126 255 
-17.7578 16.0413 4.12919 70 50 126 255 
-17.7416 16.0489 3.8919 71 47 125 255 
-17.7001 16.04 3.66371 71 47 125 255 
-17.7511 16.0292 3.4721 69 56 130 255 
-17.7633 16.0519 3.24128 69 53 129 255 
-11.0516 10.0077 1.87558 56 88 140 255 
-10.8153 9.80779 1.7022 68 57 131 255 
-10.5684 9.54321 1.54439 69 55 129 255 
-10.3533 9.36564 1.38117 68 57 131 255 
-10.1353 9.18116 1.22291 68 59 132 255 
-9.87292 8.96262 1.06817 68 58 131 255 
-9.64628 8.71363 0.938633 68 58 131 255 
-8.96683 8.11431 0.758722 63 72 137 255 
-8.95738 8.12269 0.644288 65 66 135 255 
-8.93726 8.11891 0.529291 68 59 132 255 
-7.60558 6.87505 0.36877 51 98 141 255 
-7.45574 6.75163 0.266904 61 77 138 255 
-6.90936 6.26771 0.159575 53 95 141 255 
-6.88352 6.2576 0.0730648 59 82 139 255 
-6.91727 6.25505 -0.00162769 55 91 141 255 
-6.90364 6.25605 -0.0894354 58 84 140 255 
-6.89067 6.25514 -0.175441 58 84 140 255 
-6.19336 5.63414 -0.236794 59 82 139 255 
-6.21672 5.62747 -0.30455 49 103 142 255 
-6.20863 5.63019 -0.382058 56 89 140 255 
-6.21585 5.64455 -0.462076 56 89 140 255 
-6.2012 5.64325 -0.540737 52 97 141 255 
-6.20501 5.61884 -0.607383 53 95 141 255 
-6.08464 5.52162 -0.672633 60 80 139 255 
-5.50971 5.00858 -0.680259 55 91 141 255 
-5.51528 5.01905 -0.752211 54 92 141 255 
-5.50784 4.99277 -0.810214 52 96 141 255 
-5.52043 5.01137 -0.883772 51 99 141 255 
-5.51483 5.01498 -0.954891 56 88 140 255 
-5.51169 5.01929 -1.02646 55 90 140 255 
-5.51999 5.00904 -1.08874 50 101 142 255 
-5.51105 5.00637 -1.15795 46 109 142 255 
-5.31917 4.83875 -1.18655 60 80 139 255 
-5.05154 4.60025 -1.19489 57 86 140 255 
-4.82904 4.38819 -1.19756 48 106 142 255 
-4.57946 4.16447 -1.19422 50 102 142 255 
-4.38014 3.98454 -1.20148 51 98 141 255 
-4.20491 3.82792 -1.21178 53 95 141 255 
-4.05352 3.68734 -1.21583 62 73 137 255 
-3.89084 3.54074 -1.21841 62 74 137 255 
-3.71611 3.38285 -1.21481 66 64 134 255 
-3.57758 3.25455 -1.22022 68 59 132 255 
-3.45256 3.14617 -1.22107 64 70 136 255 
-3.31203 3.01824 -1.21578 63 72 137 255 
-3.2202 2.93244 -1.22751 62 73 137 255 
-3.09886 2.81708 -1.22702 65 66 135 255 
-17.3415 15.8703 7.06147 72 36 117 255 
-17.3894 15.8867 6.81181 72 40 120 255 
-17.4819 15.9597 6.59577 71 45 123 255 
-17.4418 15.9238 6.34153 72 41 121 255 
-17.4283 15.9329 6.12888 71 42 122 255 
-17.4255 15.9253 5.87699 71 45 123 255 
-17.4587 15.9609 5.6485 71 42 122 255 
-17.4618 15.9699 5.41962 71 44 122 255 
-17.4618 15.958 5.21826 71 45 123 255 
-17.4536 15.9565 4.97054 71 46 124 255 
-17.4611 15.9799 4.74253 70 50 126 255 
-17.4572 15.988 4.5157 71 46 124 255 
-17.5048 15.9973 4.32658 70 48 126 255 
-17.4961 16.001 4.0911 69 55 129 255 
-17.4812 16.0095 3.85626 70 51 127 255 
-17.4637 16.022 3.63505 70 48 126 255 
-17.5282 16.0243 3.44768 69 53 129 255 
-17.5482 16.0543 3.21995 69 56 130 255 
-11.0032 10.0874 1.87782 57 86 140 255 
-10.7754 9.89277 1.70545 69 56 130 255 
-10.5368 9.6327 1.54838 70 52 128 255 
-10.3132 9.44512 1.38354 68 59 132 255 
-10.0942 9.25731 1.22478 68 58 131 255 
-9.83976 9.04327 1.07056 69 55 129 255 
-9.6103 8.78881 0.940361 65 66 135 255 
-9.15971 8.39166 0.779385 68 59 132 255 
-9.10598 8.35984 0.658654 67 62 133 255 
-9.10199 8.37107 0.542079 68 57 131 255 
-7.578 6.93508 0.369489 49 103 142 255 
-7.24028 6.63782 0.260643 64 70 136 255 
-6.88108 6.31946 0.159814 51 99 141 255 
-6.86413 6.31733 0.073269 55 90 140 255 
-6.88761 6.30547 -0.00162979 56 88 140 255 
-6.87249 6.30506 -0.0895314 58 84 140 255 
-6.85878 6.30339 -0.175611 59 82 139 255 
-6.17926 5.691 -0.237586 56 89 140 255 
-6.18945 5.67227 -0.304913 50 100 142 255 
-6.1828 5.67628 -0.382605 57 85 140 255 
-6.18845 5.68934 -0.462626 52 96 141 255 
-6.18114 5.69472 -0.542024 44 113 142 255 
-6.17556 5.66153 -0.60789 51 99 141 255 
-6.01762 5.52851 -0.668961 60 80 139 255 
-5.48401 5.04701 -0.680896 57 86 140 255 
-5.49463 5.06223 -0.753616 51 98 141 255 
-5.49688 5.04462 -0.81314 54 93 141 255 
-5.49177 5.04717 -0.884125 49 103 142 255 
-5.49563 5.05948 -0.956924 53 94 141 255 
-5.49025 5.06175 -1.02824 53 95 141 255 
-5.49133 5.04483 -1.08917 49 104 142 255 
-5.50568 5.0635 -1.16333 48 106 142 255 
-5.2872 4.86929 -1.18607 57 86 140 255 
-5.01597 4.62448 -1.19316 55 91 141 255 
-4.80202 4.41774 -1.19756 47 107 142 255 
-4.55743 4.19581 -1.19517 50 101 142 255 
-4.37219 4.02661 -1.20605 51 99 141 255 
-4.1835 3.85563 -1.2124 54 93 141 255 
-4.0222 3.70421 -1.21323 62 76 138 255 
-3.86618 3.5619 -1.21751 63 71 136 255 
-3.69171 3.40229 -1.21363 66 64 134 255 
-3.55969 3.27841 -1.22095 64 70 136 255 
-3.43604 3.16992 -1.22208 60 79 138 255 
-3.3048 3.04897 -1.21997 62 76 138 255 
-3.19507 2.94562 -1.2248 61 77 138 255 
-3.07022 2.82565 -1.22252 64 69 136 255 
-17.1546 15.8937 7.02493 71 42 122 255 
-17.1746 15.8848 6.76569 72 40 120 255 
-17.1374 15.8391 6.50236 71 44 122 255 
-17.1956 15.8935 6.28733 71 42 122 255 
-17.1554 15.8778 6.06708 71 47 125 255 
-17.1779 15.8935 5.82626 72 40 120 255 
-17.1848 15.9052 5.59136 71 46 124 255 
-17.1661 15.894 5.358 72 37 118 255 
-17.1965 15.9103 5.16807 70 50 126 255 
-17.2261 15.9437 4.93352 70 52 128 255 
-17.2232 15.9575 4.70442 70 51 127 255 
-17.2161 15.9626 4.4786 70 48 126 255 
-17.2496 15.9594 4.28763 70 50 126 255 
-17.2487 15.9701 4.05607 69 55 129 255 
-17.2249 15.9702 3.82125 69 55 129 255 
-17.2064 15.9815 3.60185 70 50 126 255 
-17.2589 15.9736 3.41392 69 56 130 255 
-17.2982 16.0216 3.19205 69 53 129 255 
-10.9549 10.1676 1.88019 58 84 140 255 
-10.7232 9.96682 1.70684 68 59 132 255 
-10.4899 9.70865 1.55021 69 53 129 255 
-10.2412 9.49537 1.38167 68 59 132 255 
-10.0262 9.30891 1.22344 69 55 129 255 
-9.79066 9.10958 1.07128 70 52 128 255 
-9.58839 8.87742 0.94353 66 64 134 255 
-9.34733 8.66964 0.799861 62 73 137 255 
-9.10572 8.46314 0.662379 68 59 132 255 
-9.07824 8.45263 0.543743 68 59 132 255 
-7.55803 7.0025 0.370604 48 106 142 255 
-7.19502 6.67804 0.260484 62 73 137 255 
-6.8495 6.36837 0.159985 57 85 140 255 
-6.83694 6.37023 0.0733947 64 70 136 255 
-6.8642 6.36189 -0.00163345 55 91 141 255 
-6.8498 6.36208 -0.0897426 57 86 140 255 
-6.82949 6.35421 -0.175856 60 80 139 255 
-6.16543 5.74858 -0.238406 54 93 141 255 
-6.16551 5.72033 -0.305458 48 105 142 255 
-6.16615 5.73112 -0.383743 47 108 142 255 
-6.1717 5.74421 -0.463999 47 108 142 255 
-6.15921 5.74479 -0.543183 48 106 142 255 
-6.13559 5.69456 -0.607383 50 100 142 255 
-5.99015 5.57143 -0.669696 61 78 138 255 
-5.47844 5.10432 -0.68408 50 101 142 255 
-5.47001 5.10196 -0.754519 50 100 142 255 
-5.47019 5.08231 -0.81379 50 100 142 255 
-5.45197 5.07265 -0.882713 53 95 141 255 
-5.47537 5.10325 -0.95883 56 88 140 255 
-5.46851 5.10413 -1.03001 51 98 141 255 
-5.47404 5.09123 -1.09192 44 114 142 255 
-5.46873 5.0918 -1.1621 55 90 140 255 
-5.24351 4.88886 -1.18297 60 80 139 255 
-4.9479 4.61821 -1.18369 54 93 141 255 
-4.75683 4.43036 -1.19305 46 109 142 255 
-4.51939 4.21232 -1.19195 53 94 141 255 
-4.34024 4.04668 -1.20407 51 99 141 255 
-4.15619 3.87789 -1.21136 57 86 140 255 
-3.9894 3.7195 -1.2102 62 74 137 255 
-3.83357 3.57559 -1.21412 65 68 135 255 
-3.67432 3.4282 -1.21481 63 71 136 255 
-3.5395 3.30019 -1.22095 62 76 138 255 
-3.39672 3.17245 -1.215 60 80 139 255 
-3.30155 3.08369 -1.22573 59 81 139 255 
-3.16356 2.95269 -1.21964 62 74 137 255 
-3.05283 2.84443 -1.22252 63 72 137 255 
-16.8618 15.8159 6.94467 72 37 118 255 
-16.919 15.8422 6.70319 72 40 120 255 
-16.9541 15.8637 6.46962 72 38 119 255 
-16.9581 15.868 6.23598 72 41 121 255 
-16.9538 15.8855 6.03015 71 42 122 255 
-16.9568 15.8832 5.78423 71 46 124 255 
-16.9634 15.8946 5.55095 71 42 122 255 
-16.9857 15.9217 5.33211 71 42 122 255 
-16.9824 15.9067 5.13296 69 55 129 255 
-16.9816 15.9119 4.89135 69 55 129 255 
-17.007 15.9522 4.67201 69 53 129 255 
-17.0047 15.9617 4.44899 71 45 123 255 
-17.0279 15.9493 4.25676 69 53 129 255 
-17.0245 15.9577 4.02632 70 52 128 255 
-16.9891 15.9465 3.79058 69 56 130 255 
-16.9489 15.9372 3.56835 70 50 126 255 
-17.0501 15.9757 3.39194 68 58 131 255 
-17.0275 15.9661 3.16012 69 55 129 255 
-10.9292 10.2692 1.88656 57 85 140 255 
-10.6771 10.0467 1.70927 68 59 132 255 
-10.4642 9.80478 1.55528 69 53 129 255 
-10.2299 9.6023 1.38807 67 61 132 255 
-9.98488 9.38526 1.2254 69 55 129 255 
-9.74619 9.18042 1.07256 70 52 128 255 
-9.54175 8.94359 0.944322 64 69 136 255 
-9.31506 8.74664 0.801677 60 80 139 255 
-9.06598 8.53049 0.663284 67 62 133 255 
-9.03202 8.51366 0.544094 68 59 132 255 
-7.52804 7.06105 0.371251 49 104 142 255 
-7.11967 6.68989 0.259238 66 64 134 255 
-6.81684 6.41644 0.160139 58 84 140 255 
-6.79918 6.41344 0.0734104 63 72 137 255 
-6.82722 6.40594 -0.00163398 61 78 138 255 
-6.81937 6.41221 -0.0898578 59 82 139 255 
-6.80711 6.41177 -0.176289 55 90 140 255 
-6.12495 5.7815 -0.238208 56 89 140 255 
-6.13467 5.76216 -0.305675 51 99 141 255 
-6.14396 5.78117 -0.384563 49 103 142 255 
-6.13925 5.78471 -0.464219 50 100 142 255 
-6.1311 5.78933 -0.543826 53 95 141 255 
-6.10708 5.73825 -0.608035 53 94 141 255 
-5.96456 5.61628 -0.670675 62 76 138 255 
-5.45281 5.14331 -0.684808 49 104 142 255 
-5.43354 5.13065 -0.753817 54 93 141 255 
-5.45193 5.12804 -0.81574 52 97 141 255 
-5.43231 5.1169 -0.884596 52 97 141 255 
-5.45116 5.14355 -0.9601 55 90 140 255 
-5.43637 5.1369 -1.02987 55 90 140 255 
-5.45206 5.13354 -1.09379 47 108 142 255 
-5.44241 5.13 -1.16317 58 84 140 255 
-5.21915 4.92636 -1.18428 58 84 140 255 
-4.93236 4.66066 -1.18679 56 88 140 255 
-4.71453 4.44529 -1.18926 51 99 141 255 
-4.49132 4.23795 -1.19138 51 98 141 255 
-4.32103 4.07861 -1.20566 50 102 142 255 
-4.13018 3.90131 -1.21073 63 72 137 255 
-3.9594 3.73721 -1.20803 62 73 137 255 
-3.80872 3.59637 -1.21322 61 78 138 255 
-3.65251 3.45001 -1.21457 59 82 139 255 
-3.51637 3.31919 -1.21997 60 80 139 255 
-3.3547 3.17197 -1.2069 60 79 138 255 
-3.26784 3.08996 -1.22023 61 78 138 255 
-3.13839 2.96543 -1.21693 62 76 138 255 
-3.04579 2.87299 -1.22674 64 69 136 255 
-16.6624 15.8221 6.90237 72 41 121 255 
-16.6925 15.8234 6.65179 71 42 122 255 
-16.7397 15.8568 6.42479 71 45 123 255 
-16.7146 15.8336 6.18204 72 40 120 255 
-16.7177 15.858 5.98066 71 46 124 255 
-16.7119 15.8474 5.73374 71 47 125 255 
-16.7463 15.8853 5.5117 71 46 124 255 
-16.6996 15.8471 5.27272 72 40 120 255 
-16.764 15.8964 5.09634 70 51 127 255 
-16.7856 15.9229 4.86297 68 59 132 255 
-16.7552 15.9104 4.62957 69 53 129 255 
-16.7092 15.8783 4.39709 70 50 126 255 
-16.7598 15.8924 4.21404 70 52 128 255 
-16.7769 15.9201 3.99078 67 61 132 255 
-16.765 15.9308 3.76232 69 53 129 255 
-16.7641 15.9584 3.55 69 53 129 255 
-16.7945 15.9308 3.36048 68 59 132 255 
-16.7804 15.9291 3.13235 68 59 132 255 
-10.871 10.3409 1.88743 63 72 137 255 
-10.6188 10.1155 1.70985 70 50 126 255 
-10.4204 9.88454 1.55776 67 62 133 255 
-10.1657 9.66009 1.38738 67 61 132 255 
-9.95813 9.47588 1.22923 69 53 129 255 
-9.71781 9.26688 1.07567 69 53 129 255 
-9.51563 9.02943 0.947203 67 62 133 255 
-9.29377 8.83458 0.804495 62 74 137 255 
-9.01925 8.59147 0.663709 69 56 130 255 
-8.98684 8.57581 0.544532 68 59 132 255 
-7.50124 7.12294 0.372077 49 104 142 255 
-7.00895 6.66731 0.256691 63 71 136 255 
-6.79978 6.47953 0.160669 49 103 142 255 
-6.7908 6.48473 0.0737481 55 90 140 255 
-6.79866 6.45805 -0.0016366 51 99 141 255 
-6.79511 6.46841 -0.0900594 52 96 141 255 
-6.78863 6.47342 -0.176836 53 94 141 255 
-6.09514 5.8245 -0.238434 57 85 140 255 
-6.1173 5.81691 -0.306583 50 100 142 255 
-6.1091 5.81944 -0.384608 53 94 141 255 
-6.11736 5.83537 -0.465263 53 95 141 255 
-6.11062 5.84132 -0.545178 50 101 142 255 
-6.09488 5.79761 -0.61035 52 97 141 255 
-5.91411 5.63765 -0.66888 62 74 137 255 
-5.43916 5.19386 -0.687083 51 98 141 255 
-5.42065 5.18177 -0.756426 53 95 141 255 
-5.43189 5.17237 -0.817473 51 99 141 255 
-5.42956 5.17755 -0.889304 50 100 142 255 
-5.43385 5.19061 -0.962641 56 88 140 255 
-5.40403 5.16948 -1.02974 53 94 141 255 
-5.42906 5.17509 -1.09553 54 92 141 255 
-5.4237 5.17558 -1.16594 50 102 142 255 
-5.17955 4.94943 -1.18216 55 91 141 255 
-4.92004 4.70649 -1.19075 54 92 141 255 
-4.69855 4.485 -1.19215 47 107 142 255 
-4.47162 4.27153 -1.19308 50 100 142 255 
-4.2945 4.1037 -1.20526 48 106 142 255 
-4.10405 3.92455 -1.21011 62 76 138 255 
-3.95193 3.77627 -1.2128 60 79 138 255 
-3.78447 3.61765 -1.21254 61 77 138 255 
-3.62284 3.4643 -1.21175 60 80 139 255 
-3.49523 3.34003 -1.21973 62 76 138 255 
-3.35195 3.20855 -1.21297 57 85 140 255 
-3.23697 3.09861 -1.21578 62 74 137 255 
-3.12779 2.99195 -1.21991 63 72 137 255 
-3.00659 2.87108 -1.21803 66 65 134 255 
-16.4359 15.7999 6.84858 71 44 122 255 
-16.4592 15.7952 6.59734 72 37 118 255 
-16.4787 15.8025 6.36172 71 44 122 255 
-16.5118 15.835 6.14289 72 37 118 255 
-16.4826 15.8282 5.93117 71 46 124 255 
-16.5268 15.8656 5.70354 71 45 123 255 
-16.5082 15.853 5.46524 71 47 125 255 
-16.5276 15.8777 5.24906 71 42 122 255 
-16.5337 15.8718 5.05584 69 56 130 255 
-16.5232 15.8676 4.81504 69 56 130 255 
-16.5039 15.8654 4.58694 70 50 126 255 
-16.5095 15.8825 4.37011 70 52 128 255 
-16.5463 15.8839 4.18479 69 56 130 255 
-16.5325 15.8821 3.95575 68 59 132 255 
-16.5183 15.8904 3.72876 69 55 129 255 
-16.4922 15.8936 3.51301 70 51 127 255 
-16.5765 15.9184 3.33634 68 58 131 255 
-16.5666 15.9205 3.11061 69 55 129 255 
-10.8166 10.4164 1.88906 65 68 135 255 
-10.5708 10.1942 1.71216 69 55 129 255 
-10.3632 9.95173 1.5583 68 57 131 255 
-10.145 9.75954 1.39269 69 56 130 255 
-9.91702 9.55338 1.23137 70 52 128 255 
-9.68299 9.34779 1.07815 70 50 126 255 
-9.47084 9.09802 0.948283 67 62 133 255 
-9.24586 8.89767 0.805058 63 72 137 255 
-8.98793 8.66744 0.665305 65 68 135 255 
-8.92686 8.62385 0.544094 70 50 126 255 
-7.4754 7.18614 0.372976 46 109 142 255 
-6.89159 6.63669 0.253879 64 70 136 255 
-6.78293 6.54335 0.161217 50 101 142 255 
-6.76166 6.5367 0.0738659 57 86 140 255 
-6.77549 6.51558 -0.00164061 54 93 141 255 
-6.76105 6.51553 -0.0901361 50 101 142 255 
-6.76316 6.52884 -0.177213 54 92 141 255 
-6.06288 5.86526 -0.238575 59 82 139 255 
-6.08869 5.86127 -0.306946 54 93 141 255 
-6.07687 5.86029 -0.384836 51 99 141 255 
-6.08072 5.8721 -0.465208 50 100 142 255 
-6.08111 5.88495 -0.545757 55 91 141 255 
-6.08002 5.85496 -0.612449 50 100 142 255 
-5.8622 5.65722 -0.666922 59 82 139 255 
-5.4215 5.24098 -0.688902 49 103 142 255 
-5.40306 5.22877 -0.758433 50 101 142 255 
-5.41651 5.22147 -0.819965 53 95 141 255 
-5.40269 5.2156 -0.890128 54 93 141 255 
-5.40047 5.22247 -0.962387 51 98 141 255 
-5.38644 5.21632 -1.03247 52 96 141 255 
-5.40219 5.21311 -1.09654 48 105 142 255 
-5.40463 5.22112 -1.1687 51 99 141 255 
-5.13349 4.96602 -1.17858 57 85 140 255 
-4.88045 4.72632 -1.18817 57 85 140 255 
-4.65821 4.50145 -1.1889 49 104 142 255 
-4.43897 4.29274 -1.19138 49 104 142 255 
-4.25515 4.11634 -1.20128 48 105 142 255 
-4.07567 3.94557 -1.20886 57 86 140 255 
-3.91184 3.78415 -1.2076 61 78 138 255 
-3.7559 3.63471 -1.21051 58 84 140 255 
-3.58475 3.47023 -1.20611 60 80 139 255 
-3.46283 3.34995 -1.21557 61 77 138 255 
-3.3322 3.22905 -1.21297 57 86 140 255 
-3.22829 3.12849 -1.21971 61 77 138 255 
-3.12043 3.0218 -1.22425 63 72 137 255 
-2.97649 2.87747 -1.21296 65 68 135 255 
-16.2659 15.8296 6.81808 71 42 122 255 
-16.2435 15.7808 6.54955 72 40 120 255 
-16.277 15.802 6.32118 70 48 126 255 
-16.2827 15.8081 6.09361 71 45 123 255 
-16.2442 15.7921 5.88017 70 48 126 255 
-16.2566 15.799 5.64362 70 50 126 255 
-16.2677 15.815 5.41763 71 46 124 255 
-16.2691 15.8225 5.19771 71 42 122 255 
-16.2764 15.8178 5.00672 70 48 126 255 
-16.2725 15.82 4.7702 70 50 126 255 
-16.2692 15.833 4.54863 71 44 122 255 
-16.2605 15.8362 4.32982 72 37 118 255 
-16.3159 15.8562 4.15104 71 46 124 255 
-16.3344 15.8857 3.93161 70 51 127 255 
-16.2812 15.8558 3.69713 70 51 127 255 
-16.2197 15.824 3.47556 69 53 129 255 
-16.3487 15.8936 3.31005 68 58 131 255 
-16.328 15.885 3.08405 70 52 128 255 
-10.7781 10.5075 1.89355 65 66 135 255 
-10.5394 10.2894 1.71726 70 51 127 255 
-10.309 10.0221 1.55938 71 46 124 255 
-10.097 9.83341 1.39437 67 62 133 255 
-9.86534 9.62101 1.23226 69 53 129 255 
-9.65468 9.4356 1.08142 70 48 126 255 
-9.42484 9.16569 0.949292 66 64 134 255 
-9.20896 8.97164 0.806624 62 74 137 255 
-8.95887 8.74614 0.667114 68 58 131 255 
-8.84664 8.65192 0.542429 70 50 126 255 
-7.43188 7.23257 0.373012 51 98 141 255 
-6.83356 6.6621 0.253243 64 70 136 255 
-6.7498 6.59183 0.161388 52 97 141 255 
-6.73215 6.58856 0.0739837 53 95 141 255 
-6.74326 6.56471 -0.00164253 55 91 141 255 
-6.73383 6.56946 -0.0903089 52 96 141 255 
-6.75301 6.59957 -0.178005 50 101 142 255 
-6.04606 5.92123 -0.239339 57 86 140 255 
-6.06407 5.90967 -0.307526 56 88 140 255 
-6.05652 5.91282 -0.385838 50 101 142 255 
-6.05243 5.91698 -0.465813 48 105 142 255 
-6.06414 5.94101 -0.547495 49 103 142 255 
-6.05255 5.90051 -0.613317 53 94 141 255 
-5.76963 5.63667 -0.660313 61 77 138 255 
-5.39138 5.27624 -0.689175 50 101 142 255 
-5.38153 5.27226 -0.759939 47 107 142 255 
-5.3801 5.25044 -0.819315 49 104 142 255 
-5.37911 5.25698 -0.891541 49 103 142 255 
-5.36478 5.25204 -0.961752 55 91 141 255 
-5.35858 5.25344 -1.03328 52 96 141 255 
-5.36939 5.24547 -1.0964 48 106 142 255 
-5.39086 5.27215 -1.1727 46 110 142 255 
-5.09235 4.98707 -1.17613 55 90 140 255 
-4.82604 4.73135 -1.18196 60 80 139 255 
-4.61784 4.51756 -1.18565 50 102 142 255 
-4.42378 4.33089 -1.19441 47 108 142 255 
-4.22842 4.141 -1.20088 47 107 142 255 
-4.05139 3.97051 -1.20886 61 77 138 255 
-3.86553 3.78554 -1.20045 62 74 137 255 
-3.72866 3.65291 -1.20893 57 85 140 255 
-3.56409 3.49285 -1.20635 58 84 140 255 
-3.44567 3.37453 -1.21679 61 77 138 255 
-3.31094 3.24808 -1.21247 62 73 137 255 
-3.20421 3.14351 -1.21788 62 73 137 255 
-3.09496 3.03415 -1.22154 62 73 137 255 
-2.96084 2.89769 -1.21381 67 62 133 255 
-16.2271 15.987 6.84282 71 45 123 255 
-16.2162 15.9488 6.57789 70 50 126 255 
-16.1969 15.9185 6.32789 69 53 129 255 
-16.1847 15.9071 6.09335 70 52 128 255 
-16.1926 15.9362 5.89675 69 56 130 255 
-16.1732 15.9121 5.64846 68 57 131 255 
-16.2008 15.9445 5.42785 69 53 129 255 
-16.1794 15.9296 5.20016 70 51 127 255 
-16.1839 15.9222 5.00823 68 57 131 255 
-16.1654 15.9099 4.76732 71 46 124 255 
-16.1598 15.9209 4.54529 69 56 130 255 
-16.1644 15.937 4.33019 71 44 122 255 
-16.1755 15.9139 4.14009 70 52 128 255 
-16.1376 15.8882 3.90763 67 61 132 255 
-16.1287 15.9013 3.68461 68 59 132 255 
-16.1005 15.9017 3.47086 68 57 131 255 
-16.1422 15.8867 3.28793 68 58 131 255 
-16.1391 15.8952 3.06674 69 56 130 255 
-10.7303 10.5901 1.89654 63 71 136 255 
-10.4979 10.3755 1.72085 68 57 131 255 
-10.2828 10.12 1.56477 69 53 129 255 
-10.0592 9.91753 1.39752 68 58 131 255 
-9.81038 9.68556 1.23279 69 56 130 255 
-9.60015 9.49816 1.08182 70 48 126 255 
-9.35848 9.21355 0.948283 69 56 130 255 
-9.16653 9.04059 0.807751 63 71 136 255 
-8.9164 8.81218 0.667966 70 52 128 255 
-8.78629 8.69901 0.541991 70 51 127 255 
-7.39235 7.28295 0.373264 49 103 142 255 
-6.76338 6.67512 0.252155 60 80 139 255 
-6.70212 6.62609 0.161217 55 90 140 255 
-6.6987 6.63678 0.0740623 56 88 140 255 
-6.7171 6.62 -0.00164602 49 103 142 255 
-6.71047 6.62752 -0.0905393 47 107 142 255 
-6.72021 6.64862 -0.178212 47 108 142 255 
-6.03375 5.98215 -0.2403 55 91 141 255 
-6.04334 5.96221 -0.308325 44 114 142 255 
-6.03079 5.9604 -0.386521 49 103 142 255 
-6.03163 5.96945 -0.467022 49 103 142 255 
-6.0382 5.98864 -0.54846 47 108 142 255 
-6.03043 5.95155 -0.614765 49 103 142 255 
-5.72289 5.66005 -0.658926 60 79 138 255 
-5.35678 5.30712 -0.688902 51 99 141 255 
-5.35827 5.31429 -0.761244 50 102 142 255 
-5.35627 5.29173 -0.820615 52 96 141 255 
-5.36228 5.30525 -0.894131 46 110 142 255 
-5.35007 5.30232 -0.964929 50 101 142 255 
-5.32624 5.28622 -1.03328 58 84 140 255 
-5.3568 5.2978 -1.10044 48 106 142 255 
-5.34718 5.294 -1.17024 50 101 142 255 
-5.06305 5.01961 -1.17646 56 89 140 255 
-4.79272 4.75671 -1.18093 57 85 140 255 
-4.59353 4.54927 -1.18655 48 106 142 255 
-4.38526 4.3462 -1.19119 52 96 141 255 
-4.19666 4.16066 -1.19909 51 99 141 255 
-4.02764 3.99598 -1.20907 61 77 138 255 
-3.85332 3.82019 -1.20392 60 79 138 255 
-3.70756 3.67709 -1.20938 59 81 139 255 
-3.54397 3.51602 -1.20682 60 80 139 255 
-3.41664 3.38742 -1.21386 62 76 138 255 
-3.28957 3.26697 -1.21196 62 76 138 255 
-3.18554 3.16379 -1.21814 62 74 137 255 
-3.05715 3.0341 -1.21394 65 66 135 255 
-2.93005 2.90297 -1.20847 67 61 132 255 
-16.1938 16.1512 6.87044 71 45 123 255 
-16.2011 16.1307 6.61178 71 45 123 255 
-16.1679 16.0862 6.355 69 55 129 255 
-16.1587 16.0776 6.12058 70 51 127 255 
-16.1603 16.1009 5.92087 70 48 126 255 
-16.1887 16.124 5.68832 68 58 131 255 
-16.1695 16.1102 5.45038 69 56 130 255 
-16.1787 16.1256 5.23164 70 50 126 255 
-16.1433 16.0784 5.02611 68 58 131 255 
-16.1451 16.0862 4.79036 69 56 130 255 
-16.1597 16.1174 4.57299 69 56 130 255 
-16.1441 16.1136 4.35118 71 42 122 255 
-10.8805 10.8368 2.80182 56 88 140 255 
-10.8819 10.846 2.65105 53 95 141 255 
-10.8905 10.8696 2.50313 50 100 142 255 
-10.8825 10.8809 2.36035 51 99 141 255 
-10.8419 10.802 2.22178 64 69 136 255 
-10.8266 10.7946 2.06981 62 76 138 255 
-10.7234 10.714 1.9069 62 73 137 255 
-10.4263 10.432 1.71957 68 57 131 255 
-10.255 10.2173 1.57005 70 52 128 255 
-10.0059 9.9868 1.3986 69 55 129 255 
-9.79303 9.78782 1.23814 68 57 131 255 
-9.55859 9.57382 1.08374 70 50 126 255 
-9.33073 9.29967 0.951236 70 52 128 255 
-9.11159 9.09737 0.807813 65 66 135 255 
-8.87275 8.87732 0.668764 69 53 129 255 
-8.74051 8.76054 0.542473 71 46 124 255 
-7.37795 7.35851 0.374809 49 104 142 255 
-6.72795 6.72214 0.252367 57 85 140 255 
-6.68112 6.6869 0.161695 57 85 140 255 
-6.67409 6.69405 0.0742429 53 95 141 255 
-6.69051 6.67521 -0.00164951 58 84 140 255 
-6.68523 6.68413 -0.0907505 46 109 142 255 
-6.68282 6.69326 -0.178306 46 110 142 255 
-5.99975 6.02189 -0.240413 57 86 140 255 
-6.01018 6.00271 -0.308506 45 112 142 255 
-6.00257 6.00577 -0.387067 48 106 142 255 
-6.01181 6.02331 -0.46834 46 109 142 255 
-6.00556 6.02982 -0.548846 46 109 142 255 
-6.0065 6.00113 -0.616067 53 94 141 255 
-5.68383 5.69082 -0.658436 59 82 139 255 
-5.34521 5.36104 -0.691631 52 97 141 255 
-5.33749 5.35906 -0.76295 52 97 141 255 
-5.35181 5.35262 -0.824949 51 98 141 255 
-5.34085 5.3493 -0.896014 50 100 142 255 
-5.32513 5.34277 -0.966326 56 89 140 255 
-5.31327 5.33846 -1.0371 54 92 141 255 
-5.32489 5.33127 -1.10059 50 101 142 255 
-5.29924 5.31132 -1.16686 58 83 139 255 
-5.02171 5.0401 -1.17402 57 86 140 255 
-4.76483 4.78742 -1.18128 57 85 140 255 
-4.57248 4.58434 -1.18836 46 109 142 255 
-4.36337 4.3779 -1.19251 51 99 141 255 
-4.16552 4.18078 -1.1975 51 98 141 255 
-3.98993 4.00745 -1.20511 60 79 138 255 
-3.83257 3.84653 -1.20478 59 82 139 255 
-3.68149 3.69632 -1.20826 60 80 139 255 
-3.52096 3.53632 -1.20635 60 79 138 255 
-3.39236 3.40488 -1.21263 61 78 138 255 
-3.26742 3.28504 -1.2112 64 70 136 255 
-3.15995 3.17712 -1.21578 63 71 136 255 
-3.05138 3.06576 -1.2191 62 73 137 255 
-2.9298 2.93856 -1.21578 67 62 133 255 
-16.149 16.3053 6.89374 71 45 123 255 
-16.1472 16.2755 6.6304 70 52 128 255 
-16.1965 16.3136 6.40547 70 51 127 255 
-16.1496 16.2669 6.15481 70 51 127 255 
-16.143 16.2822 5.95101 70 50 126 255 
-16.1318 16.2657 5.7033 69 56 130 255 
-16.1519 16.2913 5.47802 70 50 126 255 
-16.135 16.2806 5.24973 70 48 126 255 
-16.1482 16.2818 5.05864 69 56 130 255 
-16.1474 16.2871 4.82059 68 57 131 255 
-16.1254 16.2817 4.59146 70 52 128 255 
-16.112 16.2801 4.36936 71 45 123 255 
-10.5326 10.6197 2.72895 72 33 115 255 
-16.1246 16.2698 3.95252 69 55 129 255 
-16.0997 16.2671 3.7233 66 63 133 255 
-16.0875 16.2837 3.51089 68 59 132 255 
-16.1098 16.2487 3.32169 68 59 132 255 
-16.0956 16.2462 3.09612 63 72 137 255 
-10.6435 10.7655 1.90441 70 51 127 255 
-10.4124 10.5467 1.72791 69 55 129 255 
-10.2222 10.3104 1.57469 70 52 128 255 
-9.95424 10.0579 1.39998 68 57 131 255 
-9.74049 9.85552 1.23912 69 55 129 255 
-9.50457 9.63726 1.0843 69 55 129 255 
-9.30369 9.38721 0.954333 69 55 129 255 
-9.06332 9.16091 0.808502 65 66 135 255 
-8.83565 8.94936 0.670094 67 61 132 255 
-8.67116 8.79835 0.54151 70 51 127 255 
-7.32492 7.39584 0.374414 54 93 141 255 
-6.68869 6.76543 0.252447 57 85 140 255 
-6.65331 6.74129 0.16202 52 96 141 255 
-6.64201 6.74413 0.074345 53 94 141 255 
-6.65787 6.72467 -0.00165161 50 101 142 255 
-6.65112 6.73213 -0.0908465 46 109 142 255 
-6.64794 6.74055 -0.178476 49 103 142 255 
-5.97251 6.06857 -0.240809 57 86 140 255 
-5.98729 6.05369 -0.309232 44 114 142 255 
-5.98807 6.06524 -0.388525 48 106 142 255 
-5.98175 6.0672 -0.46889 45 112 142 255 
-5.98315 6.0815 -0.550198 51 98 141 255 
-5.97868 6.04709 -0.617008 50 100 142 255 
-5.6397 5.71637 -0.657376 56 89 140 255 
-5.31361 5.39516 -0.691813 58 84 140 255 
-5.31288 5.40022 -0.764154 52 96 141 255 
-5.32795 5.39455 -0.826358 51 99 141 255 
-5.3149 5.38904 -0.897191 53 94 141 255 
-5.3006 5.38383 -0.967851 56 89 140 255 
-5.29083 5.38156 -1.03915 54 93 141 255 
-5.30737 5.37934 -1.10377 49 104 142 255 
-5.25684 5.33388 -1.16471 57 86 140 255 
-4.98792 5.06801 -1.17337 57 86 140 255 
-4.72708 4.80814 -1.17921 61 78 138 255 
-4.5484 4.61651 -1.18944 44 114 142 255 
-4.32196 4.38989 -1.18854 50 100 142 255 
-4.15973 4.22651 -1.20327 49 103 142 255 
-3.96596 4.03255 -1.20531 62 73 137 255 
-3.8041 3.8651 -1.20327 62 76 138 255 
-3.65737 3.71745 -1.2078 62 76 138 255 
-3.49987 3.55855 -1.20658 62 76 138 255 
-3.37277 3.42702 -1.21312 62 76 138 255 
-3.25398 3.31193 -1.21373 62 76 138 255 
-3.12619 3.18199 -1.21028 66 63 133 255 
-3.02037 3.07208 -1.21422 68 58 131 255 
-2.91777 2.96264 -1.21831 68 59 132 255 
-16.131 16.4883 6.92913 72 35 116 255 
-16.1633 16.493 6.67846 71 45 123 255 
-16.1406 16.4581 6.42318 72 41 121 255 
-16.1258 16.4436 6.18412 71 47 125 255 
-16.0881 16.4273 5.96784 71 44 122 255 
-16.0962 16.4303 5.72625 69 53 129 255 
-16.1346 16.4749 5.50635 69 55 129 255 
-16.1139 16.4601 5.27562 71 46 124 255 
-16.1081 16.442 5.0776 67 61 132 255 
-16.104 16.4439 4.83767 68 58 131 255 
-16.1123 16.4693 4.61641 68 59 132 255 
-16.0928 16.4615 4.39147 70 48 126 255 
-16.0754 16.4085 4.19107 72 35 116 255 
-16.0679 16.4128 3.96323 70 48 126 255 
-16.0879 16.4559 3.74386 66 63 133 255 
-16.0425 16.4387 3.52302 68 58 131 255 
-16.0589 16.3975 3.33189 66 65 134 255 
-16.0601 16.4105 3.1086 63 71 136 255 
-10.6119 10.8661 1.91065 71 46 124 255 
-10.371 10.6346 1.73185 70 51 127 255 
-10.1574 10.3715 1.57447 69 55 129 255 
-9.91599 10.143 1.40333 68 58 131 255 
-9.6847 9.92008 1.23974 68 58 131 255 
