ply
format ascii 1.0
comment VTK generated PLY File
obj_info vtkPolyData points and polygons: vtk4.0
element vertex 1143
property float x
property float y
property float z
property uchar red
property uchar green
property uchar blue
property uchar alpha
element face 0
property list uchar int vertex_indices
end_header
-11.6233 -1.26955 -1.49784 72 36 117 255 
-10.6928 -1.16022 -1.48097 71 45 123 255 
-9.81373 -1.08238 -1.44211 68 58 131 255 
-9.14942 -1.00411 -1.43149 65 66 135 255 
-8.53922 -0.931184 -1.41742 65 66 135 255 
-8.01264 -0.869412 -1.40954 64 69 136 255 
-7.56265 -0.828768 -1.39632 64 69 136 255 
-7.13521 -0.779276 -1.38479 65 66 135 255 
-6.75352 -0.736458 -1.37846 62 76 138 255 
-6.42699 -0.698494 -1.37768 69 56 130 255 
-6.12 -0.667434 -1.36594 66 63 133 255 
-5.7877 -0.630063 -1.34837 66 64 134 255 
-5.50797 -0.598687 -1.33934 67 61 132 255 
-5.27641 -0.575308 -1.33911 64 70 136 255 
-5.05178 -0.546483 -1.3283 67 61 132 255 
-4.88392 -0.528226 -1.33283 64 69 136 255 
-4.6763 -0.507463 -1.32571 69 56 130 255 
-4.53326 -0.495878 -1.33612 69 56 130 255 
-18.6286 -1.97508 5.62731 71 16 99 255 
-18.652 -1.99375 5.42495 72 24 106 255 
-18.6543 -2.00075 5.22766 72 22 104 255 
-18.6449 -1.99936 5.03505 71 19 101 255 
-18.6789 -1.99029 4.87552 71 19 101 255 
-18.6583 -1.99113 4.67149 72 23 105 255 
-18.6085 -1.9827 4.46863 70 11 94 255 
-18.6008 -1.97824 4.28417 70 10 93 255 
-18.6365 -1.98906 4.1345 70 10 93 255 
-18.6039 -1.98204 3.93242 70 8 92 255 
-18.5903 -1.97091 3.7457 69 5 89 255 
-18.4615 -1.95042 3.54132 62 74 137 255 
-18.4411 -1.9682 3.38373 60 80 139 255 
-18.4742 -1.96497 3.20572 62 76 138 255 
-18.469 -1.95154 3.02129 60 80 139 255 
-18.4501 -1.93296 2.84534 63 71 136 255 
-18.4599 -1.96696 2.69502 59 81 139 255 
-18.449 -1.95903 2.51173 59 81 139 255 
-18.4156 -1.93614 2.3294 59 81 139 255 
-18.4323 -1.9246 2.16067 63 72 137 255 
-18.4181 -1.9625 2.0089 61 77 138 255 
-18.429 -1.94714 1.83336 60 80 139 255 
-18.4328 -1.9347 1.65738 59 81 139 255 
-18.4017 -1.91168 1.48203 62 76 138 255 
-18.4109 -1.95849 1.3369 61 77 138 255 
-18.3986 -1.94068 1.16072 57 85 140 255 
-18.9757 -1.98165 1.01658 72 27 109 255 
-31.0908 -3.21895 1.37018 70 7 90 255 
-33.8354 -3.58736 1.22385 70 11 94 255 
-33.8733 -3.56101 0.90379 70 11 94 255 
-33.7949 -3.52325 0.581225 70 11 94 255 
-36.2614 -3.7415 0.286314 70 11 94 255 
-36.2704 -3.83914 -0.00636574 71 14 97 255 
-36.3682 -3.81046 -0.351032 70 7 90 255 
-36.2444 -3.76584 -0.68695 70 10 93 255 
-18.4185 -1.89396 -0.523656 71 16 99 255 
-18.4328 -1.94133 -0.673161 72 22 104 255 
-18.4355 -1.92507 -0.844945 71 17 100 255 
-18.3804 -1.90651 -1.01696 71 19 101 255 
-18.3919 -1.88799 -1.19236 71 14 97 255 
-18.393 -1.93389 -1.34192 72 35 116 255 
-17.8932 -1.86212 -1.47271 72 27 109 255 
-17.7663 -1.8334 -1.63173 72 29 111 255 
-15.6588 -1.60743 -1.58782 72 29 111 255 
-14.1397 -1.47921 -1.54946 72 35 116 255 
-12.7575 -1.32541 -1.52035 72 41 121 255 
-11.6112 -1.19618 -1.4953 72 40 120 255 
-10.6731 -1.09186 -1.47729 71 46 124 255 
-9.81034 -1.02112 -1.44066 69 53 129 255 
-9.15246 -0.947642 -1.43103 65 66 135 255 
-8.56538 -0.88089 -1.42084 64 70 136 255 
-7.99137 -0.817524 -1.40489 66 64 134 255 
-7.57738 -0.78336 -1.39812 63 72 137 255 
-7.13106 -0.734575 -1.38309 64 69 136 255 
-6.75889 -0.695105 -1.37866 63 72 137 255 
-6.39613 -0.655456 -1.37018 68 59 132 255 
-6.12204 -0.62967 -1.36551 65 66 135 255 
-5.77595 -0.592947 -1.34476 68 59 132 255 
-5.51251 -0.564979 -1.33958 66 64 134 255 
-5.24512 -0.539351 -1.3303 63 71 136 255 
-5.04637 -0.514593 -1.32603 67 61 132 255 
-4.88707 -0.498249 -1.33283 62 74 137 255 
-4.68794 -0.479642 -1.32815 68 58 131 255 
-4.53908 -0.468349 -1.33696 68 57 131 255 
-18.6242 -1.85913 5.62242 71 16 99 255 
-18.6639 -1.87927 5.42495 72 22 104 255 
-18.6375 -1.88334 5.21961 72 20 103 255 
-18.6837 -1.88764 5.04231 72 22 104 255 
-18.6946 -1.87602 4.87652 71 14 97 255 
-18.6789 -1.87748 4.67367 72 23 105 255 
-18.5275 -1.85916 4.44633 70 7 90 255 
-18.5815 -1.86096 4.27703 70 8 92 255 
-18.6154 -1.87135 4.12718 71 13 96 255 
-18.5943 -1.8657 3.92789 70 10 93 255 
-0 -0 0 68 2 86 255 
-18.4467 -1.83448 3.53626 64 69 136 255 
-18.4587 -1.8556 3.3848 61 78 138 255 
-18.4536 -1.84833 3.20011 58 83 139 255 
-18.4414 -1.83427 3.01487 59 82 139 255 
-18.4341 -1.817 2.84109 62 74 137 255 
-18.445 -1.85098 2.69114 58 84 140 255 
-18.4311 -1.84283 2.5077 57 85 140 255 
-18.4083 -1.82125 2.32703 60 79 138 255 
-18.4131 -1.80845 2.15708 63 72 137 255 
-18.3972 -1.84618 2.00535 61 77 138 255 
-18.4079 -1.83078 1.83011 59 81 139 255 
-18.4057 -1.81775 1.65391 62 74 137 255 
-18.4131 -1.79873 1.48203 61 77 138 255 
-18.3988 -1.8431 1.33517 62 76 138 255 
-18.3803 -1.8248 1.15884 57 86 140 255 
-18.8941 -1.856 1.01158 70 8 92 255 
-31.1129 -3.02841 1.37031 69 5 89 255 
-33.8597 -3.37998 1.22396 70 11 94 255 
-33.8587 -3.34956 0.902835 70 10 93 255 
-33.8258 -3.3168 0.581396 70 10 93 255 
-36.9266 -3.58129 0.291388 70 11 94 255 
-36.4425 -3.63139 -0.00639192 70 7 90 255 
-36.3611 -3.5843 -0.350744 68 2 86 255 
-36.7952 -3.59501 -0.696959 69 5 89 255 
-18.4019 -1.77822 -0.522864 71 19 101 255 
-18.4325 -1.82701 -0.672725 71 19 101 255 
-18.3834 -1.80566 -0.842031 71 19 101 255 
-18.3739 -1.79195 -1.01597 71 19 101 255 
-18.3386 -1.76888 -1.18818 71 16 99 255 
-18.3569 -1.81629 -1.33844 72 40 120 255 
-17.8815 -1.75006 -1.47083 72 36 117 255 
-17.7742 -1.72407 -1.63146 72 27 109 255 
-15.6397 -1.50855 -1.58491 72 28 110 255 
-14.1356 -1.39116 -1.54805 72 35 116 255 
-12.7042 -1.24112 -1.51305 72 41 121 255 
-11.5976 -1.1229 -1.49263 72 35 116 255 
-10.6727 -1.02569 -1.47634 71 45 123 255 
-9.82824 -0.962061 -1.4424 69 56 130 255 
-9.12958 -0.88869 -1.42657 65 68 135 255 
-8.56572 -0.827843 -1.42002 66 63 133 255 
-7.99035 -0.767909 -1.40385 67 62 133 255 
-7.57812 -0.736471 -1.3974 60 80 139 255 
-7.12371 -0.68967 -1.38082 61 77 138 255 
-6.75035 -0.652395 -1.37608 59 81 139 255 
-6.41074 -0.617229 -1.37247 68 58 131 255 
-6.11024 -0.590592 -1.36204 66 63 133 255 
-5.77269 -0.556841 -1.34318 66 64 134 255 
-5.51877 -0.531424 -1.34028 66 63 133 255 
-5.25122 -0.507437 -1.33103 65 68 135 255 
-5.0581 -0.484449 -1.3283 67 61 132 255 
-4.89003 -0.468253 -1.33283 65 66 135 255 
-4.686 -0.450408 -1.32679 68 58 131 255 
-4.5304 -0.439377 -1.33359 68 58 131 255 
-18.6133 -1.74276 5.6158 72 35 116 255 
-18.6158 -1.75911 5.40772 72 22 104 255 
-18.6142 -1.76567 5.20994 71 19 101 255 
-18.6517 -1.76886 5.03064 72 22 104 255 
-18.672 -1.7581 4.86773 71 19 101 255 
-18.663 -1.76028 4.6669 72 24 106 255 
-18.5753 -1.74891 4.45516 70 10 93 255 
-18.5557 -1.74345 4.26854 70 10 93 255 
-18.5643 -1.75123 4.11339 70 8 92 255 
-18.5771 -1.74892 3.92193 70 10 93 255 
-18.4393 -1.72636 3.71073 69 5 89 255 
-18.4312 -1.7188 3.5312 66 65 134 255 
-18.4374 -1.73926 3.37888 62 74 137 255 
-18.446 -1.73332 3.19688 60 80 139 255 
-18.4562 -1.72145 3.01551 59 82 139 255 
-18.4006 -1.69976 2.83427 60 79 138 255 
-18.4088 -1.73332 2.68424 59 81 139 255 
-18.4095 -1.72665 2.50328 60 79 138 255 
-18.3994 -1.70644 2.32453 59 82 139 255 
-18.408 -1.69398 2.15523 61 77 138 255 
-18.4101 -1.73345 2.00556 61 77 138 255 
-18.4049 -1.7165 1.82873 61 77 138 255 
-18.3808 -1.70147 1.6507 62 73 137 255 
-18.391 -1.68272 1.4794 65 66 135 255 
-18.3938 -1.72868 1.33402 58 83 139 255 
-18.3743 -1.71041 1.15778 55 91 141 255 
-18.8723 -1.73701 1.00982 70 8 92 255 
-31.7746 -2.89612 1.39864 69 4 87 255 
-33.8599 -3.1703 1.22324 71 13 96 255 
-33.798 -3.13427 0.900687 70 11 94 255 
-33.8097 -3.1059 0.58078 70 11 94 255 
-36.926 -3.35266 0.291215 71 13 96 255 
-36.9002 -3.44847 -0.00646836 71 13 96 255 
-36.8842 -3.40748 -0.355582 70 10 93 255 
-36.8943 -3.37627 -0.698429 71 13 96 255 
-18.3925 -1.66347 -0.522299 71 16 99 255 
-18.4005 -1.7099 -0.671165 72 20 103 255 
-18.3921 -1.69265 -0.84194 71 19 101 255 
-18.3915 -1.67981 -1.01636 71 19 101 255 
-18.372 -1.65838 -1.18966 71 17 100 255 
-18.3518 -1.70214 -1.33729 71 45 123 255 
-17.8591 -1.63731 -1.46814 72 33 115 255 
-17.7854 -1.61507 -1.63155 72 29 111 255 
-15.5922 -1.40746 -1.57919 72 26 108 255 
-14.1369 -1.30376 -1.54729 72 37 118 255 
-12.6987 -1.16197 -1.51152 72 41 121 255 
-11.6181 -1.05297 -1.49441 71 42 122 255 
-10.6649 -0.958944 -1.47443 72 37 118 255 
-9.83692 -0.902009 -1.44283 69 55 129 255 
-9.10435 -0.829874 -1.42181 67 61 132 255 
-8.54902 -0.773314 -1.41644 68 57 131 255 
-8.00472 -0.719749 -1.40558 63 71 136 255 
-7.56095 -0.687998 -1.39343 61 78 138 255 
-7.12683 -0.645858 -1.38063 64 69 136 255 
-6.76398 -0.611846 -1.37806 61 77 138 255 
-6.39492 -0.576126 -1.3683 67 62 133 255 
-6.09624 -0.551506 -1.35814 67 62 133 255 
-5.74398 -0.518519 -1.33574 68 59 132 255 
-5.52677 -0.497987 -1.34146 66 64 134 255 
-5.24844 -0.474683 -1.32957 66 65 134 255 
-5.0764 -0.454785 -1.33235 68 59 132 255 
-4.89281 -0.43824 -1.33283 65 68 135 255 
-4.68197 -0.421043 -1.32489 67 62 133 255 
-4.53206 -0.411484 -1.3333 70 52 128 255 
-18.6141 -1.62769 5.61293 72 26 108 255 
-18.6176 -1.64409 5.40522 70 48 126 255 
-18.6064 -1.64981 5.20484 68 57 131 255 
-18.6054 -1.64935 5.01534 66 65 134 255 
-18.5822 -1.63468 4.8416 70 48 126 255 
-18.57 -1.63662 4.64105 67 61 132 255 
-18.5682 -1.63336 4.45098 66 63 133 255 
-18.5408 -1.62735 4.26274 68 58 131 255 
-18.5533 -1.6354 4.10865 67 62 133 255 
-18.5612 -1.63258 3.91637 65 68 135 255 
-18.5032 -1.61788 3.72153 64 69 136 255 
-18.4356 -1.60516 3.53008 61 77 138 255 
-18.4321 -1.62471 3.37601 59 82 139 255 
-18.4278 -1.6176 3.19194 55 90 140 255 
-18.4409 -1.60595 3.01134 58 83 139 255 
-18.4028 -1.58615 2.83306 60 79 138 255 
-18.3983 -1.61851 2.68123 59 82 139 255 
-18.402 -1.61211 2.50086 59 81 139 255 
-18.3917 -1.59197 2.32228 61 77 138 255 
-18.3953 -1.57905 2.15256 65 68 135 255 
-18.3986 -1.61854 2.00319 61 77 138 255 
-18.3873 -1.60112 1.82598 58 84 140 255 
-18.3839 -1.58806 1.65008 61 78 138 255 
-18.3851 -1.56849 1.47812 62 76 138 255 
-18.3912 -1.61465 1.33308 59 82 139 255 
-18.3675 -1.59617 1.15671 53 94 141 255 
-18.3902 -1.5789 0.983486 65 68 135 255 
-18.4069 -1.56389 0.80979 66 63 133 255 
-18.3112 -1.6012 0.661155 72 20 103 255 
-18.328 -1.58629 0.488156 72 33 115 255 
-18.38 -1.57479 0.315558 70 50 126 255 
-18.3808 -1.55521 0.144881 69 56 130 255 
-36.9008 -3.22025 -0.00646487 70 11 94 255 
-18.2913 -1.57668 -0.176241 71 17 100 255 
-18.3172 -1.56297 -0.346566 72 38 119 255 
-18.3616 -1.54714 -0.52114 69 55 129 255 
-18.3519 -1.59187 -0.669023 72 22 104 255 
-18.3245 -1.5731 -0.838388 72 27 109 255 
-18.3219 -1.56015 -1.01196 72 32 113 255 
-18.3609 -1.54387 -1.18831 71 42 122 255 
-18.3152 -1.58546 -1.33388 71 44 122 255 
-17.846 -1.52574 -1.46626 72 37 118 255 
-17.7672 -1.50356 -1.629 72 29 111 255 
-15.5618 -1.30851 -1.57528 72 26 108 255 
-14.0951 -1.21273 -1.54188 72 37 118 255 
-12.7066 -1.08412 -1.51164 71 44 122 255 
-11.6194 -0.981248 -1.49377 71 42 122 255 
-10.6746 -0.893817 -1.47497 71 42 122 255 
-9.8186 -0.839611 -1.43936 70 51 127 255 
-9.12404 -0.77525 -1.42411 65 68 135 255 
-8.5536 -0.720843 -1.41644 66 63 133 255 
-8.062 -0.675058 -1.41488 61 78 138 255 
-7.55915 -0.641093 -1.39234 62 74 137 255 
-7.12674 -0.601786 -1.37987 66 64 134 255 
-6.7764 -0.571072 -1.37985 61 78 138 255 
-6.40419 -0.537368 -1.36955 68 59 132 255 
-6.08492 -0.512859 -1.3549 66 65 134 255 
-5.74123 -0.482775 -1.33438 68 59 132 255 
-5.52778 -0.463904 -1.34099 67 61 132 255 
-5.24643 -0.442063 -1.32834 62 73 137 255 
-5.07331 -0.423146 -1.33083 65 68 135 255 
-4.89733 -0.40837 -1.33335 68 59 132 255 
-4.67583 -0.391584 -1.32245 69 56 130 255 
-4.54023 -0.384153 -1.33499 68 57 131 255 
-18.6199 -1.51313 5.61178 71 17 100 255 
-18.6092 -1.52833 5.39994 72 24 106 255 
-18.6114 -1.53522 5.2035 72 26 108 255 
-18.6094 -1.53468 5.01378 72 22 104 255 
-18.6295 -1.52371 4.8514 72 26 108 255 
-18.6387 -1.52748 4.65579 72 24 106 255 
-18.6157 -1.52249 4.46004 71 13 96 255 
-18.6078 -1.51823 4.27591 71 19 101 255 
-18.6311 -1.52711 4.12373 71 17 100 255 
-18.5757 -1.51906 3.9174 71 17 100 255 
-18.5441 -1.50686 3.72782 71 14 97 255 
-18.4363 -1.4913 3.52839 62 74 137 255 
-18.4103 -1.50902 3.37027 62 74 137 255 
-18.4079 -1.5021 3.18684 59 81 139 255 
-18.4002 -1.4887 3.00315 58 83 139 255 
-18.3905 -1.47147 2.82972 62 74 137 255 
-18.3833 -1.50357 2.67763 59 81 139 255 
-18.3908 -1.49747 2.49804 55 90 140 255 
-18.3715 -1.4767 2.31854 62 76 138 255 
-18.3749 -1.46378 2.14909 64 70 136 255 
-18.3834 -1.50359 2.00049 62 73 137 255 
-18.369 -1.48602 1.82322 61 78 138 255 
-18.3794 -1.47411 1.64883 61 78 138 255 
-18.3606 -1.45298 1.47541 62 76 138 255 
-18.357 -1.4982 1.32992 59 81 139 255 
-18.3392 -1.48038 1.15433 58 83 139 255 
-18.8803 -1.50434 1.00918 69 4 87 255 
-0 -0 0 68 2 86 255 
-18.3626 -1.49221 0.662665 71 17 100 255 
-33.7921 -2.71591 0.899573 70 10 93 255 
-33.7446 -2.68276 0.579052 70 10 93 255 
-0 -0 0 68 2 86 255 
-18.3089 -1.48464 -0.003206 72 28 110 255 
-18.2857 -1.46322 -0.176097 71 14 97 255 
-36.8223 -2.91451 -0.696337 70 8 92 255 
-18.3697 -1.43437 -0.521111 71 19 101 255 
-18.3444 -1.47787 -0.668406 71 44 122 255 
-18.3169 -1.45928 -0.837614 72 37 118 255 
-18.3072 -1.44582 -1.01064 72 24 106 255 
-18.371 -1.43125 -1.18837 71 19 101 255 
-18.2609 -1.46794 -1.32925 72 38 119 255 
-17.8361 -1.41472 -1.46471 72 33 115 255 
-17.7444 -1.39202 -1.62609 72 27 109 255 
-15.6182 -1.21678 -1.5802 72 26 108 255 
-14.0904 -1.12527 -1.54058 72 33 115 255 
-12.6783 -1.00339 -1.50752 72 40 120 255 
-11.551 -0.904129 -1.48424 72 35 116 255 
-10.6236 -0.823936 -1.4672 71 45 123 255 
-9.80187 -0.777628 -1.43618 70 48 126 255 
-9.13257 -0.719562 -1.42473 64 69 136 255 
-8.55491 -0.668115 -1.41595 66 65 134 255 
-8.04929 -0.624283 -1.41195 66 65 134 255 
-7.56392 -0.594776 -1.39252 61 77 138 255 
-7.12541 -0.557663 -1.37892 66 63 133 255 
-6.77978 -0.529482 -1.37985 62 76 138 255 
-6.42199 -0.499199 -1.37268 68 57 131 255 
-6.1191 -0.477946 -1.36183 66 65 134 255 
-5.77225 -0.449733 -1.34093 66 64 134 255 
-5.52956 -0.429902 -1.34075 66 64 134 255 
-5.25484 -0.410316 -1.32981 66 65 134 255 
-5.06424 -0.391115 -1.3278 65 68 135 255 
-4.90552 -0.378759 -1.33492 64 70 136 255 
-4.69542 -0.364227 -1.32734 66 64 134 255 
-4.50519 -0.353361 -1.32403 69 55 129 255 
-18.6356 -1.39935 5.61379 72 20 103 255 
-18.5761 -1.41092 5.38772 72 20 103 255 
-18.5964 -1.41916 5.19679 72 24 106 255 
-18.6377 -1.42194 5.01897 72 23 105 255 
-18.6105 -1.40726 4.84412 72 22 104 255 
-18.579 -1.40788 4.63864 72 26 108 255 
-18.5869 -1.40538 4.45098 71 13 96 255 
-18.6119 -1.40366 4.27479 71 14 97 255 
-18.5904 -1.409 4.11274 71 14 97 255 
-18.5779 -1.40454 3.91596 71 19 101 255 
-18.5188 -1.39048 3.72094 72 23 105 255 
-18.4049 -1.37515 3.52071 64 70 136 255 
-18.4045 -1.39491 3.36757 60 79 138 255 
-18.3775 -1.38616 3.18004 59 82 139 255 
-18.3785 -1.37349 2.99817 59 81 139 255 
-18.3627 -1.35591 2.82411 61 77 138 255 
-18.3783 -1.3897 2.67562 59 81 139 255 
-18.3828 -1.38334 2.49576 58 83 139 255 
-18.3565 -1.36219 2.31554 61 78 138 255 
-18.3677 -1.34984 2.14724 63 71 136 255 
-18.3745 -1.38941 1.99855 62 73 137 255 
-18.3659 -1.37239 1.82204 61 78 138 255 
-18.3553 -1.35888 1.64589 59 81 139 255 
-18.3592 -1.33957 1.47461 63 72 137 255 
-18.3659 -1.38554 1.32992 59 82 139 255 
-18.327 -1.36627 1.15302 60 79 138 255 
-18.8234 -1.38363 1.00567 69 4 87 255 
-0 -0 0 68 1 84 255 
-33.775 -2.53618 1.21828 70 11 94 255 
-33.7832 -2.50667 0.898909 70 11 94 255 
-33.7385 -2.47405 0.578676 70 11 94 255 
-36.3092 -2.62383 0.285921 69 4 87 255 
-36.2813 -2.71802 -0.00635003 69 4 87 255 
-36.7472 -2.7137 -0.35372 70 11 94 255 
-36.1783 -2.64027 -0.68384 70 7 90 255 
-18.3752 -1.32142 -0.521027 71 19 101 255 
-18.3611 -1.36588 -0.668697 72 24 106 255 
-18.3285 -1.34708 -0.83775 72 23 105 255 
-18.3118 -1.33317 -1.01042 72 22 104 255 
-18.3307 -1.31501 -1.18522 72 20 103 255 
-18.2567 -1.35491 -1.32831 71 42 122 255 
-17.8166 -1.30322 -1.46243 72 33 115 255 
-17.7565 -1.2834 -1.62645 72 31 112 255 
-15.6323 -1.12143 -1.5809 72 27 109 255 
-14.0901 -1.03828 -1.53982 72 35 116 255 
-12.6773 -0.92507 -1.5067 72 36 117 255 
-11.5692 -0.834164 -1.48589 72 41 121 255 
-10.6156 -0.757819 -1.46542 72 41 121 255 
-9.79659 -0.716748 -1.43474 70 52 128 255 
-9.1102 -0.66158 -1.42058 66 64 134 255 
-8.5372 -0.614054 -1.41237 68 58 131 255 
-8.02153 -0.572637 -1.40644 67 62 133 255 
-7.56939 -0.548495 -1.39289 64 69 136 255 
-7.11988 -0.513297 -1.37722 62 74 137 255 
-6.78485 -0.488013 -1.38025 65 68 135 255 
-6.39957 -0.45797 -1.36726 66 64 134 255 
-6.08589 -0.437799 -1.35381 63 71 136 255 
-5.77976 -0.414655 -1.34205 65 68 135 255 
-5.52046 -0.395132 -1.33793 67 62 133 255 
-5.23888 -0.376744 -1.32516 64 69 136 255 
-5.06461 -0.359897 -1.32729 62 73 137 255 
-4.9039 -0.348378 -1.33388 65 66 135 255 
-4.70333 -0.33582 -1.32896 66 64 134 255 
-4.52738 -0.327164 -1.32993 67 61 132 255 
-18.6381 -1.28459 5.61206 72 22 104 255 
-18.5978 -1.29785 5.39161 72 24 106 255 
-18.5952 -1.30435 5.19411 72 26 108 255 
-18.6105 -1.30505 5.00938 72 20 103 255 
-18.6081 -1.2923 4.84135 72 23 105 255 
-18.5786 -1.29325 4.63646 72 26 108 255 
-18.5709 -1.28962 4.44517 71 13 96 255 
-18.5589 -1.28519 4.26073 71 16 99 255 
-18.5705 -1.29294 4.1065 71 16 99 255 
-18.5735 -1.28964 3.91329 71 14 97 255 
-18.5045 -1.27527 3.71643 72 35 116 255 
-18.365 -1.2589 3.51153 62 74 137 255 
-18.3892 -1.28031 3.36327 59 81 139 255 
-18.365 -1.27194 3.17647 61 78 138 255 
-18.359 -1.25881 2.99367 60 79 138 255 
-18.3736 -1.24341 2.82457 61 77 138 255 
-18.3648 -1.2754 2.67246 61 78 138 255 
-18.3692 -1.26901 2.49281 59 81 139 255 
-18.3476 -1.24838 2.31342 61 78 138 255 
-18.3568 -1.23585 2.14504 62 73 137 255 
-18.3747 -1.27609 1.99769 61 77 138 255 
-18.3561 -1.25845 1.82027 62 76 138 255 
-18.3494 -1.24529 1.64464 62 74 137 255 
-18.3711 -1.22716 1.47493 64 70 136 255 
-18.3342 -1.27007 1.32703 61 78 138 255 
-18.3341 -1.25372 1.15295 58 83 139 255 
-18.8037 -1.26623 1.00418 69 4 87 255 
-0 -0 0 68 1 84 255 
-33.77 -2.32752 1.21756 70 11 94 255 
-33.769 -2.29736 0.89814 71 13 96 255 
-33.6722 -2.26156 0.577291 70 11 94 255 
-36.3486 -2.40257 0.28611 69 4 87 255 
-36.444 -2.50544 -0.00637569 69 4 87 255 
-36.7702 -2.48864 -0.353787 71 16 99 255 
-36.1849 -2.41764 -0.683671 69 5 89 255 
-18.35 -1.20648 -0.520094 71 14 97 255 
-18.3462 -1.25162 -0.667862 72 24 106 255 
-18.3523 -1.23567 -0.838479 72 24 106 255 
-18.3246 -1.22112 -1.0107 72 22 104 255 
-18.3026 -1.20016 -1.1829 71 19 101 255 
-18.2696 -1.2432 -1.32867 72 38 119 255 
-17.8283 -1.19414 -1.46276 72 35 116 255 
-17.6955 -1.16989 -1.62018 72 23 105 255 
-15.6409 -1.02562 -1.5811 72 27 109 255 
-14.0853 -0.951071 -1.53863 72 31 112 255 
-12.6788 -0.847001 -1.50623 72 37 118 255 
-11.5612 -0.762313 -1.48424 72 36 117 255 
-10.625 -0.692991 -1.4661 71 47 125 255 
-9.80278 -0.656756 -1.43503 70 52 128 255 
-9.10522 -0.605079 -1.4192 66 64 134 255 
-8.51029 -0.559652 -1.40732 65 66 135 255 
-8.00622 -0.522189 -1.40316 65 68 135 255 
-7.55691 -0.500999 -1.39 62 74 137 255 
-7.11898 -0.469342 -1.37646 67 61 132 255 
-6.76034 -0.444572 -1.37468 63 72 137 255 
-6.39445 -0.418184 -1.36559 67 61 132 255 
-6.08651 -0.400321 -1.35338 65 66 135 255 
-5.77345 -0.37861 -1.34002 67 61 132 255 
-5.51405 -0.360681 -1.33582 67 62 133 255 
-5.2411 -0.344592 -1.32516 68 57 131 255 
-5.09183 -0.330443 -1.33387 62 76 138 255 
-4.90498 -0.31822 -1.33361 64 69 136 255 
-4.72355 -0.308145 -1.33412 68 58 131 255 
-4.53313 -0.299631 -1.33106 68 59 132 255 
-18.5969 -1.16714 5.59739 72 24 106 255 
-18.5987 -1.18328 5.38966 72 22 104 255 
-18.5461 -1.1866 5.17827 72 24 106 255 
-18.6094 -1.19028 5.00704 72 22 104 255 
-18.5452 -1.17364 4.82301 72 24 106 255 
-18.5881 -1.17935 4.63695 72 26 108 255 
-18.5746 -1.1754 4.44424 71 17 100 255 
-18.5401 -1.16963 4.2547 71 16 99 255 
-18.5771 -1.1789 4.10628 71 17 100 255 
-18.5674 -1.17478 3.91041 71 17 100 255 
-18.416 -1.15569 3.69717 69 55 129 255 
-18.3547 -1.14509 3.50815 63 71 136 255 
-18.3653 -1.16546 3.35752 61 77 138 255 
-18.3685 -1.15898 3.17579 61 77 138 255 
-18.3733 -1.14657 2.9948 58 84 140 255 
-18.3631 -1.12955 2.82184 62 76 138 255 
-18.3604 -1.16194 2.67074 60 79 138 255 
-18.3737 -1.15609 2.49241 59 81 139 255 
-18.3302 -1.13425 2.3103 60 79 138 255 
-18.3155 -1.12022 2.13936 61 77 138 255 
-18.3425 -1.16081 1.99338 60 80 139 255 
-18.3466 -1.14474 1.81859 60 79 138 255 
-18.314 -1.13004 1.64081 62 76 138 255 
-18.3126 -1.11043 1.46966 62 74 137 255 
-18.3218 -1.15629 1.32559 63 72 137 255 
-18.3424 -1.14127 1.15302 53 95 141 255 
-18.3616 -1.12333 0.980187 72 20 103 255 
-18.362 -1.107 0.806374 72 31 112 255 
-33.7258 -2.11664 1.21548 71 13 96 255 
-33.7466 -2.08789 0.897185 70 11 94 255 
-33.6625 -2.05351 0.576897 70 11 94 255 
-18.2946 -1.09654 0.143946 72 22 104 255 
-36.297 -2.27166 -0.00634741 69 4 87 255 
-36.8147 -2.26482 -0.354075 71 13 96 255 
-36.1481 -2.19248 -0.682709 69 5 89 255 
-18.3301 -1.09226 -0.51933 72 24 106 255 
-18.3376 -1.13804 -0.667281 72 23 105 255 
-18.3586 -1.12298 -0.838434 72 24 106 255 
-18.2839 -1.10576 -1.00806 72 22 104 255 
-18.3305 -1.08907 -1.18425 72 24 106 255 
-18.262 -1.13015 -1.32759 71 46 124 255 
-17.7676 -1.08061 -1.45721 71 46 124 255 
-17.7232 -1.06254 -1.62209 72 26 108 255 
-15.5922 -0.926383 -1.57558 72 24 106 255 
-14.0552 -0.862435 -1.53473 72 32 113 255 
-12.6213 -0.765402 -1.49881 72 36 117 255 
-11.531 -0.689288 -1.47979 72 37 118 255 
-10.6092 -0.626616 -1.46338 71 44 122 255 
-9.79477 -0.595874 -1.43329 69 53 129 255 
-9.1058 -0.54902 -1.41873 67 61 132 255 
-8.51454 -0.507482 -1.40749 66 63 133 255 
-7.97977 -0.471311 -1.39799 65 66 135 255 
-7.53824 -0.453322 -1.38603 66 65 134 255 
-7.13643 -0.42653 -1.3793 62 74 137 255 
-6.76783 -0.403375 -1.37568 61 77 138 255 
-6.41056 -0.37975 -1.36851 68 59 132 255 
-6.09275 -0.363199 -1.35425 66 64 134 255 
-5.76497 -0.342542 -1.33754 65 68 135 255 
-5.5016 -0.325978 -1.33229 68 59 132 255 
-5.26247 -0.31358 -1.33006 66 65 134 255 
-5.07927 -0.298343 -1.33007 62 73 137 255 
-4.89432 -0.287382 -1.33021 66 63 133 255 
-4.71574 -0.278589 -1.33141 69 56 130 255 
-4.53105 -0.271581 -1.32993 67 61 132 255 
-18.5788 -1.05161 5.58991 72 20 103 255 
-18.5912 -1.06831 5.3855 72 24 106 255 
-18.5704 -1.07378 5.1831 72 26 108 255 
-18.5701 -1.0734 4.9946 71 17 100 255 
-18.5549 -1.05999 4.82377 72 26 108 255 
-18.5591 -1.06322 4.62801 72 28 110 255 
-18.5358 -1.0588 4.43333 71 14 97 255 
-18.5567 -1.0564 4.25693 71 16 99 255 
-18.583 -1.06484 4.10607 71 16 99 255 
-18.5615 -1.06011 3.90773 71 16 99 255 
-18.4218 -1.04261 3.69698 65 68 135 255 
-18.3467 -1.03162 3.50534 63 72 137 255 
-18.3387 -1.05084 3.35142 60 80 139 255 
-18.3575 -1.04524 3.17273 60 79 138 255 
-18.3671 -1.03309 2.99271 60 79 138 255 
-18.349 -1.01571 2.81866 62 76 138 255 
-18.3386 -1.04763 2.66657 61 77 138 255 
-18.327 -1.0403 2.48516 59 81 139 255 
-18.3299 -1.02137 2.30943 58 83 139 255 
-18.3151 -1.00743 2.13855 65 66 135 255 
-18.3285 -1.04705 1.99111 62 74 137 255 
-18.3364 -1.0312 1.81692 58 83 139 255 
-18.3056 -1.01681 1.63948 60 79 138 255 
-18.2982 -0.996905 1.46798 62 73 137 255 
-18.3166 -1.04317 1.32473 60 80 139 255 
-18.3411 -1.02825 1.15252 59 82 139 255 
-18.4668 -1.01607 0.985454 72 22 104 255 
-18.3894 -0.995447 0.807294 54 93 141 255 
-18.3567 -1.03904 0.661335 58 83 139 255 
-18.385 -1.02428 0.488607 51 98 141 255 
-18.3967 -1.00899 0.315164 51 99 141 255 
-18.3769 -0.988345 0.144543 53 94 141 255 
-18.3498 -1.03544 -0.00320774 56 89 140 255 
-18.361 -1.01651 -0.176529 54 92 141 255 
-18.3595 -1.00052 -0.346623 56 89 140 255 
-18.3225 -0.979017 -0.518935 55 91 141 255 
-18.3113 -1.02366 -0.666084 58 83 139 255 
-18.3601 -1.01004 -0.838206 52 97 141 255 
-18.3232 -0.995341 -1.00987 58 83 139 255 
-18.3289 -0.976154 -1.18374 56 88 140 255 
-18.2367 -1.0163 -1.32527 71 45 123 255 
-17.8117 -0.973634 -1.46031 72 36 117 255 
-17.7095 -0.952706 -1.62027 72 26 108 255 
-15.542 -0.82773 -1.56996 72 23 105 255 
-14.0404 -0.775082 -1.53256 72 35 116 255 
-12.6436 -0.688918 -1.50093 72 37 118 255 
-11.5004 -0.616664 -1.47535 72 36 117 255 
-10.6069 -0.561193 -1.46256 71 42 122 255 
-9.77354 -0.534412 -1.42968 70 52 128 255 
-9.1011 -0.49271 -1.4175 64 69 136 255 
-8.51454 -0.45507 -1.407 67 62 133 255 
-7.96677 -0.421507 -1.39524 64 69 136 255 
-7.52812 -0.406371 -1.38368 65 68 135 255 
-7.14773 -0.383207 -1.381 64 69 136 255 
-6.75843 -0.361213 -1.37329 62 74 137 255 
-6.40984 -0.340253 -1.36789 66 63 133 255 
-6.10071 -0.326121 -1.35555 68 59 132 255 
-5.76404 -0.307007 -1.33687 66 63 133 255 
-5.5035 -0.292215 -1.33229 66 65 134 255 
-5.25558 -0.280819 -1.32785 67 62 133 255 
-5.0839 -0.267324 -1.33083 63 71 136 255 
-4.88828 -0.25694 -1.32811 68 59 132 255 
-4.67507 -0.24741 -1.31947 68 59 132 255 
-4.53072 -0.243671 -1.32937 69 55 129 255 
-18.584 -0.93754 5.58962 71 19 101 255 
-18.5485 -0.95171 5.37133 72 23 105 255 
-18.5487 -0.958373 5.17532 72 24 106 255 
-18.5542 -0.95829 4.98863 72 20 103 255 
-18.5408 -0.945082 4.81849 72 24 106 255 
-18.5382 -0.947937 4.62124 72 35 116 255 
-18.6022 -0.948118 4.44773 71 14 97 255 
-18.5589 -0.942324 4.25604 71 14 97 255 
-18.5697 -0.949799 4.10176 70 11 94 255 
-18.5559 -0.945598 3.90526 71 13 96 255 
-18.4523 -0.930796 3.70189 60 80 139 255 
-18.3399 -0.918387 3.50291 63 72 137 255 
-18.333 -0.937693 3.34927 60 79 138 255 
-18.3449 -0.931635 3.1695 59 82 139 255 
-18.3564 -0.919533 2.98998 59 82 139 255 
-18.3194 -0.901357 2.8132 63 72 137 255 
-18.3209 -0.933874 2.66312 59 81 139 255 
-18.3242 -0.927375 2.48396 57 85 140 255 
-18.319 -0.908045 2.30731 58 83 139 255 
-18.308 -0.894402 2.13705 61 77 138 255 
-18.3087 -0.933252 1.98831 61 78 138 255 
-18.3175 -0.917424 1.81446 58 83 139 255 
-18.2906 -0.903441 1.63761 62 76 138 255 
-18.299 -0.88437 1.46758 61 77 138 255 
-18.3107 -0.930151 1.32387 61 77 138 255 
-18.2922 -0.912958 1.14907 59 82 139 255 
-0 -0 0 68 2 86 255 
-18.3762 -0.881683 0.806462 59 81 139 255 
-18.3428 -0.925374 0.660616 69 56 130 255 
-18.3251 -0.908185 0.486856 71 42 122 255 
-18.3066 -0.891422 0.313522 72 24 106 255 
-18.3616 -0.874569 0.144378 70 11 94 255 
-18.3428 -0.922171 -0.00320547 66 64 134 255 
-18.321 -0.901574 -0.176087 71 47 125 255 
-18.2934 -0.884378 -0.345266 67 61 132 255 
-18.2863 -0.864591 -0.517747 72 35 116 255 
-18.3302 -0.91193 -0.666555 60 79 138 255 
-18.3101 -0.894633 -0.835656 66 63 133 255 
-18.2791 -0.880491 -1.00713 71 47 125 255 
-18.2737 -0.860807 -1.17981 72 41 121 255 
-18.2376 -0.904135 -1.32491 71 45 123 255 
-17.7626 -0.861669 -1.45582 72 29 111 255 
-17.6961 -0.843124 -1.61854 72 22 104 255 
-15.5319 -0.731649 -1.56845 72 24 106 255 
-14.0379 -0.688576 -1.5318 72 33 115 255 
-12.6724 -0.612524 -1.50387 72 36 117 255 
-11.5 -0.545899 -1.47484 72 37 118 255 
-10.6221 -0.496655 -1.4642 71 45 123 255 
-9.79541 -0.475344 -1.43243 68 59 132 255 
-9.101 -0.436716 -1.41704 66 65 134 255 
-8.53886 -0.403843 -1.41058 65 68 135 255 
-7.97511 -0.372892 -1.39627 62 73 137 255 
-7.52359 -0.359843 -1.38242 63 72 137 255 
-7.11562 -0.337713 -1.37437 65 66 135 255 
-6.76542 -0.319968 -1.37429 61 77 138 255 
-6.41376 -0.301008 -1.3683 65 68 135 255 
-6.0987 -0.288497 -1.35468 64 70 136 255 
-5.78528 -0.27255 -1.34138 65 66 135 255 
-5.51393 -0.258851 -1.33441 66 65 134 255 
-5.2572 -0.248566 -1.32785 64 69 136 255 
-5.08931 -0.236304 -1.33184 62 73 137 255 
-4.86952 -0.226002 -1.32262 66 63 133 255 
-4.68323 -0.219035 -1.32137 67 61 132 255 
-4.50624 -0.214634 -1.32178 70 50 126 255 
-18.5578 -0.822094 5.58013 71 17 100 255 
-18.5262 -0.836623 5.36327 72 22 104 255 
-18.5427 -0.844017 5.1721 72 23 105 255 
-18.5636 -0.844601 4.98967 72 20 103 255 
-18.5337 -0.830736 4.81523 72 23 105 255 
-18.4971 -0.832078 4.60965 70 52 128 255 
-18.494 -0.828864 4.42055 71 14 97 255 
-18.5459 -0.827605 4.2518 71 13 96 255 
-18.5283 -0.833732 4.09142 71 14 97 255 
-18.5379 -0.830672 3.90033 70 11 94 255 
-18.396 -0.814823 3.68951 59 81 139 255 
-18.3344 -0.805364 3.50085 61 77 138 255 
-18.3296 -0.824788 3.34765 59 81 139 255 
-18.3414 -0.81866 3.16797 60 80 139 255 
-18.3567 -0.806666 2.98918 59 81 139 255 
-18.3097 -0.788297 2.81092 60 79 138 255 
-18.3125 -0.820821 2.66111 58 83 139 255 
-18.3256 -0.814747 2.48342 57 85 140 255 
-18.3232 -0.795582 2.30718 58 83 139 255 
-18.2844 -0.780821 2.13369 64 70 136 255 
-18.2962 -0.820093 1.98637 59 82 139 255 
-18.3109 -0.804489 1.81328 59 81 139 255 
-18.2928 -0.791066 1.63734 61 78 138 255 
-18.2851 -0.771275 1.46606 62 74 137 255 
-18.2881 -0.816536 1.32185 61 78 138 255 
-18.2686 -0.799436 1.14726 58 84 140 255 
-28.0695 -1.19913 1.49699 69 4 87 255 
-18.3693 -0.768412 0.805936 60 79 138 255 
-33.5464 -1.48608 1.20782 70 10 93 255 
-33.6255 -1.4597 0.8931 70 7 90 255 
-33.4758 -1.42424 0.573152 70 7 90 255 
-0 -0 0 68 2 86 255 
-36.2657 -1.60021 -0.00633572 69 4 87 255 
-36.7073 -1.58065 -0.352702 70 10 93 255 
-18.2795 -0.771314 -0.344908 71 44 122 255 
-18.2952 -0.752537 -0.51786 71 16 99 255 
-18.3455 -0.799876 -0.666918 71 19 101 255 
-18.3332 -0.783035 -0.836475 71 19 101 255 
-18.2642 -0.767477 -1.00603 71 14 97 255 
-18.2358 -0.74691 -1.17705 71 17 100 255 
-18.2029 -0.790483 -1.32202 71 46 124 255 
-17.7477 -0.751819 -1.45419 72 29 111 255 
-17.695 -0.734279 -1.61799 72 31 112 255 
-15.5619 -0.637392 -1.57106 72 24 106 255 
-14.0071 -0.600937 -1.52801 72 27 109 255 
-12.6293 -0.532789 -1.49834 72 38 119 255 
-11.5051 -0.475408 -1.47509 72 40 120 255 
-10.6031 -0.430586 -1.46119 72 41 121 255 
-9.79815 -0.415232 -1.43243 70 52 128 255 
-9.11535 -0.381361 -1.41889 64 69 136 255 
-8.55005 -0.351807 -1.41205 59 82 139 255 
-7.97528 -0.32387 -1.39593 64 69 136 255 
-7.53155 -0.313918 -1.3835 63 71 136 255 
-7.11364 -0.293884 -1.37362 62 73 137 255 
-6.77998 -0.278974 -1.37687 62 76 138 255 
-6.39497 -0.260812 -1.36393 67 61 132 255 
-6.07792 -0.250147 -1.3497 66 65 134 255 
-5.79268 -0.237287 -1.34273 64 70 136 255 
-5.50861 -0.224736 -1.33276 64 70 136 255 
-5.26832 -0.216702 -1.3303 66 65 134 255 
-5.0926 -0.20515 -1.33235 61 78 138 255 
-4.85056 -0.195303 -1.31712 66 65 134 255 
-4.70757 -0.191232 -1.32788 66 63 133 255 
-4.51227 -0.187179 -1.32318 69 53 129 255 
-18.5682 -0.70843 5.58186 71 19 101 255 
-18.5473 -0.72357 5.36799 72 20 103 255 
-18.5504 -0.730339 5.1729 72 22 104 255 
-18.5462 -0.729808 4.9837 72 20 103 255 
-18.5307 -0.716701 4.81322 72 22 104 255 
-18.4922 -0.718189 4.60723 66 64 134 255 
-18.4841 -0.714808 4.41707 71 17 100 255 
-18.5262 -0.712857 4.24622 71 13 96 255 
-18.5224 -0.719612 4.08905 70 11 94 255 
-18.5231 -0.716154 3.89621 71 16 99 255 
-18.3791 -0.70111 3.68519 58 84 140 255 
-18.3302 -0.692517 3.49916 62 73 137 255 
-18.3254 -0.711961 3.34604 61 77 138 255 
-18.3274 -0.705383 3.16474 61 77 138 255 
-18.3337 -0.692972 2.98468 58 83 139 255 
-18.3083 -0.675717 2.81001 61 77 138 255 
-18.3013 -0.70783 2.65881 57 85 140 255 
-18.2955 -0.70096 2.47872 59 81 139 255 
-18.2811 -0.681401 2.30132 62 76 138 255 
-18.264 -0.667708 2.13079 64 70 136 255 
-18.284 -0.707161 1.98453 62 74 137 255 
-18.2946 -0.691331 1.81121 62 76 138 255 
-18.2904 -0.67855 1.63672 62 76 138 255 
-18.2467 -0.657522 1.46263 63 71 136 255 
-18.2679 -0.703347 1.32005 58 83 139 255 
-18.2731 -0.687328 1.14726 58 84 140 255 
-0 -0 0 68 2 86 255 
-18.3657 -0.6554 0.805586 54 92 141 255 
-27.0688 -1.03275 0.974353 69 5 89 255 
-18.3458 -0.683649 0.487148 72 32 113 255 
-18.3372 -0.667469 0.313881 72 36 117 255 
-36.2223 -1.27999 0.284672 69 4 87 255 
-0 -0 -0 68 2 86 255 
-0 -0 -0 68 1 84 255 
-18.2889 -0.659319 -0.345002 68 59 132 255 
-18.2835 -0.639706 -0.517408 71 16 99 255 
-18.2611 -0.683966 -0.663688 71 19 101 255 
-18.2928 -0.668887 -0.834426 72 20 103 255 
-18.2606 -0.655109 -1.00559 72 20 103 255 
-18.253 -0.635454 -1.17788 72 20 103 255 
-18.1985 -0.678443 -1.32136 71 46 124 255 
-17.734 -0.642258 -1.45272 72 37 118 255 
-17.6544 -0.624107 -1.6139 72 26 108 255 
-15.5685 -0.541997 -1.57136 72 23 105 255 
-13.9708 -0.513519 -1.52368 72 31 112 255 
-12.6095 -0.454464 -1.49563 72 36 117 255 
-11.5197 -0.405224 -1.47662 72 38 119 255 
-10.5838 -0.364767 -1.45819 72 37 118 255 
-9.7926 -0.354817 -1.43127 68 59 132 255 
-9.10271 -0.324894 -1.41658 66 65 134 255 
-8.49683 -0.297405 -1.40293 60 80 139 255 
-7.97712 -0.274929 -1.39593 69 56 130 255 
-7.54022 -0.267944 -1.38476 62 73 137 255 
-7.1261 -0.25061 -1.3757 61 78 138 255 
-6.77471 -0.237128 -1.37548 58 84 140 255 
-6.40818 -0.221974 -1.36643 66 64 134 255 
-6.09983 -0.213566 -1.35425 66 63 133 255 
-5.79013 -0.201603 -1.34183 63 71 136 255 
-5.51377 -0.191066 -1.3337 66 63 133 255 
-5.25792 -0.183965 -1.32737 64 70 136 255 
-5.07926 -0.173404 -1.32856 61 78 138 255 
-4.84588 -0.16534 -1.31555 66 65 134 255 
-4.70673 -0.162277 -1.32734 68 57 131 255 
-4.53923 -0.160404 -1.33077 68 57 131 255 
-18.5636 -0.594208 5.57927 72 22 104 255 
-18.5763 -0.610573 5.37522 72 26 108 255 
-18.569 -0.616982 5.17693 72 22 104 255 
-18.4992 -0.614298 4.96996 72 22 104 255 
-18.5289 -0.602796 4.81171 72 24 106 255 
-18.4594 -0.603505 4.59805 62 73 137 255 
-18.4823 -0.601189 4.41567 71 13 96 255 
-18.5264 -0.599043 4.24532 70 11 94 255 
-18.5225 -0.60582 4.08819 71 13 96 255 
-18.4763 -0.60083 3.88552 71 13 96 255 
-18.3477 -0.587196 3.67812 60 80 139 255 
-18.3282 -0.579846 3.49803 63 72 137 255 
-18.3285 -0.599472 3.34586 58 83 139 255 
-18.3048 -0.592055 3.16015 60 79 138 255 
-18.2972 -0.579185 2.9781 60 80 139 255 
-18.2953 -0.56285 2.80744 60 79 138 255 
-18.2806 -0.594717 2.65522 59 82 139 255 
-18.2876 -0.588305 2.47711 58 83 139 255 
-18.2731 -0.568847 2.29982 59 81 139 255 
-18.2509 -0.555116 2.12882 62 76 138 255 
-18.286 -0.594894 1.98432 62 76 138 255 
-18.2587 -0.577806 1.80727 60 79 138 255 
-18.2803 -0.565878 1.63547 61 78 138 255 
-18.2414 -0.545282 1.46191 61 77 138 255 
-18.2489 -0.590503 1.31839 60 79 138 255 
-18.263 -0.574753 1.14638 57 86 140 255 
-28.0861 -0.854708 1.4972 69 4 87 255 
-18.3414 -0.541872 0.80436 54 93 141 255 
-27.1206 -0.868111 0.976007 70 7 90 255 
-18.3477 -0.571007 0.487095 72 41 121 255 
-18.3149 -0.554155 0.313437 71 44 122 255 
-35.8516 -1.04668 0.281704 69 5 89 255 
-0 -0 -0 68 2 86 255 
-36.6909 -1.12906 -0.352385 69 4 87 255 
-18.2896 -0.546999 -0.344945 67 62 133 255 
-18.3031 -0.52797 -0.51786 71 17 100 255 
-18.286 -0.572562 -0.66445 72 22 104 255 
-18.2796 -0.556116 -0.833652 72 24 106 255 
-18.2613 -0.542963 -1.00542 71 19 101 255 
-18.2685 -0.523787 -1.17865 71 19 101 255 
-18.2123 -0.567077 -1.32209 72 37 118 255 
-17.7306 -0.533223 -1.45215 72 40 120 255 
-17.5872 -0.513706 -1.60744 72 27 109 255 
-15.5626 -0.446204 -1.57046 72 24 106 255 
-13.925 -0.426296 -1.51837 72 31 112 255 
-12.6329 -0.377708 -1.4981 72 32 113 255 
-11.4982 -0.333842 -1.47357 72 33 115 255 
-10.5918 -0.299988 -1.45901 72 36 117 255 
-9.77778 -0.294218 -1.42881 70 48 126 255 
-9.10749 -0.269122 -1.41704 68 58 131 255 
-8.49257 -0.245093 -1.40195 61 77 138 255 
-7.97964 -0.226005 -1.3961 68 59 132 255 
-7.5368 -0.221528 -1.38386 61 77 138 255 
-7.13339 -0.207051 -1.37684 57 86 140 255 
-6.75743 -0.195017 -1.3717 62 73 137 255 
-6.42408 -0.183068 -1.36955 66 63 133 255 
-6.06589 -0.17512 -1.34645 67 62 133 255 
-5.77958 -0.165737 -1.33912 66 65 134 255 
-5.51873 -0.157341 -1.33464 67 62 133 255 
-5.25217 -0.151504 -1.32565 64 69 136 255 
-5.09087 -0.142533 -1.33134 62 74 137 255 
-4.84777 -0.13563 -1.31581 65 68 135 255 
-4.70379 -0.133285 -1.32625 66 63 133 255 
-4.51998 -0.13196 -1.32487 70 48 126 255 
-18.5324 -0.479401 5.56891 72 26 108 255 
-18.5327 -0.495322 5.3616 72 20 103 255 
-18.5609 -0.50272 5.17371 71 19 101 255 
-18.4968 -0.500621 4.9684 72 23 105 255 
-18.5304 -0.489043 4.81121 72 27 109 255 
-18.4569 -0.490074 4.5966 53 94 141 255 
-18.4798 -0.487618 4.41428 71 13 96 255 
-18.519 -0.485075 4.24287 70 11 94 255 
-18.5239 -0.492104 4.08776 71 13 96 255 
-18.5149 -0.48838 3.89292 71 13 96 255 
-18.3383 -0.474276 3.67556 62 73 137 255 
-18.3117 -0.466875 3.49429 63 71 136 255 
-18.318 -0.486634 3.34334 61 77 138 255 
-18.2953 -0.479392 3.15794 60 79 138 255 
-18.2807 -0.466402 2.97489 61 78 138 255 
-18.2618 -0.449681 2.80183 63 72 137 255 
-18.2938 -0.4828 2.65666 59 82 139 255 
-18.2602 -0.475284 2.47296 59 81 139 255 
-18.2643 -0.456417 2.29832 60 80 139 255 
-18.2778 -0.443699 2.1316 64 70 136 255 
-18.2844 -0.482551 1.98378 61 78 138 255 
-18.2519 -0.465508 1.80629 60 80 139 255 
-18.2386 -0.45259 1.63146 59 82 139 255 
-18.2245 -0.432871 1.46031 62 74 137 255 
-18.2512 -0.478492 1.31832 60 80 139 255 
-18.2503 -0.462278 1.14538 58 83 139 255 
-27.2064 -0.660873 1.45006 72 23 105 255 
-18.3234 -0.428831 0.80344 54 92 141 255 
-27.0784 -0.700471 0.974317 69 4 87 255 
-18.3228 -0.457718 0.486352 71 47 125 255 
-18.272 -0.440657 0.31265 72 41 121 255 
-27.2189 -0.627525 0.213838 71 16 99 255 
-27.224 -0.699489 -0.00475306 70 11 94 255 
-27.2365 -0.670876 -0.261539 71 17 100 255 
-18.2786 -0.434433 -0.344681 65 68 135 255 
-18.303 -0.415587 -0.517775 71 16 99 255 
-18.2931 -0.460451 -0.664595 71 19 101 255 
-18.3006 -0.44438 -0.834472 71 19 101 255 
-18.2583 -0.430762 -1.00509 71 19 101 255 
-18.2494 -0.411189 -1.17724 71 19 101 255 
-18.2044 -0.455044 -1.32129 71 45 123 255 
-17.7445 -0.424682 -1.45305 72 40 120 255 
-17.5522 -0.40491 -1.60398 72 23 105 255 
-15.576 -0.350952 -1.57156 72 27 109 255 
-13.9412 -0.341186 -1.51988 72 36 117 255 
-12.5665 -0.29856 -1.48998 72 38 119 255 
-11.4643 -0.262467 -1.46899 72 29 111 255 
-10.5597 -0.234245 -1.45437 71 42 122 255 
-9.7794 -0.234217 -1.42881 69 55 129 255 
-9.14058 -0.213975 -1.42196 67 62 133 255 
-8.50871 -0.193315 -1.40439 59 82 139 255 
-7.96807 -0.176755 -1.39386 66 64 134 255 
-7.53409 -0.175188 -1.38314 62 73 137 255 
-7.15416 -0.163727 -1.38063 59 82 139 255 
-6.75066 -0.153373 -1.37011 58 83 139 255 
-6.38109 -0.142663 -1.36017 68 59 132 255 
-6.07173 -0.138008 -1.34753 66 63 133 255 
-5.78049 -0.130271 -1.33912 63 71 136 255 
-5.50404 -0.123128 -1.33088 65 66 135 255 
-5.26463 -0.119539 -1.32859 65 66 135 255 
-5.0752 -0.110934 -1.32704 62 73 137 255 
-4.88518 -0.106683 -1.32576 66 63 133 255 
-4.69393 -0.104186 -1.32327 67 61 132 255 
-4.52167 -0.104246 -1.32515 70 52 128 255 
-18.4871 -0.364735 5.55452 72 26 108 255 
-18.4892 -0.380649 5.34827 72 23 105 255 
-18.5549 -0.388642 5.17129 72 23 105 255 
-18.4764 -0.386632 4.96218 72 22 104 255 
-18.503 -0.374726 4.80342 72 22 104 255 
-18.446 -0.376538 4.59322 51 98 141 255 
-18.4805 -0.374179 4.41382 71 13 96 255 
-18.5197 -0.371397 4.24242 71 14 97 255 
-18.4915 -0.377716 4.08 71 13 96 255 
-18.4794 -0.373993 3.8849 70 11 94 255 
-18.3193 -0.36132 3.67124 61 77 138 255 
-18.2858 -0.353956 3.48885 62 74 137 255 
-18.2764 -0.373323 3.33527 59 82 139 255 
-18.2782 -0.36673 3.15454 60 79 138 255 
-18.2792 -0.354148 2.97424 58 83 139 255 
-18.2593 -0.337529 2.80107 61 78 138 255 
-18.2786 -0.370181 2.65407 57 85 140 255 
-18.239 -0.36276 2.46974 59 81 139 255 
-18.2519 -0.34406 2.29645 59 81 139 255 
-18.2672 -0.331306 2.1301 62 73 137 255 
-18.2562 -0.369727 1.98044 63 72 137 255 
-18.2505 -0.35343 1.80589 58 84 140 255 
-18.238 -0.340615 1.63119 61 77 138 255 
-18.2228 -0.32097 1.46 62 73 137 255 
-18.2518 -0.366456 1.31818 61 77 138 255 
-18.2278 -0.349809 1.14381 57 86 140 255 
-27.2399 -0.494469 1.45166 72 27 109 255 
-18.3177 -0.316254 0.80309 52 96 141 255 
-27.1252 -0.535155 0.975863 69 5 89 255 
-27.1096 -0.510796 0.719488 69 5 89 255 
-27.1077 -0.487338 0.463776 69 4 87 255 
-27.2303 -0.460636 0.213901 72 22 104 255 
-27.1988 -0.531866 -0.00474799 72 26 108 255 
-27.0591 -0.500397 -0.259801 72 27 109 255 
-18.2579 -0.321864 -0.344248 65 66 135 255 
-18.2402 -0.302198 -0.515938 72 22 104 255 
-18.2577 -0.347475 -0.663216 72 20 103 255 
-18.262 -0.331339 -0.832605 72 20 103 255 
-18.2466 -0.31848 -1.00432 72 22 104 255 
-18.2197 -0.298682 -1.17518 71 16 99 255 
-18.174 -0.342714 -1.3189 71 42 122 255 
-17.701 -0.31498 -1.44929 72 38 119 255 
-17.5275 -0.296749 -1.60152 71 19 101 255 
-15.5788 -0.255389 -1.57166 72 29 111 255 
-13.9272 -0.255347 -1.51815 72 33 115 255 
-12.5393 -0.220941 -1.48657 72 40 120 255 
-11.4925 -0.192567 -1.47242 72 37 118 255 
-10.5154 -0.168716 -1.4481 71 46 124 255 
-9.76086 -0.173855 -1.42592 68 58 131 255 
-9.12098 -0.157527 -1.41873 68 58 131 255 
-8.51763 -0.141234 -1.4057 63 71 136 255 
-7.9631 -0.127765 -1.39283 67 62 133 255 
-7.52715 -0.128821 -1.38169 62 73 137 255 
-7.13049 -0.119415 -1.37589 62 76 138 255 
-6.75539 -0.112014 -1.37091 58 83 139 255 
-6.36522 -0.103237 -1.35663 67 61 132 255 
-6.07637 -0.100815 -1.3484 65 66 135 255 
-5.77825 -0.0947522 -1.33844 64 70 136 255 
-5.50567 -0.0893695 -1.33112 67 61 132 255 
-5.27108 -0.0873295 -1.33006 62 73 137 255 
-5.07192 -0.0797298 -1.32603 62 73 137 255 
-4.87512 -0.076539 -1.32288 66 64 134 255 
-4.68486 -0.0752281 -1.32055 69 56 130 255 
-4.52894 -0.076613 -1.32712 69 55 129 255 
-18.422 -0.250382 5.53439 65 66 135 255 
-18.4192 -0.266153 5.32743 68 58 131 255 
-18.4106 -0.272616 5.13049 70 52 128 255 
-18.4262 -0.272485 4.94818 72 38 119 255 
-18.4353 -0.260203 4.78533 68 57 131 255 
-18.4499 -0.263376 4.5937 52 96 141 255 
-18.3862 -0.259419 4.39082 72 36 117 255 
-18.3462 -0.255314 4.20224 72 27 109 255 
-18.3763 -0.262573 4.05415 72 31 112 255 
-18.3815 -0.259192 3.86392 72 23 105 255 
-18.2858 -0.248429 3.66417 60 80 139 255 
-18.2758 -0.241594 3.4866 64 69 136 255 
-18.2577 -0.260879 3.3315 61 77 138 255 
-18.2604 -0.254296 3.15114 60 80 139 255 
-18.2643 -0.24176 2.97151 58 83 139 255 
-18.2512 -0.225363 2.79955 62 73 137 255 
-18.2301 -0.257307 2.64675 58 83 139 255 
-18.2448 -0.250895 2.47027 57 86 140 255 
-18.2497 -0.232012 2.29595 59 82 139 255 
-18.2491 -0.218976 2.12778 63 72 137 255 
-18.2372 -0.257407 1.97817 62 73 137 255 
-18.2254 -0.241086 1.80324 62 74 137 255 
-18.2189 -0.22844 1.62932 60 80 139 255 
-18.2224 -0.209128 1.45984 62 73 137 255 
-18.2258 -0.254069 1.31616 58 84 140 255 
-18.2106 -0.237712 1.14262 55 91 141 255 
-27.3083 -0.328111 1.45517 71 14 97 255 
-18.3133 -0.203787 0.802827 53 95 141 255 
-27.1359 -0.368817 0.976151 69 4 87 255 
-27.1193 -0.344533 0.719674 69 5 89 255 
-18.1831 -0.215298 0.311059 70 10 93 255 
-18.1574 -0.195722 0.142619 72 22 104 255 
-27.1706 -0.364551 -0.00474258 71 19 101 255 
-27.1837 -0.335863 -0.260972 71 17 100 255 
-18.2705 -0.209956 -0.344455 63 71 136 255 
-18.2117 -0.189959 -0.51509 72 28 110 255 
-18.2994 -0.235957 -0.664668 72 20 103 255 
-18.2407 -0.219003 -0.831557 72 23 105 255 
-18.2203 -0.206198 -1.00279 72 24 106 255 
-18.2132 -0.1868 -1.17466 72 23 105 255 
-18.1279 -0.230585 -1.31543 70 48 126 255 
-17.6876 -0.206188 -1.44807 71 42 122 255 
-17.4573 -0.188423 -1.59497 72 28 110 255 
-15.4955 -0.158927 -1.56313 72 32 113 255 
-13.8698 -0.169171 -1.51176 72 33 115 255 
-12.5255 -0.143826 -1.4848 71 46 124 255 
-11.4369 -0.121447 -1.46518 72 40 120 255 
-10.5093 -0.104123 -1.44714 71 44 122 255 
-9.73998 -0.113706 -1.42274 70 48 126 255 
-9.06743 -0.100953 -1.41028 68 58 131 255 
-8.52228 -0.0890095 -1.40635 62 76 138 255 
-7.97851 -0.0790486 -1.39541 65 68 135 255 
-7.51797 -0.0825252 -1.37989 59 81 139 255 
-7.11734 -0.0755155 -1.37324 64 70 136 255 
-6.75693 -0.0705716 -1.3711 60 79 138 255 
-6.36573 -0.0641793 -1.35663 66 65 134 255 
-6.07395 -0.0634985 -1.34775 67 62 133 255 
-5.77873 -0.0592958 -1.33844 59 82 139 255 
-5.48376 -0.05536 -1.32571 68 59 132 255 
-5.27443 -0.0550155 -1.33079 63 71 136 255 
-5.05683 -0.0484593 -1.32198 63 71 136 255 
-4.86103 -0.046486 -1.31895 63 71 136 255 
-4.68331 -0.0464619 -1.32001 70 52 128 255 
-4.51973 -0.0487191 -1.32431 69 56 130 255 
-18.4241 -0.137349 5.53467 72 24 106 255 
-18.4675 -0.153521 5.34104 72 24 106 255 
-18.4408 -0.159896 5.13855 72 23 105 255 
-18.4295 -0.159435 4.94869 72 23 105 255 
-18.4365 -0.147081 4.78533 72 26 108 255 
-18.4191 -0.149904 4.58573 53 95 141 255 
-18.4215 -0.14687 4.39895 72 23 105 255 
-18.3503 -0.142762 4.20291 72 22 104 255 
-18.3385 -0.149495 4.04553 72 27 109 255 
-18.3798 -0.146377 3.8633 72 28 110 255 
-18.2723 -0.136115 3.66122 61 78 138 255 
-18.2583 -0.129319 3.48304 63 71 136 255 
-18.256 -0.148823 3.33096 60 79 138 255 
-18.2517 -0.142171 3.14943 60 80 139 255 
-18.2457 -0.129548 2.9683 59 82 139 255 
-18.2463 -0.113335 2.79864 61 78 138 255 
-18.2323 -0.145452 2.64689 59 82 139 255 
-18.2311 -0.138829 2.46826 59 81 139 255 
-18.2289 -0.119886 2.2932 62 76 138 255 
-18.2362 -0.106916 2.12616 62 74 137 255 
-18.2345 -0.145469 1.97774 61 78 138 255 
-18.2186 -0.129195 1.80245 59 82 139 255 
-18.2249 -0.116679 1.62977 61 78 138 255 
-18.2084 -0.0972335 1.45864 60 80 139 255 
-18.208 -0.142085 1.31479 60 80 139 255 
-18.1978 -0.125872 1.14175 57 86 140 255 
-28.2125 -0.165851 1.50327 70 8 92 255 
-18.3062 -0.0913748 0.802477 53 94 141 255 
-18.3126 -0.136518 0.658711 49 104 142 255 
-18.2842 -0.120088 0.485185 50 101 142 255 
-18.263 -0.104175 0.312411 51 99 141 255 
-18.2652 -0.0848037 0.143459 51 99 141 255 
-18.2805 -0.133092 -0.00319064 51 99 141 255 
-18.2618 -0.113567 -0.17531 49 103 142 255 
-18.2685 -0.0978299 -0.344399 50 102 142 255 
-18.2365 -0.0783137 -0.515768 53 94 141 255 
-18.2585 -0.123386 -0.663144 55 91 141 255 
-18.2467 -0.107105 -0.831785 54 93 141 255 
-18.2382 -0.0944847 -1.00372 54 93 141 255 
-18.225 -0.0750877 -1.17537 54 93 141 255 
-18.1449 -0.119455 -1.31659 70 48 126 255 
-17.6666 -0.0975341 -1.44628 72 37 118 255 
-17.3914 -0.0809929 -1.58888 72 23 105 255 
-15.5131 -0.0639148 -1.56484 72 31 112 255 
-13.8458 -0.0839135 -1.50905 72 33 115 255 
-12.5291 -0.0669844 -1.48516 71 46 124 255 
-11.4146 -0.0511667 -1.46226 71 44 122 255 
-10.4969 -0.0395886 -1.44537 71 42 122 255 
-9.70883 -0.0537654 -1.41812 70 51 127 255 
-9.06886 -0.0453198 -1.41044 67 61 132 255 
-8.4832 -0.036546 -1.39983 63 72 137 255 
-7.98869 -0.0301291 -1.39713 64 70 136 255 
-7.49079 -0.0362609 -1.37483 63 71 136 255 
-7.11472 -0.0318297 -1.37267 63 72 137 255 
-6.75136 -0.0290852 -1.36991 60 79 138 255 
-6.37187 -0.0251418 -1.35788 66 64 134 255 
-6.06641 -0.0261946 -1.34601 66 65 134 255 
-5.77021 -0.0238009 -1.33641 59 81 139 255 
-5.46747 -0.0216458 -1.32172 69 56 130 255 
-5.27563 -0.0226553 -1.33103 64 70 136 255 
-5.06671 -0.0174636 -1.32451 62 73 137 255 
-4.87666 -0.0167113 -1.32314 64 69 136 255 
-4.6835 -0.0177248 -1.32001 68 57 131 255 
-4.50171 -0.020901 -1.31896 68 57 131 255 
-18.4697 -0.0243573 5.54819 72 22 104 255 
-18.4557 -0.0401765 5.33743 72 22 104 255 
-18.4722 -0.0468208 5.14714 72 24 106 255 
-18.4272 -0.0463438 4.94792 72 24 106 255 
-18.4332 -0.033947 4.78432 72 24 106 255 
-18.4052 -0.0368547 4.58211 57 85 140 255 
-18.4075 -0.0338084 4.39547 71 16 99 255 
-18.3742 -0.0302023 4.20826 71 13 96 255 
-18.3849 -0.0370623 4.05566 72 20 103 255 
-18.396 -0.0336261 3.86659 71 16 99 255 
-18.2414 -0.0239542 3.65493 62 73 137 255 
-18.2362 -0.0172644 3.47873 62 73 137 255 
-18.2458 -0.0367817 3.32898 63 72 137 255 
-18.2483 -0.0301716 3.14875 57 86 140 255 
-18.2353 -0.017582 2.96654 59 81 139 255 
-18.2367 -0.00137517 2.79713 60 79 138 255 
-18.2319 -0.0335762 2.64675 58 84 140 255 
-18.2257 -0.0269537 2.46745 57 85 140 255 
-18.2184 -0.00802831 2.29183 59 82 139 255 
-18.2206 0.00497656 2.12431 65 66 135 255 
-18.2211 -0.0335564 1.97623 59 81 139 255 
-18.2121 -0.0173992 1.80176 57 85 140 255 
-18.1854 -0.00484038 1.62621 59 81 139 255 
-18.1877 0.0144764 1.45696 62 74 137 255 
-18.1936 -0.0303349 1.31371 60 80 139 255 
-18.2012 -0.0142125 1.14193 54 93 141 255 
-28.2879 0.00727966 1.50726 70 8 92 255 
-18.2854 0.0209276 0.801557 51 99 141 255 
-18.2382 -0.0240521 0.656015 70 52 128 255 
-18.2046 -0.00786159 0.483063 72 32 113 255 
-18.2003 0.00785975 0.311333 71 13 96 255 
-18.2454 0.0272414 0.143302 70 7 90 255 
-18.228 -0.0208619 -0.00318139 66 65 134 255 
-18.1982 -0.0015075 -0.174695 70 48 126 255 
-18.2518 0.014252 -0.344078 59 81 139 255 
-18.1957 0.0335096 -0.514609 72 32 113 255 
-18.228 -0.0113318 -0.662019 62 73 137 255 
