ply
format ascii 1.0
comment VTK generated PLY File
obj_info vtkPolyData points and polygons: vtk4.0
element vertex 1234
property float x
property float y
property float z
property uchar red
property uchar green
property uchar blue
property uchar alpha
element face 0
property list uchar int vertex_indices
end_header
10.2242 17.5602 0.539192 72 41 121 255 
10.3166 17.6837 0.350209 72 35 116 255 
10.1992 17.44 0.15868 72 33 115 255 
10.1756 17.5054 -0.00353394 72 31 112 255 
10.3825 17.8178 -0.197964 72 37 118 255 
7.19989 12.3314 -0.269193 66 63 133 255 
6.93012 11.8405 -0.388014 69 53 129 255 
5.82092 10.0018 -0.420295 65 68 135 255 
5.83312 10.0024 -0.527823 62 74 137 255 
5.61667 9.61597 -0.612859 61 78 138 255 
5.55966 9.49523 -0.709613 56 88 140 255 
5.48754 9.42523 -0.791342 58 83 139 255 
5.40772 9.26547 -0.878241 63 72 137 255 
5.03124 8.60335 -0.91053 66 64 134 255 
4.69498 8.01846 -0.937278 62 73 137 255 
4.39261 7.53554 -0.950631 61 78 138 255 
4.14842 7.10498 -0.975233 62 76 138 255 
3.87475 6.62312 -0.982972 55 90 140 255 
3.6918 6.30011 -1.00546 56 89 140 255 
3.49184 5.98308 -1.01185 56 88 140 255 
3.30275 5.65207 -1.0181 60 79 138 255 
3.13978 5.36468 -1.0257 60 79 138 255 
2.98265 5.08994 -1.03174 55 90 140 255 
2.86056 4.89358 -1.04033 59 82 139 255 
2.73549 4.67569 -1.04513 58 84 140 255 
2.61276 4.46421 -1.04956 59 81 139 255 
2.52157 4.30483 -1.06317 61 77 138 255 
2.4281 4.14879 -1.06659 60 79 138 255 
2.33177 3.98242 -1.06882 62 76 138 255 
2.22937 3.80609 -1.06631 62 74 137 255 
2.16483 3.69875 -1.08127 61 78 138 255 
2.10252 3.58532 -1.08652 61 77 138 255 
2.04274 3.48321 -1.09559 62 74 137 255 
1.9664 3.35578 -1.09621 64 69 136 255 
1.8894 3.23075 -1.09656 65 66 135 255 
5.34659 9.07295 3.16349 65 66 135 255 
4.4049 7.48962 2.51286 72 41 121 255 
4.40664 7.49873 2.42352 57 86 140 255 
5.33958 9.08588 2.82975 53 94 141 255 
7.80652 13.2632 3.99447 72 38 119 255 
9.38357 15.9485 4.60675 72 33 115 255 
6.05522 10.2876 2.85049 64 69 136 255 
5.32099 9.03622 2.40172 63 71 136 255 
5.33813 9.07305 2.3222 58 83 139 255 
5.19889 8.83259 2.15421 72 36 117 255 
5.19111 8.809 2.04868 58 84 140 255 
5.15784 8.7452 1.93677 70 7 90 255 
5.14822 8.75026 1.85233 50 102 142 255 
11.6409 19.7693 3.95864 72 28 110 255 
10.0562 17.0512 3.2204 72 35 116 255 
6.47061 10.9492 1.95071 72 22 104 255 
6.14576 10.4416 1.75889 53 95 141 255 
6.1005 10.3561 1.62722 47 107 142 255 
15.1378 25.6367 3.74529 72 24 106 255 
6.63805 11.2236 1.52027 72 23 105 255 
17.5103 29.7499 3.74404 71 16 99 255 
17.5296 29.7223 3.4138 71 14 97 255 
15.4674 26.1845 2.71952 70 8 92 255 
16.1229 27.2281 2.53487 71 19 101 255 
16.2182 27.5436 2.30802 71 13 96 255 
0 0 0 69 4 87 255 
0 0 0 68 2 86 255 
0 0 0 68 2 86 255 
0 0 0 69 4 87 255 
10.5478 17.863 0.550465 72 23 105 255 
10.2915 17.3946 0.345728 71 19 101 255 
11.9741 20.1895 0.184362 71 17 100 255 
12.8149 21.7378 -0.00440416 72 28 110 255 
10.5018 17.7709 -0.198156 71 44 122 255 
7.25097 12.2457 -0.268289 67 61 132 255 
6.91744 11.6542 -0.383292 69 56 130 255 
6.33071 10.7259 -0.452343 71 47 125 255 
5.87659 9.93629 -0.52623 63 71 136 255 
5.68167 9.59163 -0.613519 59 82 139 255 
5.61883 9.46265 -0.709742 60 79 138 255 
5.55287 9.40426 -0.792428 59 82 139 255 
5.46904 9.23984 -0.878976 65 68 135 255 
5.08495 8.57403 -0.910712 67 61 132 255 
4.74053 7.98351 -0.936576 66 65 134 255 
4.43977 7.51016 -0.950848 60 79 138 255 
4.197 7.08794 -0.97641 62 76 138 255 
3.91988 6.6069 -0.984115 59 81 139 255 
3.7314 6.27904 -1.00573 55 91 141 255 
3.52647 5.95813 -1.01127 54 93 141 255 
3.34543 5.6453 -1.02056 59 82 139 255 
3.17717 5.35295 -1.02716 59 82 139 255 
3.0108 5.06646 -1.03071 55 90 140 255 
2.88602 4.86832 -1.03871 58 83 139 255 
2.76614 4.66219 -1.04589 57 85 140 255 
2.64511 4.45652 -1.05154 60 80 139 255 
2.54095 4.2775 -1.06025 61 77 138 255 
2.44255 4.11535 -1.06182 57 85 140 255 
2.35566 3.9672 -1.06859 61 77 138 255 
2.25864 3.80237 -1.06912 60 79 138 255 
2.18749 3.6854 -1.08127 65 68 135 255 
2.123 3.56985 -1.08576 62 76 138 255 
2.06358 3.46978 -1.09533 61 78 138 255 
1.98695 3.34366 -1.09621 62 74 137 255 
1.90478 3.21166 -1.09403 66 63 133 255 
5.96222 9.97718 3.49146 72 27 109 255 
6.2232 10.4342 3.51356 68 58 131 255 
5.38559 9.03719 2.93137 72 40 120 255 
5.38979 9.04382 2.8269 48 105 142 255 
5.42717 9.09262 2.7484 68 57 131 255 
6.07538 10.1823 2.95191 64 69 136 255 
6.22341 10.4265 2.8995 71 46 124 255 
5.38283 9.01428 2.40463 59 82 139 255 
5.36318 8.98897 2.30906 53 94 141 255 
5.20835 8.72574 2.1359 53 95 141 255 
5.20181 8.7046 2.03178 57 85 140 255 
5.20989 8.71086 1.93621 63 72 137 255 
5.17258 8.66951 1.84192 72 26 108 255 
5.19718 8.70357 1.74918 72 40 120 255 
5.24094 8.76312 1.6611 42 119 142 255 
6.53056 10.8974 1.94859 72 26 108 255 
6.41463 10.747 1.81694 58 83 139 255 
6.17816 10.3423 1.63097 60 79 138 255 
6.68227 11.1598 1.63631 71 19 101 255 
6.69964 11.1707 1.51865 71 19 101 255 
17.5468 29.3978 3.7132 71 19 101 255 
17.5615 29.3631 3.38486 70 10 93 255 
15.6063 26.0532 2.71578 70 11 94 255 
16.4893 27.4611 2.56593 71 17 100 255 
18.7657 31.4274 2.64305 70 11 94 255 
18.7158 31.2808 2.287 70 8 92 255 
0 0 0 68 2 86 255 
0 0 0 69 4 87 255 
28.3649 47.4658 1.98893 69 5 89 255 
10.5021 17.5389 0.542454 71 16 99 255 
7.69128 12.8196 0.25573 72 22 104 255 
7.84028 13.0365 0.119481 72 27 109 255 
7.75325 12.9692 -0.00263719 72 32 113 255 
10.6138 17.7113 -0.198213 72 38 119 255 
7.26009 12.0913 -0.265876 70 51 127 255 
7.02077 11.6647 -0.385045 67 62 133 255 
6.3656 10.6354 -0.450165 67 61 132 255 
6.02684 10.0491 -0.534153 61 77 138 255 
5.78669 9.63363 -0.618464 59 81 139 255 
5.65774 9.39637 -0.70736 61 78 138 255 
5.63814 9.41622 -0.796336 58 83 139 255 
5.51332 9.1856 -0.877017 66 65 134 255 
5.13336 8.53584 -0.909984 65 66 135 255 
4.79302 7.96024 -0.937278 65 66 135 255 
4.48577 7.48278 -0.950848 61 78 138 255 
4.22917 7.04332 -0.973821 59 81 139 255 
3.96187 6.58527 -0.984497 60 79 138 255 
3.75656 6.23396 -1.00218 56 89 140 255 
3.56347 5.93723 -1.01141 52 97 141 255 
3.38561 5.63398 -1.02225 58 84 140 255 
3.21199 5.33673 -1.02782 59 81 139 255 
3.04794 5.05801 -1.03278 59 82 139 255 
2.90671 4.83534 -1.03546 57 85 140 255 
2.78254 4.62494 -1.04134 58 84 140 255 
2.66836 4.43349 -1.04995 56 88 140 255 
2.55604 4.2434 -1.05567 63 71 136 255 
2.46625 4.09777 -1.06117 63 71 136 255 
2.37493 3.94433 -1.06633 58 83 139 255 
2.29246 3.80592 -1.07406 57 86 140 255 
2.21056 3.67274 -1.08151 65 66 135 255 
2.14436 3.55593 -1.08551 62 74 137 255 
2.07237 3.43639 -1.08878 66 65 134 255 
2.0119 3.33882 -1.09865 64 70 136 255 
1.92594 3.20238 -1.09487 68 58 131 255 
6.26801 10.3442 3.6333 68 58 131 255 
5.43107 8.98037 3.03516 65 66 135 255 
5.45888 9.03365 2.94103 61 78 138 255 
5.46316 9.04033 2.83624 50 101 142 255 
5.51894 9.11877 2.76649 57 86 140 255 
7.13131 11.7871 3.42976 72 37 118 255 
5.73379 9.47364 2.64425 72 38 119 255 
5.58294 9.22039 2.4687 72 38 119 255 
5.4056 8.935 2.30367 72 40 120 255 
5.31348 8.77901 2.15688 66 64 134 255 
4.98022 8.21885 1.9255 38 129 142 255 
5.10635 8.42004 1.8785 56 89 140 255 
5.2328 8.64939 1.84443 48 105 142 255 
5.27856 8.71788 1.75853 53 95 141 255 
5.31866 8.77047 1.66865 59 81 139 255 
6.52852 10.744 1.92827 62 73 137 255 
6.16378 10.1842 1.72815 62 74 137 255 
6.27025 10.3517 1.63849 70 50 126 255 
17.3225 28.531 4.19886 70 8 92 255 
17.5745 28.8997 3.94347 70 8 92 255 
17.5282 28.9612 3.67158 71 19 101 255 
15.7716 26.0069 3.00907 71 16 99 255 
15.7891 25.9953 2.71978 70 10 93 255 
16.6927 27.4173 2.57136 71 16 99 255 
19.3575 31.9712 2.69872 71 14 97 255 
0 0 0 68 2 86 255 
0 0 0 68 2 86 255 
0 0 0 68 2 86 255 
8.89068 14.6725 0.617086 72 38 119 255 
8.52655 14.0434 0.435953 71 44 122 255 
7.9366 13.0463 0.26122 72 35 116 255 
7.94511 13.0292 0.119858 72 38 119 255 
7.80884 12.882 -0.00262916 64 69 136 255 
7.81021 12.8535 -0.144381 70 51 127 255 
7.33934 12.0551 -0.266065 67 61 132 255 
6.96568 11.414 -0.378175 67 62 133 255 
6.47948 10.6764 -0.453577 67 62 133 255 
6.08528 10.0068 -0.53388 61 77 138 255 
5.81297 9.54421 -0.615002 59 82 139 255 
5.76833 9.44835 -0.713925 61 78 138 255 
5.70927 9.40362 -0.798217 51 98 141 255 
5.56802 9.14904 -0.876773 66 64 134 255 
5.17682 8.48973 -0.908437 66 63 133 255 
4.84851 7.94172 -0.938583 61 78 138 255 
4.51766 7.43217 -0.947922 62 76 138 255 
4.27127 7.01554 -0.973585 55 91 141 255 
4.00066 6.5583 -0.984115 58 83 139 255 
3.80197 6.22263 -1.00409 54 92 141 255 
3.60446 5.92286 -1.01271 53 95 141 255 
3.41908 5.61142 -1.02194 55 90 140 255 
3.25341 5.33124 -1.03058 61 78 138 255 
3.07994 5.0409 -1.03312 60 79 138 255 
2.93274 4.81154 -1.03419 58 83 139 255 
2.80524 4.59856 -1.03926 61 78 138 255 
2.69551 4.41704 -1.04995 59 81 139 255 
2.59019 4.24099 -1.059 64 69 136 255 
2.48422 4.0709 -1.05814 64 70 136 255 
2.393 3.9197 -1.06363 62 73 137 255 
2.31982 3.79842 -1.07594 61 77 138 255 
2.2376 3.66655 -1.08371 64 70 136 255 
2.16866 3.54683 -1.08677 59 81 139 255 
2.09241 3.42197 -1.08826 63 72 137 255 
2.03185 3.32559 -1.09838 67 62 133 255 
1.95904 3.21263 -1.10246 66 63 133 255 
6.10777 9.94162 3.50499 63 72 137 255 
5.60257 9.13687 3.09961 72 40 120 255 
6.08893 9.93801 3.24756 71 45 123 255 
5.56041 9.07499 2.85776 56 88 140 255 
5.57783 9.08968 2.76799 62 73 137 255 
6.65551 10.8498 3.16885 69 56 130 255 
6.41652 10.4563 2.92946 72 33 115 255 
5.90308 9.61544 2.58412 72 24 106 255 
5.49861 8.9641 2.31983 47 107 142 255 
5.25259 8.55941 2.11081 68 58 131 255 
4.98436 8.11294 1.90782 45 112 142 255 
5.05296 8.21785 1.84027 51 99 141 255 
5.27652 8.60203 1.8412 71 42 122 255 
5.36134 8.73319 1.76822 62 76 138 255 
8.05443 13.0998 2.50169 72 29 111 255 
6.66846 10.8241 1.94995 66 64 134 255 
6.13868 10.0037 1.70387 57 85 140 255 
6.30824 10.2716 1.63191 70 51 127 255 
17.3484 28.1825 4.16316 70 8 92 255 
16.0709 26.0655 3.57012 70 10 93 255 
15.8955 25.9035 3.29624 72 26 108 255 
17.7281 28.8326 3.34853 71 13 96 255 
16.9124 27.4635 2.8842 71 19 101 255 
19.2519 31.1882 2.93604 70 8 92 255 
19.4583 31.6971 2.68561 71 13 96 255 
0 0 0 68 1 84 255 
0 0 0 68 2 86 255 
0 0 0 68 2 86 255 
8.73886 14.2242 0.600479 70 11 94 255 
8.59841 13.9678 0.435237 72 28 110 255 
7.99236 12.9582 0.260433 71 46 124 255 
7.91658 12.805 0.11824 64 69 136 255 
7.87569 12.8143 -0.00262515 63 72 137 255 
7.88054 12.7917 -0.144227 60 80 139 255 
7.41317 12.0098 -0.266065 69 55 129 255 
7.15708 11.5674 -0.384706 66 65 134 255 
6.42284 10.4381 -0.44512 62 74 137 255 
6.21315 10.0773 -0.539663 55 90 140 255 
5.85044 9.47438 -0.612804 62 73 137 255 
5.83512 9.4272 -0.715019 59 82 139 255 
5.7815 9.39219 -0.800244 59 82 139 255 
5.62353 9.11385 -0.876691 64 69 136 255 
5.23667 8.47051 -0.909802 67 61 132 255 
4.9092 7.93128 -0.940891 64 69 136 255 
4.54857 7.38062 -0.944889 65 68 135 255 
4.31319 6.98751 -0.97335 54 92 141 255 
4.03769 6.52857 -0.983353 53 94 141 255 
3.83486 6.19076 -1.00273 54 93 141 255 
3.63502 5.89137 -1.01112 54 93 141 255 
3.44774 5.58108 -1.02025 56 88 140 255 
3.26945 5.28433 -1.02537 60 80 139 255 
3.10874 5.01855 -1.03243 63 72 137 255 
2.95859 4.7876 -1.03293 57 86 140 255 
2.83599 4.58544 -1.04021 58 83 139 255 
2.72721 4.40791 -1.05174 56 89 140 255 
2.6141 4.22169 -1.05817 63 71 136 255 
2.51121 4.0589 -1.05901 62 73 137 255 
2.43085 3.92731 -1.06972 59 82 139 255 
2.33746 3.77503 -1.07335 62 74 137 255 
2.25393 3.64286 -1.08078 64 69 136 255 
2.19956 3.54826 -1.09132 62 73 137 255 
2.1215 3.42219 -1.09245 64 70 136 255 
2.04664 3.30406 -1.0954 66 65 134 255 
1.97569 3.19565 -1.10078 65 66 135 255 
5.46181 8.7691 3.10336 72 41 121 255 
5.48913 8.82983 3.00682 71 46 124 255 
5.54442 8.92589 2.92788 72 33 115 255 
5.48603 8.8315 2.79163 64 69 136 255 
5.63247 9.05364 2.76749 65 68 135 255 
5.76827 9.27525 2.71926 70 51 127 255 
6.58075 10.5778 2.97475 72 37 118 255 
7.62462 12.2504 3.30477 70 48 126 255 
5.57414 8.96336 2.32844 47 108 142 255 
5.59347 8.99067 2.22559 62 76 138 255 
4.96873 7.97734 1.88306 48 105 142 255 
5.09082 8.16668 1.83577 48 106 142 255 
5.30478 8.53023 1.83276 44 113 142 255 
6.53017 10.4922 2.13244 67 62 133 255 
5.41649 8.68946 1.66576 47 108 142 255 
6.12474 9.80626 1.77333 69 53 129 255 
6.3322 10.1784 1.74022 71 46 124 255 
6.31667 10.1452 1.61796 68 58 131 255 
10.1407 16.2494 2.40953 70 8 92 255 
6.41082 10.2563 1.41015 68 58 131 255 
16.0547 25.8063 3.29634 71 13 96 255 
18.3058 29.3668 3.42355 70 10 93 255 
17.1972 27.5459 2.90389 71 16 99 255 
19.3287 30.887 2.91879 70 8 92 255 
19.5017 31.3349 2.66502 70 7 90 255 
0 0 0 69 4 87 255 
18.6886 29.8999 1.87875 69 5 89 255 
9.69377 15.4785 0.800594 69 5 89 255 
9.15037 14.6912 0.622549 71 16 99 255 
9.02161 14.4559 0.45216 69 55 129 255 
8.33835 13.3354 0.269036 71 42 122 255 
7.97323 12.7214 0.117918 68 59 132 255 
7.93778 12.7394 -0.00261974 62 74 137 255 
7.94934 12.7278 -0.144055 62 76 138 255 
7.9264 12.6667 -0.28169 63 72 137 255 
7.24439 11.5496 -0.385582 64 69 136 255 
6.46826 10.3689 -0.44385 57 85 140 255 
6.27274 10.0356 -0.539481 62 73 137 255 
5.94131 9.49078 -0.616211 63 71 136 255 
5.89763 9.39883 -0.715598 60 79 138 255 
5.84747 9.37008 -0.801402 58 84 140 255 
5.68675 9.09101 -0.877833 65 66 135 255 
5.28167 8.42725 -0.908619 68 59 132 255 
4.96676 7.91533 -0.942597 62 76 138 255 
4.60905 7.37702 -0.948031 61 78 138 255 
4.35072 6.9525 -0.972173 58 83 139 255 
4.07873 6.50535 -0.983607 57 86 140 255 
3.87383 6.1688 -1.003 58 83 139 255 
3.66638 5.86141 -1.00982 51 98 141 255 
3.48139 5.55899 -1.0201 56 89 140 255 
3.31387 5.28339 -1.02912 57 85 140 255 
3.14052 5.00105 -1.03278 64 70 136 255 
2.98791 4.76935 -1.03293 55 91 141 255 
2.86564 4.57044 -1.04077 57 86 140 255 
2.74743 4.3803 -1.04916 57 86 140 255 
2.63528 4.19812 -1.05629 64 69 136 255 
2.56149 4.08394 -1.06962 60 79 138 255 
2.46681 3.9313 -1.07491 63 72 137 255 
2.36574 3.76885 -1.0757 62 74 137 255 
2.28655 3.64539 -1.08567 65 68 135 255 
2.21254 3.52077 -1.08702 63 72 137 255 
2.14297 3.40992 -1.09271 64 69 136 255 
2.06431 3.28737 -1.09404 67 62 133 255 
1.99475 3.18265 -1.1005 67 62 133 255 
5.50887 8.72489 3.09962 61 78 138 255 
6.18085 9.80781 3.3527 72 33 115 255 
6.1673 9.79407 3.22501 70 48 126 255 
6.21584 9.87072 3.13212 72 38 119 255 
5.49894 8.71926 2.67554 72 37 118 255 
6.68103 10.5974 3.11884 72 35 116 255 
8.26021 13.0975 3.69753 72 41 121 255 
7.55764 11.9783 3.24382 71 46 124 255 
5.68944 9.02481 2.35343 72 37 118 255 
4.98031 7.89667 1.9623 65 68 135 255 
5.2296 8.28248 1.96263 59 81 139 255 
5.08259 8.04312 1.81498 50 100 142 255 
5.3266 8.44925 1.82235 49 103 142 255 
8.10251 12.8422 2.62011 71 46 124 255 
6.39187 10.1154 1.94659 72 40 120 255 
6.21546 9.81693 1.78213 68 58 131 255 
6.50804 10.3193 1.77111 66 63 133 255 
6.34813 10.0577 1.61018 67 61 132 255 
17.7667 28.0841 4.18051 70 10 93 255 
6.46884 10.2092 1.4091 56 88 140 255 
18.4502 29.2551 3.75126 71 14 97 255 
18.4969 29.2716 3.42562 70 11 94 255 
17.5624 27.7505 2.93675 71 14 97 255 
33.2219 52.3708 4.96817 70 7 90 255 
18.7681 29.7477 2.53977 71 19 101 255 
18.8304 29.788 2.21098 71 17 100 255 
36.4478 57.5246 3.62853 70 7 90 255 
36.5204 57.5262 2.98695 70 7 90 255 
11.6749 18.4906 0.786571 70 10 93 255 
10.2832 16.2545 0.510385 72 23 105 255 
8.38576 13.2299 0.267942 72 20 103 255 
6.76308 10.6449 0.0990534 72 31 112 255 
8.01313 12.6862 -0.00261887 70 48 126 255 
7.9984 12.6332 -0.143536 70 52 128 255 
8.00237 12.6153 -0.281633 71 45 123 255 
7.25826 11.4155 -0.382586 71 17 100 255 
6.62896 10.4827 -0.450456 68 58 131 255 
6.32351 9.98003 -0.53857 62 74 137 255 
6.00585 9.46426 -0.616871 63 72 137 255 
5.95573 9.36331 -0.715662 60 80 139 255 
5.93418 9.38038 -0.805382 55 91 141 255 
5.74722 9.06352 -0.878568 65 66 135 255 
5.3429 8.40981 -0.910257 68 59 132 255 
4.99815 7.85784 -0.939386 64 70 136 255 
4.65635 7.35196 -0.948464 64 70 136 255 
4.39596 6.92986 -0.972761 57 86 140 255 
4.12389 6.48857 -0.984878 57 86 140 255 
3.90469 6.13405 -1.00123 60 80 139 255 
3.70174 5.83796 -1.00968 53 95 141 255 
3.51332 5.53418 -1.01948 58 84 140 255 
3.34834 5.26629 -1.02977 59 81 139 255 
3.16586 4.97338 -1.03105 64 70 136 255 
3.02187 4.7584 -1.03456 54 92 141 255 
2.89363 4.55277 -1.04077 59 82 139 255 
2.78004 4.37246 -1.05135 61 78 138 255 
2.66256 4.18434 -1.05692 66 65 134 255 
2.5755 4.05084 -1.06507 58 83 139 255 
2.48252 3.90294 -1.0713 62 76 138 255 
2.40448 3.77886 -1.08275 62 74 137 255 
2.29586 3.61084 -1.07955 66 64 134 255 
2.23202 3.50387 -1.08601 65 68 135 255 
2.15919 3.38938 -1.09035 66 64 134 255 
2.09168 3.286 -1.09784 64 69 136 255 
2.0163 3.17359 -1.10162 65 68 135 255 
5.58089 8.71997 3.10998 71 44 122 255 
5.5557 8.69704 2.9846 52 96 141 255 
5.5675 8.72239 2.88332 72 41 121 255 
5.55086 8.69595 2.77011 69 56 130 255 
5.54608 8.67557 2.67253 72 33 115 255 
8.05906 12.611 3.72594 72 27 109 255 
8.58561 13.4301 3.80623 72 35 116 255 
7.78645 12.1748 3.30991 70 48 126 255 
5.94768 9.30735 2.43658 72 41 121 255 
11.315 17.6992 4.41538 72 22 104 255 
5.0541 7.89677 1.87855 45 113 142 255 
5.20231 8.12179 1.8399 48 105 142 255 
5.11083 7.99778 1.73171 55 91 141 255 
8.16151 12.7615 2.61382 71 19 101 255 
6.30529 9.84413 1.90179 55 91 141 255 
6.60818 10.2969 1.87658 72 32 113 255 
6.16293 9.64049 1.66106 57 86 140 255 
6.3937 9.99348 1.60615 68 57 131 255 
16.4771 25.6952 3.8399 72 20 103 255 
6.50184 10.1234 1.40273 72 28 110 255 
6.51573 10.1924 1.31202 59 82 139 255 
18.6428 29.1056 3.41951 71 14 97 255 
17.741 27.6556 2.93818 71 13 96 255 
19.2561 29.9474 2.85212 70 11 94 255 
18.9551 29.6396 2.54042 71 17 100 255 
18.9886 29.634 2.20816 72 23 105 255 
36.5411 56.8966 3.60299 69 5 89 255 
36.6056 56.886 2.96532 69 4 87 255 
10.618 16.5903 0.708496 69 5 89 255 
10.8943 16.9889 0.535531 70 8 92 255 
6.82758 10.6269 0.216067 70 8 92 255 
6.84127 10.6234 0.0992419 55 90 140 255 
6.77245 10.5777 -0.00219213 72 20 103 255 
6.79039 10.5809 -0.12069 72 24 106 255 
6.84513 10.646 -0.238602 71 19 101 255 
6.80941 10.5658 -0.355502 71 16 99 255 
6.71743 10.4797 -0.452089 70 51 127 255 
6.38463 9.94105 -0.53857 62 73 137 255 
6.09082 9.46922 -0.619618 61 77 138 255 
6.0201 9.33749 -0.716499 61 78 138 255 
5.99701 9.35219 -0.806105 55 90 140 255 
5.80273 9.02808 -0.878568 65 66 135 255 
5.39494 8.37771 -0.910348 66 64 134 255 
5.04303 7.82201 -0.938783 63 71 136 255 
4.70084 7.32241 -0.948356 63 72 137 255 
4.43678 6.90025 -0.972408 57 86 140 255 
4.16201 6.46064 -0.984497 61 78 138 255 
3.94763 6.1183 -1.00259 54 92 141 255 
3.73108 5.80515 -1.00794 51 98 141 255 
3.54721 5.51252 -1.01948 57 86 140 255 
3.36616 5.22325 -1.02537 54 92 141 255 
3.1883 4.94144 -1.02847 63 71 136 255 
3.05686 4.74887 -1.03654 57 86 140 255 
2.92151 4.53493 -1.04077 57 86 140 255 
2.79885 4.34296 -1.04836 61 78 138 255 
2.68395 4.16135 -1.05525 65 68 135 255 
2.58761 4.01527 -1.05987 60 79 138 255 
2.50906 3.89173 -1.07243 60 80 139 255 
2.41656 3.74688 -1.07782 59 81 139 255 
2.31745 3.59587 -1.07931 65 68 135 255 
2.24089 3.4706 -1.07994 66 63 133 255 
2.19408 3.39796 -1.09742 66 63 133 255 
2.11337 3.27553 -1.09865 63 72 137 255 
2.03314 3.15713 -1.10022 67 61 132 255 
7.42621 11.4479 4.09908 72 36 117 255 
5.62305 8.68456 2.9921 57 86 140 255 
5.60312 8.66056 2.87419 71 47 125 255 
5.591 8.64145 2.76362 50 100 142 255 
5.60553 8.65113 2.67554 66 65 134 255 
6.72353 10.3802 3.07898 62 76 138 255 
8.19024 12.64 3.5965 72 33 115 255 
8.07363 12.4548 3.39943 71 19 101 255 
8.13666 12.5623 3.3017 70 48 126 255 
5.49087 8.47391 2.12233 48 106 142 255 
5.30523 8.1782 1.9532 56 88 140 255 
5.2606 8.1029 1.8429 50 102 142 255 
5.17103 7.98361 1.73548 47 108 142 255 
8.33346 12.8559 2.64357 71 44 122 255 
6.26131 9.64465 1.87064 62 76 138 255 
6.40445 9.84597 1.80153 72 41 121 255 
6.20098 9.5701 1.65546 53 94 141 255 
6.18693 9.54083 1.53948 62 74 137 255 
6.5305 10.0478 1.5075 69 55 129 255 
6.67113 10.2481 1.42566 56 89 140 255 
6.64626 10.2573 1.32561 72 23 105 255 
0 0 0 69 4 87 255 
19.0652 29.3224 3.12763 70 8 92 255 
19.0237 29.1906 2.79111 71 19 101 255 
19.1643 29.5654 2.5441 71 19 101 255 
21.3293 32.8415 2.45688 71 13 96 255 
20.431 31.387 1.99549 71 13 96 255 
0 0 0 68 2 86 255 
0 0 0 68 1 84 255 
27.9179 42.9534 1.35937 69 5 89 255 
6.88611 10.5747 0.215862 70 7 90 255 
6.89976 10.5711 0.0991476 71 19 101 255 
6.83832 10.5376 -0.00219248 70 11 94 255 
6.89498 10.6003 -0.121391 70 10 93 255 
10.2719 15.7621 -0.354671 70 10 93 255 
8.86392 13.5701 -0.458407 71 17 100 255 
6.64332 10.2254 -0.44287 70 51 127 255 
6.36921 9.78448 -0.532195 57 86 140 255 
6.17553 9.47266 -0.622311 57 85 140 255 
6.1002 9.33546 -0.719202 56 88 140 255 
6.06787 9.33612 -0.807915 56 88 140 255 
5.86019 8.99565 -0.878894 67 62 133 255 
5.45658 8.36029 -0.912077 66 65 134 255 
5.0942 7.79592 -0.939386 65 68 135 255 
4.73755 7.28093 -0.946731 61 77 138 255 
4.48284 6.87872 -0.973232 54 93 141 255 
4.19995 6.43249 -0.984115 58 83 139 255 
3.98726 6.09728 -1.00314 55 90 140 255 
3.76447 5.77883 -1.00737 55 91 141 255 
3.58421 5.49562 -1.02041 59 82 139 255 
3.40786 5.21737 -1.0283 53 95 141 255 
3.21856 4.92179 -1.02847 65 66 135 255 
3.08702 4.73167 -1.0369 53 94 141 255 
2.95035 4.51857 -1.04115 57 85 140 255 
2.8292 4.33145 -1.04975 63 71 136 255 
2.70354 4.1358 -1.05296 66 63 133 255 
2.61967 4.01076 -1.06291 60 79 138 255 
2.53556 3.88034 -1.07355 62 73 137 255 
2.44535 3.74093 -1.0804 61 78 138 255 
2.33735 3.57833 -1.07833 65 66 135 255 
2.27485 3.47621 -1.08601 64 70 136 255 
2.21383 3.38282 -1.0969 64 70 136 255 
2.13237 3.26089 -1.09811 63 72 137 255 
2.05195 3.14379 -1.09993 66 65 134 255 
6.8397 10.4034 3.74003 69 55 129 255 
5.6873 8.66676 2.99793 60 80 139 255 
6.73425 10.2702 3.42203 72 41 121 255 
5.62909 8.58437 2.75636 60 80 139 255 
5.63938 8.58744 2.6665 67 61 132 255 
8.39907 12.7943 3.81025 72 29 111 255 
8.10854 12.3473 3.52729 71 42 122 255 
5.51176 8.3895 2.29903 72 38 119 255 
5.50037 8.37895 2.21104 62 73 137 255 
5.56371 8.47197 2.13035 53 95 141 255 
5.40918 8.22742 1.97285 52 96 141 255 
5.38743 8.18781 1.86969 49 103 142 255 
5.36569 8.17378 1.78394 46 109 142 255 
5.58396 8.49956 1.75479 55 91 141 255 
6.3502 9.6514 1.87948 68 57 131 255 
6.83795 10.3726 1.90553 72 32 113 255 
6.95871 10.5965 1.84035 72 35 116 255 
16.7653 25.5095 4.13264 69 5 89 255 
6.66298 10.1152 1.52373 58 83 139 255 
6.72841 10.1987 1.4245 50 100 142 255 
6.74673 10.2737 1.33305 57 85 140 255 
20.8026 31.6163 3.7442 71 13 96 255 
19.0902 28.9703 3.10251 71 19 101 255 
19.482 29.4967 2.83176 72 22 104 255 
19.2501 29.3022 2.53156 70 11 94 255 
21.5205 32.695 2.45575 72 22 104 255 
21.4772 32.5555 2.07812 69 5 89 255 
37.3246 56.4683 2.9672 69 4 87 255 
0 0 0 68 2 86 255 
0 0 0 69 4 87 255 
28.2248 42.7674 0.876532 70 7 90 255 
8.11752 12.2717 0.115562 69 5 89 255 
17.0401 25.9086 -0.00541227 70 7 90 255 
13.5709 20.5862 -0.236696 71 17 100 255 
10.6725 16.1593 -0.365075 72 29 111 255 
7.86774 11.8851 -0.40311 72 26 108 255 
6.86366 10.424 -0.453287 69 55 129 255 
6.51604 9.87696 -0.53939 59 81 139 255 
6.23794 9.44125 -0.62275 64 70 136 255 
6.20255 9.36608 -0.72448 59 81 139 255 
6.13931 9.32037 -0.809796 57 86 140 255 
5.90429 8.94289 -0.877262 70 48 126 255 
5.49789 8.3117 -0.910439 66 64 134 255 
5.12875 7.7446 -0.936977 64 69 136 255 
4.7887 7.26169 -0.948031 62 73 137 255 
4.50963 6.82789 -0.969936 58 84 140 255 
4.24755 6.41901 -0.986021 58 83 139 255 
4.0142 6.05701 -1.00055 56 89 140 255 
3.79713 5.7515 -1.00664 55 91 141 255 
3.61731 5.4727 -1.02025 57 85 140 255 
3.43981 5.19636 -1.0283 54 93 141 255 
3.24598 4.89784 -1.02761 65 66 135 255 
3.11491 4.711 -1.03654 56 89 140 255 
2.98073 4.50447 -1.0421 58 83 139 255 
2.86546 4.32872 -1.05333 62 76 138 255 
2.74723 4.14685 -1.06004 64 70 136 255 
2.63831 3.98565 -1.06052 62 76 138 255 
2.5534 3.85577 -1.07107 60 80 139 255 
2.46074 3.71451 -1.07711 61 78 138 255 
2.36569 3.57362 -1.08127 66 64 134 255 
2.29774 3.46461 -1.08677 62 73 137 255 
2.22921 3.36113 -1.09428 62 76 138 255 
2.14703 3.23973 -1.0954 63 72 137 255 
2.07331 3.13434 -1.10106 68 59 132 255 
7.1206 10.6872 3.8577 66 65 134 255 
7.54531 11.3457 3.94057 70 50 126 255 
5.71964 8.6072 2.87956 69 55 129 255 
5.6838 8.55289 2.7574 63 71 136 255 
5.79493 8.70739 2.71474 72 35 116 255 
8.46397 12.7223 3.80421 66 63 133 255 
8.14157 12.2333 3.50894 72 33 115 255 
8.18642 12.2956 3.38313 72 31 112 255 
5.51652 8.2922 2.19704 72 27 109 255 
5.608 8.42626 2.12747 46 110 142 255 
5.46826 8.20713 1.97599 54 93 141 255 
5.44793 8.17013 1.87325 47 108 142 255 
5.45443 8.19886 1.79669 48 106 142 255 
5.60378 8.41674 1.74475 53 95 141 255 
6.82436 10.2347 2.00119 66 64 134 255 
5.73356 8.58228 1.58307 72 28 110 255 
6.47312 9.72644 1.69611 64 69 136 255 
17.1528 25.7533 4.18912 72 23 105 255 
17.1406 25.6772 3.8837 71 16 99 255 
17.9844 26.8996 3.77255 72 22 104 255 
6.74134 10.1295 1.31968 72 22 104 255 
20.9951 31.4864 3.74401 71 13 96 255 
19.5862 29.3297 3.15381 71 13 96 255 
19.7231 29.4669 2.84046 71 14 97 255 
19.3847 29.1163 2.52573 70 8 92 255 
21.7811 32.6529 2.46257 72 22 104 255 
35.2001 52.6514 3.37463 69 4 87 255 
0 0 0 68 2 86 255 
0 0 0 68 2 86 255 
28.5173 42.719 1.36293 69 5 89 255 
28.6117 42.7805 0.88038 70 10 93 255 
8.74723 13.0489 0.123385 70 7 90 255 
17.1987 25.8036 -0.00541227 70 7 90 255 
13.1964 19.7534 -0.228047 71 14 97 255 
11.579 17.2999 -0.392443 72 35 116 255 
9.32381 13.8986 -0.473334 72 22 104 255 
6.91584 10.3642 -0.452525 64 70 136 255 
6.55431 9.80357 -0.537568 61 77 138 255 
6.30964 9.42354 -0.624124 61 78 138 255 
6.26435 9.33448 -0.724994 59 81 139 255 
6.2512 9.36465 -0.816961 51 99 141 255 
5.96349 8.91312 -0.877915 70 51 127 255 
5.53769 8.26127 -0.908619 69 56 130 255 
5.19503 7.74108 -0.940389 61 78 138 255 
4.84145 7.24456 -0.949656 62 74 137 255 
4.55034 6.79844 -0.969701 59 82 139 255 
4.28741 6.39365 -0.986148 57 86 140 255 
4.04963 6.02979 -1.00014 59 81 139 255 
3.82849 5.72233 -1.00563 57 86 140 255 
3.64588 5.44301 -1.01887 55 91 141 255 
3.46943 5.17188 -1.02765 53 95 141 255 
3.27542 4.87701 -1.02744 61 78 138 255 
3.13828 4.68362 -1.03474 56 89 140 255 
3.00886 4.48691 -1.04229 61 77 138 255 
2.89579 4.31675 -1.05473 60 79 138 255 
2.78244 4.14454 -1.0638 62 76 138 255 
2.6638 3.97101 -1.06096 58 84 140 255 
2.58027 3.84488 -1.07243 57 85 140 255 
2.48512 3.70177 -1.07782 62 74 137 255 
2.39945 3.57676 -1.08665 65 68 135 255 
2.3249 3.45928 -1.08955 62 76 138 255 
2.24926 3.34659 -1.09402 61 77 138 255 
2.16472 3.2233 -1.09431 62 73 137 255 
2.09999 3.13272 -1.105 64 69 136 255 
7.33395 10.8624 3.9371 70 52 128 255 
7.86121 11.6649 4.06808 71 42 122 255 
7.98217 11.8535 3.98194 72 41 121 255 
7.4301 11.0332 3.57168 71 47 125 255 
5.83093 8.64599 2.7067 70 48 126 255 
8.44695 12.5293 3.76193 72 40 120 255 
8.17026 12.1146 3.4892 72 20 103 255 
8.24972 12.2273 3.37822 72 22 104 255 
9.66676 14.3391 3.81482 71 17 100 255 
5.53155 8.20184 2.07934 59 82 139 255 
8.49888 12.5876 3.04316 70 50 126 255 
5.53975 8.19841 1.88749 72 32 113 255 
5.51343 8.17829 1.79956 50 100 142 255 
5.61123 8.31685 1.73115 47 108 142 255 
5.78847 8.56681 1.68197 52 97 141 255 
5.79387 8.5584 1.58519 58 84 140 255 
6.44912 9.56264 1.67442 72 28 110 255 
17.2129 25.503 4.16551 70 11 94 255 
18.3485 27.1248 4.1196 71 14 97 255 
18.1508 26.7912 3.77289 71 13 96 255 
20.8492 30.9149 4.04422 70 10 93 255 
21.0391 31.1368 3.71772 71 13 96 255 
19.7396 29.1702 3.14963 72 20 103 255 
20.1822 29.7562 2.88022 70 10 93 255 
19.5217 28.9356 2.5204 71 16 99 255 
22.1482 32.7659 2.4813 71 19 101 255 
22.2906 32.9029 2.1176 71 19 101 255 
38.022 56.0168 2.96777 69 4 87 255 
0 0 0 69 4 87 255 
0 0 0 69 4 87 255 
28.9101 42.6579 0.881492 70 8 92 255 
0 0 0 68 2 86 255 
17.2297 25.5094 -0.00537265 70 8 92 255 
13.3331 19.6952 -0.228316 71 13 96 255 
11.3886 16.7916 -0.382491 72 29 111 255 
10.0687 14.8116 -0.506524 71 42 122 255 
6.98602 10.3315 -0.45296 66 65 134 255 
6.60258 9.7458 -0.536612 57 86 140 255 
6.36902 9.38713 -0.624289 62 73 137 255 
6.32937 9.30742 -0.725895 59 81 139 255 
6.30407 9.3195 -0.816382 59 82 139 255 
6.02422 8.88543 -0.878812 69 56 130 255 
5.58324 8.21972 -0.9078 68 59 132 255 
5.23683 7.70083 -0.939386 63 72 137 255 
4.88247 7.20978 -0.949006 59 82 139 255 
4.58361 6.75806 -0.967935 57 86 140 255 
4.33771 6.38363 -0.98869 57 85 140 255 
4.09324 6.01466 -1.00177 60 79 138 255 
3.87297 5.71266 -1.00809 58 84 140 255 
3.68531 5.42953 -1.02056 54 93 141 255 
3.49666 5.14397 -1.02635 56 89 140 255 
3.3075 4.86008 -1.02813 62 76 138 255 
3.16143 4.65614 -1.03293 59 82 139 255 
3.04461 4.48055 -1.04513 60 79 138 255 
2.91671 4.2908 -1.05274 60 79 138 255 
2.80067 4.11687 -1.06109 63 71 136 255 
2.70019 3.97236 -1.06572 62 76 138 255 
2.61039 3.83865 -1.07513 61 77 138 255 
2.49903 3.67359 -1.07406 61 77 138 255 
2.41754 3.55635 -1.08494 66 64 134 255 
2.3439 3.44175 -1.08854 62 76 138 255 
2.27029 3.33352 -1.09428 62 76 138 255 
2.1942 3.22428 -1.0992 61 78 138 255 
2.12025 3.12136 -1.10556 62 74 137 255 
7.52809 11.0037 4.005 71 45 123 255 
6.76736 9.91002 3.4705 70 48 126 255 
8.57708 12.5698 4.24016 72 38 119 255 
7.51236 11.009 3.57868 71 42 122 255 
5.67307 8.30158 2.60972 62 73 137 255 
5.64176 8.25861 2.49 66 64 134 255 
5.71837 8.36778 2.42012 56 88 140 255 
9.73073 14.2332 3.94885 72 40 120 255 
9.75952 14.2868 3.81676 69 53 129 255 
5.56962 8.14997 2.07481 55 90 140 255 
8.60751 12.5814 3.05436 60 80 139 255 
5.6288 8.221 1.90061 53 95 141 255 
5.56684 8.14918 1.80063 53 95 141 255 
5.55982 8.13258 1.69986 61 78 138 255 
7.01469 10.2455 2.01997 52 96 141 255 
6.51891 9.50325 1.76757 72 35 116 255 
17.3348 25.3666 4.46023 71 19 101 255 
17.4384 25.4984 4.18214 71 17 100 255 
18.4327 26.8922 4.10138 70 11 94 255 
21.5916 31.4527 4.44792 70 8 92 255 
21.7234 31.7886 4.17588 70 8 92 255 
20.911 30.5416 3.6619 70 11 94 255 
18.4948 26.9727 2.92455 71 13 96 255 
21.4839 31.2608 3.03857 70 8 92 255 
22.2938 32.6111 2.85241 70 11 94 255 
22.3539 32.6367 2.48186 72 22 104 255 
22.5899 32.908 2.12681 71 17 100 255 
38.3622 55.7783 2.96755 69 5 89 255 
38.3681 56.0824 2.44415 69 4 87 255 
0 0 0 69 4 87 255 
29.1923 42.5102 0.882125 70 8 92 255 
0 0 0 69 4 87 255 
17.3887 25.4074 -0.00537352 69 4 87 255 
13.439 19.5916 -0.228067 71 13 96 255 
11.3193 16.471 -0.376761 72 28 110 255 
10.1202 14.6928 -0.504573 71 42 122 255 
7.36165 10.7444 -0.473031 66 63 133 255 
6.68317 9.73558 -0.538297 57 85 140 255 
6.48986 9.44002 -0.630443 61 78 138 255 
6.43222 9.33497 -0.731108 55 91 141 255 
6.38707 9.31849 -0.819711 58 83 139 255 
6.08483 8.85734 -0.87971 68 57 131 255 
5.62962 8.17956 -0.907164 68 58 131 255 
5.27213 7.65135 -0.937278 62 74 137 255 
4.91762 7.16657 -0.947272 60 79 138 255 
4.6278 6.7339 -0.968524 58 83 139 255 
4.36948 6.34627 -0.987038 58 84 140 255 
4.13851 6.00166 -1.00382 59 82 139 255 
3.90739 5.68797 -1.00794 62 76 138 255 
3.72024 5.40926 -1.02102 53 94 141 255 
3.52312 5.1151 -1.02488 52 97 141 255 
3.34285 4.84781 -1.02985 60 80 139 255 
3.18827 4.63423 -1.03239 61 77 138 255 
3.0598 4.44399 -1.04096 58 83 139 255 
2.94021 4.26879 -1.05174 59 82 139 255 
2.81977 4.09075 -1.05879 64 70 136 255 
2.72285 3.9533 -1.06507 61 78 138 255 
2.63721 3.82737 -1.07649 61 78 138 255 
2.5287 3.66859 -1.07711 63 71 136 255 
2.44041 3.54305 -1.08543 62 73 137 255 
2.36442 3.42651 -1.08829 59 81 139 255 
2.29344 3.3235 -1.09559 59 81 139 255 
2.21121 3.20679 -1.09784 63 72 137 255 
2.1361 3.10355 -1.10387 61 77 138 255 
7.55781 10.903 3.98515 69 56 130 255 
7.84415 11.3369 3.98696 63 72 137 255 
5.74015 8.30237 2.81246 56 88 140 255 
9.18689 13.2871 4.33747 72 37 118 255 
5.78286 8.35176 2.6366 57 85 140 255 
9.29925 13.4349 4.06778 72 41 121 255 
5.74247 8.29335 2.40874 63 72 137 255 
5.68769 8.21084 2.28764 65 66 135 255 
9.95259 14.3792 3.85769 72 26 108 255 
10.0441 14.5055 3.70842 72 41 121 255 
6.25632 9.02535 2.20035 49 104 142 255 
10.3768 14.9578 3.47274 72 22 104 255 
5.6033 8.09545 1.79633 48 105 142 255 
5.61299 8.10317 1.70089 68 57 131 255 
7.10611 10.2436 2.02816 72 20 103 255 
6.77228 9.74391 1.82003 67 62 133 255 
17.2901 24.9709 4.40923 70 11 94 255 
17.6363 25.4512 4.19207 72 23 105 255 
0 0 0 69 4 87 255 
18.8593 27.1145 3.85071 70 11 94 255 
18.5031 26.7227 3.52526 71 16 99 255 
18.6697 26.9123 3.24043 71 19 101 255 
18.8554 27.1401 2.95519 71 13 96 255 
19.1748 27.5373 2.68802 71 16 99 255 
21.5667 31.1356 2.73488 70 7 90 255 
22.7585 32.7942 2.5044 71 14 97 255 
22.8347 32.8311 2.13085 70 11 94 255 
0 0 0 68 2 86 255 
38.7172 55.8541 2.44451 69 5 89 255 
0 0 0 69 4 87 255 
29.7095 42.6996 0.889821 70 8 92 255 
0 0 0 69 4 87 255 
17.5363 25.2887 -0.00537108 70 7 90 255 
13.5218 19.4554 -0.227443 71 13 96 255 
11.4281 16.4127 -0.377025 72 24 106 255 
9.6856 13.8787 -0.478649 72 40 120 255 
7.33283 10.5627 -0.467006 66 65 134 255 
6.84488 9.84119 -0.546448 61 78 138 255 
6.5585 9.41559 -0.631487 62 74 137 255 
6.51337 9.32969 -0.733811 58 84 140 255 
6.48225 9.33401 -0.824559 59 82 139 255 
6.15444 8.84192 -0.881913 67 62 133 255 
5.68939 8.15875 -0.90871 64 69 136 255 
5.32581 7.62864 -0.938482 60 79 138 255 
4.95696 7.12973 -0.946406 58 83 139 255 
4.68095 6.72249 -0.970996 56 88 140 255 
4.38678 6.28843 -0.982209 59 81 139 255 
4.16164 5.95667 -1.00055 58 83 139 255 
3.93035 5.64683 -1.00491 61 78 138 255 
3.74093 5.3685 -1.01764 53 95 141 255 
3.54484 5.07963 -1.02212 57 85 140 255 
3.36464 4.8159 -1.02744 62 74 137 255 
3.21833 4.617 -1.03293 58 83 139 255 
3.07802 4.41225 -1.03793 60 79 138 255 
2.94784 4.22414 -1.04518 62 73 137 255 
2.8465 4.07578 -1.05942 62 73 137 255 
2.74371 3.93172 -1.06377 63 72 137 255 
2.65674 3.80552 -1.07491 61 77 138 255 
2.55895 3.66416 -1.0804 58 84 140 255 
2.46211 3.52801 -1.08543 62 74 137 255 
2.3854 3.41193 -1.08829 60 80 139 255 
2.30937 3.30304 -1.0935 60 79 138 255 
2.23746 3.20263 -1.10109 61 78 138 255 
2.15565 3.09117 -1.10415 61 77 138 255 
5.79549 8.25206 3.02914 52 96 141 255 
7.886 11.2492 3.97307 72 40 120 255 
5.75837 8.22044 2.79662 62 74 137 255 
5.76952 8.23601 2.70009 68 59 132 255 
5.83232 8.31374 2.63585 55 90 140 255 
9.53362 13.5944 4.13373 72 33 115 255 
9.80456 13.9759 4.07658 72 41 121 255 
5.7626 8.2109 2.29747 51 98 141 255 
5.57483 7.94964 2.14189 72 38 119 255 
6.25148 8.91098 2.28791 71 47 125 255 
10.3933 14.7985 3.6233 72 24 106 255 
6.30653 8.97262 2.09211 56 88 140 255 
6.0121 8.57318 1.91048 54 92 141 255 
5.68128 8.0952 1.7065 43 116 142 255 
7.05418 10.0367 1.99573 72 33 115 255 
6.78585 9.63671 1.80775 66 63 133 255 
7.02871 10.0191 1.77671 66 65 134 255 
17.7409 25.2695 4.18 70 10 93 255 
21.1964 30.1248 4.63371 71 13 96 255 
19.0906 27.0908 3.86392 71 16 99 255 
18.7604 26.7422 3.54294 71 13 96 255 
19.0468 27.0993 3.27695 71 13 96 255 
19.2859 27.3994 2.99625 70 11 94 255 
19.6094 27.7962 2.72499 70 8 92 255 
19.3337 27.5492 2.43023 70 8 92 255 
22.988 32.6947 2.50753 71 16 99 255 
23.0236 32.6732 2.12973 72 22 104 255 
23.0084 32.5902 1.74877 70 7 90 255 
0 0 0 69 4 87 255 
0 0 0 69 4 87 255 
29.9502 42.4871 0.889205 70 11 94 255 
24.8172 35.1262 0.337796 69 5 89 255 
17.537 24.9613 -0.0053243 70 7 90 255 
13.6364 19.3656 -0.227366 71 14 97 255 
11.4214 16.1903 -0.37352 72 22 104 255 
9.76596 13.8125 -0.478423 72 33 115 255 
7.4343 10.5698 -0.469329 59 82 139 255 
7.13128 10.1199 -0.564344 62 74 137 255 
6.75202 9.5677 -0.644456 62 74 137 255 
6.65693 9.41176 -0.743465 59 82 139 255 
6.5635 9.32832 -0.827599 63 72 137 255 
6.20628 8.80073 -0.881587 66 63 133 255 
5.73187 8.11312 -0.907528 66 63 133 255 
5.38286 7.61044 -0.940289 62 76 138 255 
4.99374 7.08943 -0.945105 60 80 139 255 
4.73127 6.70663 -0.972879 59 82 139 255 
4.41669 6.24925 -0.980303 62 73 137 255 
4.19181 5.92213 -0.999046 56 89 140 255 
3.96378 5.62099 -1.00462 60 79 138 255 
3.77665 5.34948 -1.01841 57 85 140 255 
3.57708 5.0594 -1.02244 61 77 138 255 
3.38388 4.78069 -1.02434 62 74 137 255 
3.24831 4.59957 -1.03347 59 81 139 255 
3.11523 4.40771 -1.04134 57 85 140 255 
2.98728 4.22518 -1.04995 60 80 139 255 
2.88162 4.07261 -1.06317 63 71 136 255 
2.77229 3.92118 -1.0655 61 78 138 255 
2.69129 3.80506 -1.07942 60 80 139 255 
2.5696 3.63173 -1.07547 61 77 138 255 
2.49714 3.53184 -1.0913 64 69 136 255 
2.40741 3.39881 -1.08879 58 83 139 255 
2.32401 3.28093 -1.09088 63 72 137 255 
2.25874 3.1912 -1.10191 61 78 138 255 
2.18011 3.08573 -1.10696 62 76 138 255 
5.8338 8.19917 3.02281 62 76 138 255 
7.83973 11.0385 3.91556 70 51 127 255 
8.0839 11.3909 3.89202 71 47 125 255 
5.81659 8.19573 2.69853 45 112 142 255 
5.88827 8.2849 2.63811 56 89 140 255 
6.00639 8.45397 2.5818 57 86 140 255 
5.86297 8.24921 2.41664 61 77 138 255 
5.69482 8.00935 2.25081 55 91 141 255 
5.69929 8.02196 2.17076 50 100 142 255 
5.68751 8.0022 2.0635 49 104 142 255 
6.30578 8.86241 2.17933 68 59 132 255 
6.36603 8.94016 2.09361 71 47 125 255 
7.01496 9.87381 2.20987 61 78 138 255 
5.71543 8.0385 1.70191 61 78 138 255 
6.67309 9.37173 1.87161 62 74 137 255 
6.40456 8.97771 1.69147 63 71 136 255 
6.40667 9.0143 1.60546 47 108 142 255 
22.3924 31.4823 5.23033 70 8 92 255 
22.0167 30.8861 4.7715 70 10 93 255 
21.1696 29.653 4.24781 69 5 89 255 
18.9564 26.6719 3.54898 71 16 99 255 
18.9951 26.6763 3.23984 71 14 97 255 
20.564 28.8376 3.16726 71 14 97 255 
20.2734 28.3663 2.79303 70 8 92 255 
20.5479 28.9006 2.56052 71 16 99 255 
20.9971 29.4771 2.27059 70 10 93 255 
23.2295 32.5394 2.13026 71 16 99 255 
23.3132 32.5955 1.7567 70 8 92 255 
39.106 54.9619 2.42629 69 4 87 255 
24.1091 33.8209 1.10212 70 11 94 255 
23.7604 33.2708 0.699358 71 13 96 255 
23.7588 33.1941 0.320612 71 19 101 255 
17.8441 25.07 -0.00537073 70 7 90 255 
13.7631 19.2929 -0.2275 71 16 99 255 
11.4758 16.0573 -0.372068 72 26 108 255 
9.84704 13.7474 -0.478253 72 36 117 255 
8.87344 12.4529 -0.555348 72 36 117 255 
7.33719 10.2776 -0.575638 69 56 130 255 
6.87622 9.61788 -0.650665 64 69 136 255 
6.78024 9.4624 -0.750738 61 77 138 255 
6.64783 9.32605 -0.831 59 82 139 255 
6.25089 8.74951 -0.880281 70 52 128 255 
5.79024 8.08994 -0.908892 68 57 131 255 
5.41439 7.55624 -0.93768 63 71 136 255 
5.02675 7.04409 -0.943155 63 72 137 255 
4.77002 6.67424 -0.972408 55 90 140 255 
4.45322 6.21961 -0.979922 62 76 138 255 
4.22403 5.89066 -0.998092 56 89 140 255 
4.00337 5.60381 -1.00592 62 74 137 255 
3.81342 5.33183 -1.01948 55 91 141 255 
3.60519 5.03334 -1.02163 63 72 137 255 
3.41143 4.75744 -1.02382 62 73 137 255 
3.27246 4.57396 -1.03221 57 86 140 255 
3.16394 4.41885 -1.04854 57 86 140 255 
3.01771 4.21315 -1.05154 62 73 137 255 
2.91681 4.06916 -1.06692 60 79 138 255 
2.79232 3.89854 -1.06399 61 78 138 255 
2.71459 3.78847 -1.07942 62 76 138 255 
2.5907 3.61431 -1.075 60 80 139 255 
2.52159 3.52039 -1.09252 61 78 138 255 
2.43217 3.38948 -1.09056 62 76 138 255 
2.34523 3.26818 -1.0914 62 73 137 255 
2.27659 3.17493 -1.10109 59 81 139 255 
2.19342 3.06449 -1.10415 65 68 135 255 
5.88904 8.17022 3.0254 52 96 141 255 
5.86568 8.15256 2.90458 72 41 121 255 
5.8262 8.10379 2.78105 70 51 127 255 
5.84422 8.12852 2.68816 58 83 139 255 
5.50577 7.64692 2.44567 62 73 137 255 
5.92663 8.23423 2.52575 59 81 139 255 
5.80947 8.06863 2.37413 72 38 119 255 
5.72676 7.95053 2.24411 61 77 138 255 
5.69706 7.91551 2.15137 51 98 141 255 
5.68104 7.89011 2.04355 51 99 141 255 
5.80906 8.05916 1.99053 55 91 141 255 
7.22645 10.0178 2.35632 65 68 135 255 
5.31001 7.37773 1.65848 65 66 135 255 
5.31656 7.38118 1.56962 70 52 128 255 
6.70391 9.29378 1.86422 59 82 139 255 
5.2958 7.32796 1.38674 57 86 140 255 
6.43122 8.93226 1.59785 53 94 141 255 
17.643 24.4855 4.08582 71 13 96 255 
17.8203 24.6774 3.82916 70 10 93 255 
17.6759 24.4407 3.51662 71 16 99 255 
19.1232 26.56 3.54963 71 13 96 255 
17.735 24.586 2.99912 71 17 100 255 
19.4037 26.8603 2.96312 71 16 99 255 
19.4305 26.8373 2.65417 71 14 97 255 
20.6409 28.6574 2.55015 72 20 103 255 
21.0439 29.1623 2.25625 71 17 100 255 
23.3895 32.3421 2.1267 71 14 97 255 
0 0 0 69 4 87 255 
32.8002 45.5057 2.01769 69 4 87 255 
23.9417 33.1537 1.08515 71 19 101 255 
23.9664 33.1276 0.699426 70 11 94 255 
23.9439 33.0226 0.320368 69 5 89 255 
17.8017 24.6883 -0.00531226 70 7 90 255 
13.8771 19.2024 -0.227433 71 13 96 255 
11.5371 15.9355 -0.370881 72 23 105 255 
9.93414 13.6908 -0.478395 72 36 117 255 
8.93857 12.3828 -0.554658 71 42 122 255 
8.30749 11.4871 -0.64622 72 40 120 255 
7.16879 9.89816 -0.67259 66 63 133 255 
7.39566 10.1886 -0.811942 66 64 134 255 
6.91396 9.57456 -0.856908 59 82 139 255 
6.31439 8.72472 -0.881668 69 55 129 255 
5.83334 8.04539 -0.907891 68 57 131 255 
5.45247 7.5116 -0.936274 62 74 137 255 
5.06872 7.0115 -0.942939 62 76 138 255 
4.80273 6.63358 -0.97076 55 90 140 255 
4.49479 6.19698 -0.980685 58 83 139 255 
4.26883 5.87665 -1.00014 58 83 139 255 
4.03652 5.57754 -1.00563 58 84 140 255 
3.84781 5.31073 -1.01995 58 84 140 255 
3.63542 5.01033 -1.02147 64 70 136 255 
3.43361 4.72685 -1.02175 64 69 136 255 
3.30912 4.56574 -1.03492 58 84 140 255 
3.19042 4.39856 -1.04835 57 86 140 255 
3.04926 4.20248 -1.05353 62 76 138 255 
2.93885 4.04723 -1.06588 63 72 137 255 
2.82306 3.89082 -1.06659 63 72 137 255 
2.72576 3.75519 -1.07468 60 80 139 255 
2.62482 3.61487 -1.07993 60 80 139 255 
2.53916 3.49936 -1.09081 64 70 136 255 
2.4552 3.37762 -1.09158 59 82 139 255 
2.37432 3.26622 -1.09559 60 79 138 255 
2.28924 3.15156 -1.09784 63 71 136 255 
2.21049 3.04864 -1.10331 65 68 135 255 
10.6695 14.6126 5.43513 72 27 109 255 
5.90032 8.09545 2.89708 69 55 129 255 
5.88319 8.07801 2.78454 58 83 139 255 
5.92469 8.13466 2.70216 62 76 138 255 
5.54233 7.59891 2.44115 53 94 141 255 
5.77181 7.91622 2.43902 62 76 138 255 
5.64737 7.74286 2.28843 57 85 140 255 
5.76739 7.90421 2.24098 62 73 137 255 
5.76106 7.90171 2.15719 54 93 141 255 
5.74722 7.87962 2.04992 45 112 142 255 
5.85435 8.01782 1.98915 50 102 142 255 
5.8563 8.01433 1.89349 56 89 140 255 
6.4946 8.90781 2.01135 72 41 121 255 
5.39369 7.39221 1.57897 51 98 141 255 
6.68161 9.14409 1.84238 59 81 139 255 
5.35118 7.30969 1.38947 58 84 140 255 
5.35457 7.34149 1.31914 49 103 142 255 
20.5406 28.1411 4.71677 71 14 97 255 
17.9034 24.4747 3.81468 71 19 101 255 
17.8338 24.343 3.51824 71 17 100 255 
17.7866 24.3867 3.2737 70 11 94 255 
17.8421 24.4172 2.99184 72 22 104 255 
17.87 24.4202 2.70598 71 19 101 255 
19.5889 26.7095 2.65337 71 14 97 255 
21.0791 28.8904 2.58234 71 14 97 255 
21.1394 28.9191 2.24743 72 23 105 255 
37.4603 51.1349 3.3775 70 7 90 255 
0 0 0 69 4 87 255 
33.1495 45.4004 2.022 69 4 87 255 
0 0 0 68 2 86 255 
0 0 0 68 2 86 255 
0 0 0 68 2 86 255 
17.9552 24.5818 -0.00531296 70 7 90 255 
14.0189 19.15 -0.227827 71 16 99 255 
11.6306 15.8588 -0.370749 72 24 106 255 
10.018 13.6296 -0.478395 72 31 112 255 
8.99904 12.3068 -0.553715 72 40 120 255 
8.39612 11.4608 -0.647632 71 44 122 255 
7.42962 10.1269 -0.691218 70 48 126 255 
7.46158 10.1479 -0.812328 67 61 132 255 
6.9979 9.56657 -0.86002 59 81 139 255 
6.35779 8.67215 -0.880281 69 55 129 255 
5.88554 8.01346 -0.908346 69 55 129 255 
5.49787 7.47721 -0.936174 62 76 138 255 
5.1369 7.01476 -0.947597 62 76 138 255 
4.83394 6.59118 -0.968877 57 86 140 255 
4.54448 6.18528 -0.983226 57 85 140 255 
4.28191 5.81923 -0.994818 60 79 138 255 
4.07945 5.56464 -1.0078 60 79 138 255 
3.87564 5.28065 -1.01872 57 86 140 255 
3.64506 4.95931 -1.0156 62 73 137 255 
3.48707 4.73902 -1.02899 61 78 138 255 
3.33591 4.54376 -1.03456 57 85 140 255 
3.19584 4.34962 -1.04134 56 88 140 255 
3.08021 4.1908 -1.05532 63 72 137 255 
2.96015 4.02439 -1.06463 63 71 136 255 
2.84978 3.87736 -1.06767 60 79 138 255 
2.75164 3.74232 -1.07581 58 83 139 255 
2.65559 3.61044 -1.08346 59 82 139 255 
2.54278 3.45949 -1.08322 62 76 138 255 
2.47817 3.36561 -1.09259 57 86 140 255 
2.39946 3.25858 -1.09795 61 78 138 255 
2.31367 3.14443 -1.10028 63 71 136 255 
2.22973 3.03579 -1.10359 66 63 133 255 
10.8131 14.62 5.46246 72 40 120 255 
5.93847 8.04364 2.89153 69 56 130 255 
10.3584 14.0409 4.86181 72 23 105 255 
10.175 13.7917 4.60198 72 40 120 255 
5.84249 7.90809 2.55194 72 33 115 255 
5.8001 7.85334 2.43057 47 107 142 255 
5.74564 7.77691 2.30887 64 70 136 255 
5.84533 7.90866 2.25237 61 78 138 255 
5.89239 7.97854 2.18799 59 82 139 255 
6.39094 8.65019 2.26055 66 64 134 255 
5.80957 7.85483 1.95752 54 93 141 255 
5.75518 7.77533 1.84533 71 44 122 255 
5.79697 7.84933 1.78035 72 37 118 255 
6.53131 8.83695 1.89609 57 86 140 255 
6.76813 9.14417 1.85073 67 61 132 255 
5.40535 7.28942 1.39189 45 113 142 255 
6.55564 8.87336 1.60158 52 96 141 255 
6.63426 8.97297 1.51077 50 100 142 255 
18.1182 24.4521 3.82841 71 16 99 255 
18.0935 24.3823 3.5399 70 7 90 255 
17.7522 24.0284 3.24017 71 17 100 255 
17.8921 24.1729 2.9753 71 17 100 255 
17.6061 23.7523 2.6439 71 16 99 255 
23.4243 31.5315 3.14661 70 7 90 255 
22.5134 30.4618 2.73509 71 16 99 255 
23.0316 31.1053 2.42826 71 13 96 255 
21.3425 28.7615 1.90834 70 7 90 255 
37.8614 50.9283 2.78182 69 5 89 255 
0 0 0 68 2 86 255 
0 0 0 69 4 87 255 
20.6929 27.876 0.593864 70 7 90 255 
20.6407 27.7441 0.271596 69 4 87 255 
18.1319 24.5065 -0.00532064 70 7 90 255 
14.1718 19.1118 -0.228402 71 16 99 255 
11.7515 15.8192 -0.371503 72 23 105 255 
10.0829 13.543 -0.477518 72 27 109 255 
9.07558 12.2529 -0.553787 72 33 115 255 
8.46033 11.4011 -0.647177 72 40 120 255 
7.91149 10.6461 -0.729958 71 46 124 255 
7.41463 9.95546 -0.800551 70 50 126 255 
7.04875 9.51303 -0.859079 61 77 138 255 
6.40494 8.62497 -0.879465 70 50 126 255 
5.94114 7.98599 -0.909347 69 55 129 255 
5.54364 7.44333 -0.936174 60 79 138 255 
5.17866 6.98151 -0.947381 59 81 139 255 
4.87252 6.559 -0.968524 55 90 140 255 
4.58116 6.15568 -0.982972 59 81 139 255 
4.31872 5.79444 -0.995091 58 84 140 255 
4.11823 5.54586 -1.00896 58 84 140 255 
3.89972 5.24567 -1.01656 59 82 139 255 
3.68426 4.94872 -1.01805 59 82 139 255 
3.51608 4.71753 -1.02899 63 72 137 255 
3.37605 4.53978 -1.03835 56 89 140 255 
3.22774 4.33702 -1.04305 58 83 139 255 
3.10236 4.16711 -1.05413 60 79 138 255 
2.99005 4.01321 -1.0665 65 68 135 255 
2.87468 3.86136 -1.0681 62 74 137 255 
2.77048 3.71989 -1.07423 60 80 139 255 
2.66782 3.58083 -1.07946 61 78 138 255 
2.56917 3.45082 -1.08543 63 71 136 255 
2.49126 3.34026 -1.0893 61 77 138 255 
2.4298 3.25772 -1.10266 59 81 139 255 
2.33062 3.12709 -1.0992 62 73 137 255 
2.25117 3.0259 -1.105 64 69 136 255 
8.88767 11.8638 4.45294 70 51 127 255 
10.666 14.2631 5.15074 72 40 120 255 
5.94843 7.96045 2.76897 72 38 119 255 
11.1613 14.9359 5.00652 72 33 115 255 
8.62932 11.5315 3.73822 72 32 113 255 
5.73889 7.67152 2.38515 50 101 142 255 
6.02169 8.04677 2.39991 44 114 142 255 
5.83475 7.79383 2.22982 52 97 141 255 
5.76108 7.70139 2.12164 65 68 135 255 
6.0059 8.02553 2.1069 70 50 126 255 
5.78182 7.7178 1.93218 53 95 141 255 
6.00135 8.00473 1.90848 72 38 119 255 
6.73365 9.00153 2.05102 68 59 132 255 
6.89073 9.20455 1.984 66 63 133 255 
5.43039 7.24344 1.47275 55 91 141 255 
6.48939 8.64 1.65736 72 35 116 255 
6.53228 8.72917 1.58276 50 102 142 255 
5.41444 7.22991 1.22286 41 121 142 255 
17.86 23.7969 3.74291 72 20 103 255 
17.8614 23.7635 3.4659 70 11 94 255 
17.851 23.8545 3.23143 71 19 101 255 
17.8341 23.788 2.94133 71 17 100 255 
17.8149 23.7283 2.65334 70 7 90 255 
20.2239 26.8773 2.69449 70 7 90 255 
20.291 27.1053 2.44485 70 10 93 255 
23.4232 31.2316 2.4493 71 19 101 255 
0 0 0 69 4 87 255 
0 0 0 69 4 87 255 
37.9948 50.7176 2.27941 70 8 92 255 
0 0 0 69 4 87 255 
0 0 0 68 2 86 255 
0 0 0 68 2 86 255 
18.2657 24.3732 -0.00531592 70 11 94 255 
14.3303 19.0797 -0.229065 71 13 96 255 
11.8435 15.7404 -0.371352 72 23 105 255 
10.1694 13.4857 -0.477688 72 28 110 255 
9.17158 12.225 -0.555058 72 32 113 255 
8.52893 11.3474 -0.647086 72 40 120 255 
7.95925 10.5743 -0.728365 71 46 124 255 
7.47377 9.90739 -0.800358 70 51 127 255 
7.04592 9.38824 -0.851697 62 73 137 255 
6.45595 8.58312 -0.87922 70 50 126 255 
5.98284 7.93984 -0.908255 67 62 133 255 
5.57783 7.39408 -0.934267 62 76 138 255 
5.22319 6.95199 -0.947706 58 83 139 255 
4.91626 6.53374 -0.96923 51 98 141 255 
4.61586 6.1235 -0.982336 56 88 140 255 
