ply
format ascii 1.0
comment VTK generated PLY File
obj_info vtkPolyData points and polygons: vtk4.0
element vertex 1179
property float x
property float y
property float z
property uchar red
property uchar green
property uchar blue
property uchar alpha
element face 0
property list uchar int vertex_indices
end_header
-7.7121 10.9322 0.839372 56 88 140 255 
-7.70151 10.9413 0.712926 62 74 137 255 
-7.54542 10.7398 0.575362 67 62 133 255 
-6.43043 9.10497 0.400942 58 83 139 255 
-6.23417 8.84373 0.287116 55 90 140 255 
-6.23414 8.85993 0.185315 55 91 141 255 
-6.02608 8.58357 0.0823717 55 91 141 255 
-5.83318 8.26238 -0.00176523 57 86 140 255 
-5.82184 8.26492 -0.0970475 53 94 141 255 
-5.62588 8.00141 -0.184394 57 86 140 255 
-5.62361 8.01623 -0.276938 57 85 140 255 
-5.44318 7.71852 -0.343023 55 91 141 255 
-5.43484 7.72124 -0.430419 58 84 140 255 
-5.23402 7.44685 -0.500926 57 85 140 255 
-5.21974 7.44329 -0.586303 57 86 140 255 
-5.04209 7.15243 -0.634956 56 88 140 255 
-5.03319 7.15593 -0.716202 52 97 141 255 
-4.91075 6.99468 -0.780792 65 68 135 255 
-4.84657 6.91115 -0.851469 54 92 141 255 
-4.85244 6.89105 -0.918561 50 100 142 255 
-4.66241 6.63123 -0.960873 51 98 141 255 
-4.65526 6.63323 -1.03812 50 102 142 255 
-4.6271 6.60308 -1.11022 59 82 139 255 
-4.41589 6.27806 -1.12111 66 65 134 255 
-4.16379 5.92645 -1.12644 63 72 137 255 
-3.97278 5.66288 -1.14146 48 106 142 255 
-3.78294 5.39844 -1.15285 65 68 135 255 
-3.60609 5.13437 -1.15153 62 74 137 255 
-3.4672 4.94046 -1.16448 62 76 138 255 
-3.29995 4.70381 -1.16589 60 79 138 255 
-3.15681 4.50324 -1.17197 62 74 137 255 
-3.04172 4.33563 -1.17511 62 74 137 255 
-2.93662 4.18755 -1.18456 62 76 138 255 
-2.79089 3.98114 -1.17533 61 78 138 255 
-2.69684 3.84423 -1.18475 66 64 134 255 
-2.585 3.69146 -1.17807 64 70 136 255 
-2.50549 3.57808 -1.18514 64 70 136 255 
-2.41991 3.45323 -1.18844 65 66 135 255 
-2.32418 3.31057 -1.18513 68 58 131 255 
-11.9637 17.1621 6.28441 72 26 108 255 
-11.7464 16.8196 5.93307 72 35 116 255 
-12.7701 18.2715 6.2114 72 32 113 255 
-13.0577 18.6839 6.12058 71 16 99 255 
-0 0 0 68 2 86 255 
-13.5795 19.4518 5.90598 72 36 117 255 
-14.8756 21.3158 6.20684 71 17 100 255 
-14.2183 20.3823 5.69176 71 14 97 255 
-15.25 21.8439 5.87679 70 11 94 255 
-15.3407 21.9827 5.63431 71 17 100 255 
-15.5133 22.2544 5.43545 72 24 106 255 
-0 0 0 68 2 86 255 
-14.2806 20.4554 4.55166 72 38 119 255 
-14.9995 21.5017 4.52368 72 37 118 255 
-27.5111 39.495 7.83021 70 7 90 255 
-27.2496 39.1939 7.32165 69 5 89 255 
-27.3567 39.2 6.93947 69 5 89 255 
-27.5488 39.5058 6.5204 70 7 90 255 
-27.5036 39.5285 6.05784 70 11 94 255 
-8.68212 12.497 1.77412 69 53 129 255 
-8.70615 12.4752 1.64995 65 68 135 255 
-8.70303 12.4943 1.5064 65 68 135 255 
-8.12203 11.6774 1.27198 65 68 135 255 
-8.09496 11.6649 1.1374 72 38 119 255 
-8.11369 11.6306 1.02398 67 61 132 255 
-7.57929 10.8851 0.832171 57 85 140 255 
-7.56301 10.8858 0.706275 57 85 140 255 
-7.5329 10.863 0.579479 69 55 129 255 
-6.40073 9.18197 0.402596 56 89 140 255 
-6.19007 8.89659 0.287594 53 94 141 255 
-6.17738 8.89473 0.185247 55 91 141 255 
-5.97558 8.62367 0.0824031 57 86 140 255 
-5.80696 8.3333 -0.00177273 56 88 140 255 
-5.80355 8.34728 -0.0975947 54 93 141 255 
-5.59321 8.0596 -0.184941 53 94 141 255 
-5.58001 8.0588 -0.277221 60 80 139 255 
-5.40371 7.76326 -0.343531 55 91 141 255 
-5.41016 7.78726 -0.43224 55 91 141 255 
-5.20531 7.50343 -0.502574 58 84 140 255 
-5.19442 7.50472 -0.58862 59 81 139 255 
-5.01748 7.21106 -0.637416 55 91 141 255 
-5.00965 7.21615 -0.71914 53 94 141 255 
-4.85867 7.01159 -0.779336 65 66 135 255 
-4.81426 6.95549 -0.853275 51 99 141 255 
-4.81915 6.93375 -0.920294 48 105 142 255 
-4.63352 6.67685 -0.963345 52 97 141 255 
-4.63029 6.6845 -1.04168 51 99 141 255 
-4.59776 6.64765 -1.11295 62 74 137 255 
-4.37334 6.29935 -1.1201 64 69 136 255 
-4.12735 5.95189 -1.12644 62 73 137 255 
-3.92055 5.662 -1.13641 56 88 140 255 
-3.76264 5.44018 -1.15681 66 65 134 255 
-3.5762 5.15882 -1.15207 65 66 135 255 
-3.43011 4.95196 -1.1622 61 78 138 255 
-3.266 4.71672 -1.1641 63 71 136 255 
-3.1191 4.50805 -1.16822 64 70 136 255 
-3.01395 4.35261 -1.17468 64 69 136 255 
-2.91087 4.20549 -1.18456 59 82 139 255 
-2.7725 4.00699 -1.17792 63 72 137 255 
-2.66823 3.85353 -1.18254 64 70 136 255 
-2.5711 3.71999 -1.18212 62 74 137 255 
-2.49501 3.61005 -1.19064 64 69 136 255 
-2.39211 3.45851 -1.18519 67 61 132 255 
-2.2989 3.31767 -1.1826 70 51 127 255 
-12.0666 17.5382 6.39488 72 27 109 255 
-11.631 16.874 5.92696 71 42 122 255 
-14.1302 20.4842 6.93398 71 19 101 255 
-11.5949 16.8096 5.48316 72 37 118 255 
-11.685 16.9646 5.34657 72 41 121 255 
-11.6667 16.9322 5.11915 70 11 94 255 
-13.5412 19.6596 5.70029 71 19 101 255 
-14.1228 20.5125 5.70382 71 19 101 255 
-13.9526 20.2492 5.42463 72 22 104 255 
-15.2472 22.1369 5.64974 69 4 87 255 
-14.4283 20.9711 5.10029 71 13 96 255 
-0 0 0 69 4 87 255 
-14.463 20.9898 4.65074 72 24 106 255 
-14.5409 21.1194 4.42438 72 28 110 255 
-14.4519 21.0211 4.14994 69 5 89 255 
-27.0081 39.3596 7.3215 70 11 94 255 
-0 0 0 69 4 87 255 
-27.2457 39.5867 6.50605 70 8 92 255 
-0 0 0 68 2 86 255 
-8.63336 12.591 1.77991 69 56 130 255 
-8.65313 12.5628 1.65448 64 69 136 255 
-8.64537 12.5754 1.50975 64 70 136 255 
-8.06939 11.7549 1.27501 62 74 137 255 
-8.04463 11.7456 1.14043 63 71 136 255 
-5.56074 8.07623 0.708026 31 150 139 255 
-5.51302 8.02214 0.610697 31 160 136 255 
-5.49245 8.01001 0.517495 31 151 139 255 
-5.49519 8.02927 0.426507 31 151 139 255 
-5.51895 8.02151 0.350222 42 118 142 255 
-5.51459 8.03041 0.258495 38 130 142 255 
-5.50708 8.03435 0.166621 35 138 141 255 
-5.50145 8.04442 0.0765441 33 143 141 255 
-5.66562 8.23777 -0.00174498 52 97 141 255 
-5.62662 8.1997 -0.0954637 49 104 142 255 
-5.53575 8.08222 -0.184677 42 118 142 255 
-5.5062 8.0574 -0.276006 50 101 142 255 
-5.3622 7.80533 -0.34393 57 85 140 255 
-5.36566 7.82525 -0.432514 59 82 139 255 
-5.18286 7.56983 -0.504882 56 89 140 255 
-5.17304 7.57271 -0.591451 56 88 140 255 
-5.00307 7.28529 -0.641252 53 95 141 255 
-4.98274 7.27224 -0.721669 50 101 142 255 
-4.80206 7.02154 -0.777153 65 66 135 255 
-4.78048 6.99804 -0.854881 59 82 139 255 
-4.79395 6.9886 -0.923653 51 99 141 255 
-4.59696 6.71171 -0.964286 53 95 141 255 
-4.60094 6.72998 -1.04434 54 92 141 255 
-4.54739 6.66182 -1.11063 63 72 137 255 
-4.32789 6.31627 -1.11836 64 70 136 255 
-4.09578 5.98444 -1.12783 63 71 136 255 
-3.88295 5.68188 -1.1356 61 77 138 255 
-3.73196 5.46723 -1.15767 63 71 136 255 
-3.54392 5.17986 -1.15189 62 76 138 255 
-3.38248 4.94778 -1.15633 62 76 138 255 
-3.23811 4.73829 -1.16449 62 73 137 255 
-3.09855 4.5376 -1.17093 62 74 137 255 
-2.9679 4.34281 -1.16709 62 74 137 255 
-2.86413 4.1927 -1.17599 61 78 138 255 
-2.7358 4.00626 -1.17275 63 71 136 255 
-2.64782 3.87463 -1.18401 64 69 136 255 
-2.56022 3.75328 -1.18768 63 71 136 255 
-2.45487 3.59898 -1.182 63 71 136 255 
-2.36216 3.46041 -1.18085 67 62 133 255 
-2.28663 3.3436 -1.18682 69 55 129 255 
-11.3659 16.7387 6.07784 72 41 121 255 
-11.5132 16.9244 5.91974 71 42 122 255 
-13.9045 20.424 6.88459 70 10 93 255 
-11.4497 16.8189 5.46319 71 47 125 255 
-11.5056 16.9255 5.3119 71 47 125 255 
-11.5168 16.936 5.09885 71 13 96 255 
-13.101 19.2726 5.56465 72 29 111 255 
-13.6055 20.0231 5.54442 72 27 109 255 
-14.8907 21.8969 5.84147 71 13 96 255 
-14.9405 21.9791 5.58597 71 14 97 255 
-14.9625 22.0359 5.33682 71 14 97 255 
-14.4719 21.3302 4.91707 72 22 104 255 
-14.6608 21.559 4.75682 71 19 101 255 
-14.5002 21.3394 4.45175 70 8 92 255 
-14.3631 21.169 4.16166 71 19 101 255 
-14.4995 21.411 3.96616 71 17 100 255 
-0 0 0 68 2 86 255 
-0 0 0 68 2 86 255 
-0 0 0 68 1 84 255 
-8.59546 12.7022 1.78813 70 50 126 255 
-8.62395 12.6864 1.66375 66 64 134 255 
-8.60101 12.6768 1.51556 63 72 137 255 
-8.01834 11.8356 1.27839 61 77 138 255 
-7.99363 11.8261 1.14347 63 71 136 255 
-8.02249 11.806 1.03067 65 68 135 255 
-5.39703 7.95752 0.603246 42 120 142 255 
-5.41242 7.99807 0.514569 46 110 142 255 
-5.38207 7.96845 0.421515 57 85 140 255 
-5.46064 8.04199 0.349647 32 164 134 255 
-5.43661 8.0219 0.257142 30 155 138 255 
-5.43191 8.0299 0.165835 32 146 140 255 
-5.42737 8.04156 0.0761985 36 134 142 255 
-5.46277 8.04815 -0.00169768 36 170 131 255 
-5.43883 8.03122 -0.0931119 32 164 134 255 
-5.43734 8.04397 -0.183037 31 160 136 255 
-5.42257 8.04048 -0.274281 34 139 141 255 
-5.33663 7.87117 -0.345382 55 90 140 255 
-5.34778 7.9027 -0.434973 55 91 141 255 
-5.15141 7.62383 -0.506366 59 82 139 255 
-5.14489 7.63161 -0.593575 59 82 139 255 
-4.97618 7.34227 -0.643567 50 100 142 255 
-4.9598 7.33488 -0.724851 50 102 142 255 
-4.77114 7.06903 -0.779154 65 68 135 255 
-4.75358 7.05117 -0.857792 53 94 141 255 
-4.75766 7.02777 -0.924953 57 86 140 255 
-4.58016 6.77599 -0.969465 54 93 141 255 
-4.57176 6.77618 -1.04714 52 96 141 255 
-4.50034 6.68056 -1.10913 66 65 134 255 
-4.27797 6.32631 -1.11547 63 72 137 255 
-4.06064 6.01192 -1.12829 63 71 136 255 
-3.86677 5.73341 -1.14113 57 85 140 255 
-3.67853 5.46062 -1.15147 66 65 134 255 
-3.49996 5.18357 -1.14792 65 68 135 255 
-3.35315 4.97007 -1.15671 62 74 137 255 
-3.21445 4.76619 -1.16648 64 70 136 255 
-3.06628 4.55004 -1.16926 62 73 137 255 
-2.93683 4.35446 -1.16536 65 66 135 255 
-2.82365 4.18839 -1.1699 63 71 136 255 
-2.71388 4.02701 -1.17392 64 70 136 255 
-2.61911 3.88357 -1.18181 63 72 137 255 
-2.5393 3.77213 -1.18869 64 69 136 255 
-2.42358 3.60037 -1.17755 64 70 136 255 
-2.35594 3.49719 -1.18844 67 62 133 255 
-2.27305 3.3679 -1.19047 68 57 131 255 
-9.59637 14.3211 5.17851 68 59 132 255 
-9.6202 14.33 4.99155 72 31 112 255 
-9.64401 14.3544 4.81859 72 20 103 255 
-11.3334 16.8696 5.45697 71 42 122 255 
-9.59135 14.2974 4.46853 71 17 100 255 
-11.3504 16.9137 5.07107 72 24 106 255 
-12.9451 19.2969 5.54862 72 27 109 255 
-13.7148 20.4527 5.63997 71 13 96 255 
-13.6868 20.3946 5.41817 72 40 120 255 
-14.8125 22.0809 5.58865 72 27 109 255 
-14.2059 21.2003 5.11325 72 29 111 255 
-14.3266 21.3973 4.9122 72 36 117 255 
-14.6264 21.7947 4.78895 71 42 122 255 
-14.4146 21.4959 4.46587 72 27 109 255 
-14.3889 21.4896 4.20726 70 11 94 255 
-14.3943 21.539 3.97344 69 5 89 255 
-31.3228 46.6915 8.1622 69 5 89 255 
-31.3304 46.7394 7.61782 70 7 90 255 
-31.2293 46.6934 7.06658 70 7 90 255 
-8.54218 12.7918 1.79334 70 48 126 255 
-8.56588 12.7688 1.66763 66 65 134 255 
-8.56348 12.7897 1.52275 66 65 134 255 
-7.96771 11.9177 1.28196 61 78 138 255 
-7.94746 11.9147 1.1473 69 56 130 255 
-7.97767 11.8964 1.03427 64 69 136 255 
-5.30092 7.91999 0.597923 45 113 142 255 
-7.40406 11.0871 0.710372 68 57 131 255 
-7.40204 11.1054 0.585041 63 72 137 255 
-6.29572 9.39537 0.406801 55 90 140 255 
-6.09084 9.10707 0.290724 58 84 140 255 
-6.082 9.11088 0.187385 59 82 139 255 
-5.87847 8.82625 0.0832906 57 85 140 255 
-5.61252 8.37895 -0.00176016 55 91 141 255 
-5.64281 8.44355 -0.0974891 58 84 140 255 
-5.50217 8.24852 -0.18692 55 90 140 255 
-5.49054 8.25002 -0.280274 57 85 140 255 
-5.3088 7.9345 -0.346725 51 98 141 255 
-5.31916 7.96528 -0.436612 52 97 141 255 
-5.11783 7.67523 -0.507685 60 80 139 255 
-5.11012 7.68132 -0.594991 58 84 140 255 
-4.93879 7.38427 -0.64458 50 100 142 255 
-4.92521 7.38092 -0.726401 52 96 141 255 
-4.73265 7.10563 -0.779973 61 77 138 255 
-4.724 7.10091 -0.860301 54 93 141 255 
-4.72384 7.07088 -0.926795 56 88 140 255 
-4.55888 6.83453 -0.973821 51 98 141 255 
-4.55264 6.83795 -1.05235 56 89 140 255 
-4.44775 6.69072 -1.10626 62 76 138 255 
-4.20831 6.30635 -1.10738 65 66 135 255 
-4.00888 6.01452 -1.12414 62 73 137 255 
-3.83043 5.75538 -1.14081 60 79 138 255 
-3.64005 5.4757 -1.14992 64 70 136 255 
-3.473 5.21232 -1.14955 62 74 137 255 
-3.32913 5.00036 -1.15898 62 76 138 255 
-3.17809 4.77522 -1.1639 62 74 137 255 
-3.03722 4.56714 -1.16884 65 68 135 255 
-2.91871 4.3854 -1.16883 63 71 136 255 
-2.78764 4.19022 -1.16561 64 69 136 255 
-2.68428 4.0363 -1.17181 66 65 134 255 
-2.59201 3.89473 -1.18034 62 73 137 255 
-2.51504 3.78602 -1.18819 64 69 136 255 
-2.41105 3.62964 -1.18226 62 74 137 255 
-2.31312 3.47951 -1.17759 65 66 135 255 
-2.25766 3.38978 -1.19328 68 59 132 255 
-9.47926 14.3357 5.16268 63 71 136 255 
-9.52732 14.3816 4.98905 66 63 133 255 
-9.50678 14.3394 4.7939 65 66 135 255 
-9.50916 14.3436 4.62091 66 63 133 255 
-9.50184 14.3536 4.46778 66 64 134 255 
-9.51482 14.3682 4.29028 64 69 136 255 
-9.52453 14.388 4.12024 63 72 137 255 
-9.52624 14.3966 3.95376 62 76 138 255 
-9.5499 14.4207 3.81547 56 89 140 255 
-9.52661 14.3914 3.62758 54 92 141 255 
-9.50681 14.3776 3.45356 57 85 140 255 
-9.51712 14.4046 3.29341 59 81 139 255 
-9.54084 14.407 3.15273 64 70 136 255 
-9.53284 14.4063 2.98076 59 81 139 255 
-9.52138 14.4105 2.80982 61 78 138 255 
-9.5097 14.4207 2.64946 62 74 137 255 
-9.51217 14.3692 2.50164 72 31 112 255 
-13.2576 20.0428 3.25336 72 37 118 255 
-9.52636 14.4345 2.17563 71 42 122 255 
-8.48157 12.8714 1.79716 71 46 124 255 
-8.5192 12.8692 1.67389 67 61 132 255 
-8.50075 12.8661 1.5256 65 66 135 255 
-7.90596 11.9838 1.28383 69 55 129 255 
-7.91147 12.0199 1.15273 64 69 136 255 
-7.94581 12.0076 1.03968 66 65 134 255 
-7.37918 11.1728 0.840061 57 85 140 255 
-5.17924 7.8596 0.501533 37 133 142 255 
-7.34858 11.1732 0.586223 62 76 138 255 
-6.24843 9.44966 0.407484 53 94 141 255 
-6.05412 9.17347 0.291652 53 95 141 255 
-6.03974 9.1689 0.187812 58 83 139 255 
-5.83573 8.8797 0.0834555 59 82 139 255 
-5.69003 8.60844 -0.00180101 55 91 141 255 
-5.66742 8.59405 -0.0988234 59 82 139 255 
-5.47125 8.31219 -0.187599 50 100 142 255 
-5.46835 8.327 -0.281744 58 83 139 255 
-5.27984 7.99694 -0.348032 50 100 142 255 
-5.28063 8.01361 -0.437477 57 85 140 255 
-5.08655 7.73068 -0.509278 61 77 138 255 
-5.08371 7.74423 -0.597437 58 83 139 255 
-4.90768 7.43608 -0.646462 53 95 141 255 
-4.89353 7.43182 -0.728441 50 101 142 255 
-4.70482 7.15867 -0.782612 59 81 139 255 
-4.6989 7.15804 -0.863713 50 100 142 255 
-4.70116 7.13127 -0.930912 60 79 138 255 
-4.52778 6.87896 -0.976175 51 98 141 255 
-4.51441 6.87156 -1.05324 59 81 139 255 
-4.39792 6.70464 -1.10408 64 69 136 255 
-4.1641 6.32379 -1.10594 64 69 136 255 
-3.95941 6.02002 -1.1206 66 64 134 255 
-3.78637 5.76558 -1.1382 62 76 138 255 
-3.59558 5.48146 -1.14648 64 69 136 255 
-3.43447 5.22367 -1.14738 62 74 137 255 
-3.30216 5.02644 -1.16031 59 81 139 255 
-3.14281 4.78562 -1.16171 60 79 138 255 
-3.01128 4.58896 -1.16967 62 73 137 255 
-2.89657 4.41057 -1.17078 63 71 136 255 
-2.76669 4.21458 -1.16764 65 68 135 255 
-2.65946 4.05269 -1.17181 64 70 136 255 
-2.54731 3.87895 -1.1708 65 68 135 255 
-2.48646 3.79329 -1.18566 65 66 135 255 
-2.38662 3.64114 -1.18122 63 72 137 255 
-2.30176 3.50893 -1.18275 63 72 137 255 
-2.23787 3.40517 -1.19384 64 70 136 255 
-9.36339 14.3511 5.14744 62 74 137 255 
-9.38633 14.3593 4.96127 67 62 133 255 
-9.39172 14.3564 4.78021 67 61 132 255 
-9.403 14.3742 4.61209 68 58 131 255 
-9.38236 14.3638 4.45296 67 61 132 255 
-9.38933 14.3694 4.27337 66 65 134 255 
-9.38501 14.368 4.09795 66 63 133 255 
-9.38817 14.3789 3.933 62 73 137 255 
-9.41209 14.4038 3.79565 58 83 139 255 
-9.40656 14.4013 3.61544 58 84 140 255 
-9.39216 14.3954 3.44394 55 91 141 255 
-9.39262 14.4076 3.28086 59 81 139 255 
-9.41459 14.4076 3.14016 56 88 140 255 
-9.40817 14.4092 2.96937 56 88 140 255 
-9.40582 14.4273 2.80179 57 86 140 255 
-9.38707 14.4266 2.63991 57 86 140 255 
-9.42166 14.4239 2.50107 63 72 137 255 
-9.42641 14.4427 2.33491 61 78 138 255 
-9.40675 14.4453 2.16851 64 69 136 255 
-8.43221 12.969 1.80353 71 47 125 255 
-8.4602 12.952 1.67788 68 59 132 255 
-8.45426 12.968 1.53151 68 58 131 255 
-7.8839 12.1114 1.29229 66 64 134 255 
-7.8848 12.1409 1.15968 67 62 133 255 
-7.88834 12.0811 1.04184 64 69 136 255 
-7.32193 11.2354 0.841376 61 78 138 255 
-7.29956 11.2266 0.713511 70 50 126 255 
-5.01151 7.72257 0.403559 50 101 142 255 
-6.20944 9.51711 0.408742 55 91 141 255 
-6.02117 9.24647 0.292793 54 92 141 255 
-5.98554 9.20914 0.187881 60 79 138 255 
-5.80562 8.9531 0.083809 60 80 139 255 
-5.64584 8.6566 -0.0018038 54 93 141 255 
-5.63366 8.658 -0.0991594 55 91 141 255 
-5.44955 8.39088 -0.188616 54 92 141 255 
-5.42422 8.3713 -0.282112 57 85 140 255 
-5.25303 8.06352 -0.34952 54 92 141 255 
-5.23245 8.04754 -0.437568 56 88 140 255 
-5.0624 7.79776 -0.511641 58 83 139 255 
-5.05291 7.80124 -0.599432 60 79 138 255 
-4.87339 7.48361 -0.647982 52 96 141 255 
-4.86739 7.49179 -0.731378 52 96 141 255 
-4.68411 7.22333 -0.786524 54 92 141 255 
-4.67274 7.2143 -0.867025 53 94 141 255 
-4.6546 7.15581 -0.93037 62 74 137 255 
-4.4936 6.91911 -0.977941 54 93 141 255 
-4.4986 6.93991 -1.05946 59 82 139 255 
-4.35831 6.73399 -1.10449 65 68 135 255 
-4.13384 6.3625 -1.10825 65 66 135 255 
-3.92939 6.05497 -1.1226 66 63 133 255 
-3.74717 5.78291 -1.13706 61 77 138 255 
-3.55974 5.50011 -1.14579 66 65 134 255 
-3.39539 5.23391 -1.14503 61 77 138 255 
-3.26644 5.03919 -1.1586 58 83 139 255 
-3.11072 4.8007 -1.16072 63 71 136 255 
-2.97775 4.59914 -1.16759 62 73 137 255 
-2.86521 4.42171 -1.16904 64 70 136 255 
-2.75137 4.24783 -1.17215 64 70 136 255 
-2.62979 4.06159 -1.16969 65 66 135 255 
-2.52188 3.89206 -1.17007 65 66 135 255 
-2.45631 3.79792 -1.18237 63 71 136 255 
-2.35637 3.64356 -1.17729 63 72 137 255 
-2.28908 3.53673 -1.18736 62 76 138 255 
-2.21328 3.4132 -1.19188 64 69 136 255 
-9.29381 14.4373 5.15779 62 74 137 255 
-9.30482 14.4272 4.96488 67 62 133 255 
-9.31861 14.4372 4.788 66 64 134 255 
-9.30886 14.4227 4.60924 68 59 132 255 
-9.293 14.4195 4.45246 69 56 130 255 
-9.30361 14.4308 4.27457 66 64 134 255 
-9.29351 14.4204 4.09655 68 58 131 255 
-9.27865 14.4034 3.92407 64 69 136 255 
-9.3029 14.4293 3.78725 59 82 139 255 
-9.2931 14.42 3.60578 57 85 140 255 
-9.28243 14.4198 3.43608 58 83 139 255 
-9.27747 14.4237 3.27149 60 80 139 255 
-9.29989 14.4246 3.13137 57 85 140 255 
-9.2977 14.4327 2.96239 54 92 141 255 
-9.28615 14.4366 2.79248 55 91 141 255 
-9.27755 14.4515 2.634 55 90 140 255 
-9.31797 14.4582 2.49705 58 84 140 255 
-9.30274 14.4461 2.32619 58 83 139 255 
-9.28845 14.4568 2.16165 59 82 139 255 
-8.40128 13.0966 1.81407 70 52 128 255 
-8.41988 13.0647 1.68575 66 65 134 255 
-8.39821 13.0565 1.53584 68 57 131 255 
-7.83097 12.193 1.29585 64 69 136 255 
-7.82683 12.2151 1.16215 66 64 134 255 
-7.85782 12.1972 1.04767 66 63 133 255 
-7.27606 11.3162 0.844068 60 80 139 255 
-7.25211 11.3047 0.71564 60 80 139 255 
-4.95649 7.7414 0.402946 47 107 142 255 
-6.17581 9.59369 0.410396 55 91 141 255 
-5.98053 9.30847 0.293589 55 90 140 255 
-5.94727 9.27431 0.188462 60 80 139 255 
-5.78453 9.04162 0.0843038 56 89 140 255 
-5.60994 8.71799 -0.00180938 54 93 141 255 
-5.59988 8.72269 -0.0995049 57 85 140 255 
-5.40713 8.43847 -0.188937 59 81 139 255 
-5.37382 8.40611 -0.282169 62 76 138 255 
-5.22075 8.1225 -0.350681 52 97 141 255 
-5.19754 8.10219 -0.438798 57 85 140 255 
-5.02038 7.83792 -0.512246 59 82 139 255 
-5.02214 7.85901 -0.601491 60 80 139 255 
-4.84409 7.53938 -0.650225 53 95 141 255 
-4.82993 7.53494 -0.732684 57 86 140 255 
-4.64453 7.25949 -0.787343 57 86 140 255 
-4.6466 7.27134 -0.870437 50 101 142 255 
-4.60094 7.16918 -0.92842 64 69 136 255 
-4.47249 6.97999 -0.982649 53 95 141 255 
-4.46875 6.98744 -1.06251 56 89 140 255 
-4.31745 6.76144 -1.10463 67 62 133 255 
-4.09633 6.39024 -1.10868 64 70 136 255 
-3.90175 6.09395 -1.12537 63 71 136 255 
-3.70524 5.79582 -1.13511 61 78 138 255 
-3.5291 5.52683 -1.14682 63 72 137 255 
-3.36109 5.25133 -1.14431 62 73 137 255 
-3.22277 5.03928 -1.15406 65 68 135 255 
-3.07698 4.81309 -1.15912 61 78 138 255 
-2.94158 4.60496 -1.16446 61 77 138 255 
-2.83329 4.4318 -1.16709 65 66 135 255 
-2.71739 4.25232 -1.16877 63 71 136 255 
-2.609 4.0842 -1.17157 63 71 136 255 
-2.49638 3.90501 -1.16933 66 64 134 255 
-2.42359 3.79824 -1.17782 64 69 136 255 
-2.32359 3.64168 -1.17205 66 63 133 255 
-2.25956 3.53854 -1.18329 62 76 138 255 
-2.17782 3.40408 -1.184 64 69 136 255 
-9.27488 14.604 5.19692 65 66 135 255 
-9.29605 14.6096 5.00794 66 63 133 255 
-9.25882 14.5396 4.80303 66 64 134 255 
-9.27985 14.5733 4.63906 69 56 130 255 
-9.26511 14.5718 4.48185 68 59 132 255 
-9.24561 14.5359 4.28883 65 66 135 255 
-9.23825 14.5297 4.11142 67 61 132 255 
-9.2565 14.5646 3.95242 63 71 136 255 
-9.26031 14.5586 3.80621 60 79 138 255 
-9.23962 14.5321 3.61956 59 81 139 255 
-9.23162 14.5361 3.45022 59 82 139 255 
-9.25089 14.5782 3.2936 62 76 138 255 
-9.23866 14.5246 3.1407 59 81 139 255 
-9.2465 14.5485 2.97447 57 86 140 255 
-9.22913 14.5433 2.80211 56 88 140 255 
-9.22943 14.5724 2.64567 57 85 140 255 
-9.22005 14.5009 2.49461 62 73 137 255 
-9.21605 14.5062 2.32672 64 70 136 255 
-9.20435 14.5211 2.16277 62 74 137 255 
-8.33935 13.1772 1.81812 68 57 131 255 
-8.35876 13.1463 1.68963 68 57 131 255 
-8.34727 13.154 1.54126 65 68 135 255 
-7.79119 12.2964 1.30173 62 73 137 255 
-7.76452 12.2831 1.16407 65 66 135 255 
-7.79941 12.2713 1.0499 62 73 137 255 
-7.23055 11.3986 0.846886 57 86 140 255 
-7.24081 11.441 0.721439 59 81 139 255 
-7.2265 11.4408 0.593186 64 70 136 255 
-4.86528 7.66075 0.326426 48 106 142 255 
-5.93883 9.36948 0.294358 56 89 140 255 
-5.90629 9.33597 0.188975 61 78 138 255 
-5.74068 9.09555 0.0844766 57 86 140 255 
-5.57724 8.78517 -0.00181619 53 94 141 255 
-5.57247 8.79828 -0.0999753 56 89 140 255 
-5.37715 8.50614 -0.18971 56 88 140 255 
-5.30402 8.41018 -0.281207 66 64 134 255 
-5.18044 8.16957 -0.351334 52 96 141 255 
-5.12422 8.09679 -0.436794 60 79 138 255 
-4.9866 7.89137 -0.513729 61 78 138 255 
-4.97596 7.89305 -0.601749 60 79 138 255 
-4.81482 7.59592 -0.652541 52 96 141 255 
-4.80385 7.59644 -0.735784 50 102 142 255 
-4.62753 7.33164 -0.792074 54 93 141 255 
-4.61941 7.32749 -0.873749 51 98 141 255 
-4.53666 7.16536 -0.924303 65 66 135 255 
-4.44868 7.03752 -0.986887 49 103 142 255 
-4.43956 7.03654 -1.06582 58 84 140 255 
-4.26215 6.76601 -1.10108 66 65 134 255 
-4.05916 6.4186 -1.10926 62 73 137 255 
-3.85479 6.10274 -1.1226 63 72 137 255 
-3.66066 5.80426 -1.13234 58 84 140 255 
-3.49512 5.54838 -1.14682 63 71 136 255 
-3.33249 5.27768 -1.14557 61 78 138 255 
-3.17502 5.03239 -1.148 62 74 137 255 
-3.04426 4.82691 -1.15793 61 77 138 255 
-2.91275 4.6221 -1.16426 64 69 136 255 
-2.8024 4.44333 -1.16558 66 65 134 255 
-2.6902 4.26726 -1.16832 62 76 138 255 
-2.58027 4.09438 -1.16993 63 72 137 255 
-2.47755 3.92846 -1.17178 65 66 135 255 
-2.39611 3.80649 -1.1758 66 63 133 255 
-2.31354 3.67547 -1.17834 67 62 133 255 
-2.23832 3.55315 -1.18356 63 71 136 255 
-2.1574 3.41819 -1.18428 63 71 136 255 
-9.22679 14.7272 5.22051 71 45 123 255 
-9.25833 14.7494 5.03628 70 48 126 255 
-9.25245 14.7283 4.84651 70 51 127 255 
-9.24728 14.7207 4.66785 68 59 132 255 
-9.25164 14.7497 4.51903 68 58 131 255 
-9.25527 14.7502 4.33521 66 65 134 255 
-9.24764 14.7435 4.15578 66 65 134 255 
-9.24359 14.7433 3.98546 62 76 138 255 
-9.22945 14.7086 3.83055 61 78 138 255 
-9.24024 14.732 3.65514 57 85 140 255 
-9.2193 14.7154 3.4793 58 84 140 255 
-9.21704 14.7238 3.31365 62 74 137 255 
-9.21368 14.6835 3.16278 61 78 138 255 
-9.22039 14.706 2.99504 57 85 140 255 
-9.21618 14.7218 2.82556 55 90 140 255 
-9.20321 14.7302 2.66402 56 88 140 255 
-9.21188 14.6863 2.51673 61 77 138 255 
-9.19686 14.6742 2.34457 60 79 138 255 
-9.20713 14.7245 2.18461 61 78 138 255 
-8.27149 13.2492 1.82102 70 52 128 255 
-8.3033 13.2378 1.69481 69 55 129 255 
-8.29808 13.2555 1.54716 68 57 131 255 
-7.75255 12.4031 1.30797 64 70 136 255 
-7.72223 12.3838 1.1691 63 71 136 255 
-7.74887 12.3586 1.05329 64 69 136 255 
-7.19912 11.5045 0.851457 57 86 140 255 
-7.19163 11.5191 0.723567 60 79 138 255 
-7.18892 11.5375 0.595902 61 77 138 255 
-4.80227 7.66505 0.325348 41 122 142 255 
-5.87486 9.39557 0.29404 67 61 132 255 
-5.8092 9.30842 0.187693 62 74 137 255 
-5.70009 9.15522 0.0847043 60 79 138 255 
-5.54871 8.85991 -0.00182457 49 103 142 255 
-5.52792 8.84757 -0.100148 56 89 140 255 
-5.3492 8.578 -0.190577 55 91 141 255 
-5.23911 8.42135 -0.280501 61 78 138 255 
-5.14771 8.22917 -0.352532 54 93 141 255 
-5.0554 8.09758 -0.435155 59 81 139 255 
-4.96502 7.96503 -0.516532 59 82 139 255 
-4.92427 7.91835 -0.601362 61 78 138 255 
-4.77976 7.64392 -0.654133 55 91 141 255 
-4.77561 7.65537 -0.73864 51 98 141 255 
-4.58878 7.37004 -0.793165 57 86 140 255 
-4.58224 7.36837 -0.875255 54 93 141 255 
-4.46891 7.15512 -0.919427 61 78 138 255 
-4.41803 7.08491 -0.989712 53 95 141 255 
-4.40364 7.07544 -1.0676 54 93 141 255 
-4.20957 6.77436 -1.09821 65 66 135 255 
-4.0197 6.44339 -1.10926 63 72 137 255 
-3.82197 6.13382 -1.12398 67 61 132 255 
-3.62133 5.82075 -1.1312 60 80 139 255 
-3.45425 5.55885 -1.14458 62 76 138 255 
-3.29692 5.29302 -1.14449 62 74 137 255 
-3.1363 5.03927 -1.14515 65 68 135 255 
-3.00475 4.82968 -1.15415 60 79 138 255 
-2.87917 4.63158 -1.16217 61 77 138 255 
-2.76838 4.44966 -1.16276 62 73 137 255 
-2.65985 4.27707 -1.16651 62 76 138 255 
-2.54586 4.09527 -1.1657 63 72 137 255 
-2.46313 3.95923 -1.17643 66 64 134 255 
-2.37169 3.81947 -1.17529 64 69 136 255 
-2.28432 3.67894 -1.17493 66 63 133 255 
-2.20124 3.54229 -1.17542 66 64 134 255 
-2.12777 3.41751 -1.1795 66 64 134 255 
-11.264 18.2264 6.43631 70 8 92 255 
-12.8473 20.7485 7.05768 71 13 96 255 
-9.54703 15.4063 5.05024 71 13 96 255 
-11.0253 17.7925 5.62035 72 32 113 255 
-11.0896 17.9233 5.47042 72 26 108 255 
-12.4964 20.1898 5.9113 71 13 96 255 
-11.0582 17.8728 5.01861 71 45 123 255 
-12.34 19.953 5.37318 72 23 105 255 
-12.5162 20.2211 5.24605 72 22 104 255 
-12.3554 19.9697 4.93578 72 27 109 255 
-13.1984 21.3568 5.03035 72 28 110 255 
-9.13788 14.7984 3.31777 70 10 93 255 
-9.1581 14.7958 3.1748 72 41 121 255 
-9.14968 14.7942 3.0015 72 41 121 255 
-9.12775 14.7815 2.8262 72 33 115 255 
-9.12717 14.81 2.66826 72 35 116 255 
-9.14086 14.7737 2.52205 68 57 131 255 
-9.13374 14.7742 2.35154 68 59 132 255 
-9.12702 14.7976 2.18711 69 55 129 255 
-8.23379 13.3708 1.83075 69 53 129 255 
-8.23708 13.313 1.69793 66 63 133 255 
-8.24378 13.3502 1.55228 66 65 134 255 
-7.69721 12.4843 1.31153 62 73 137 255 
-7.67221 12.4734 1.17309 65 68 135 255 
-7.70228 12.4535 1.05732 63 72 137 255 
-7.14464 11.5748 0.853398 57 86 140 255 
-7.13548 11.5868 0.725057 59 82 139 255 
-7.13055 11.6019 0.596953 64 70 136 255 
-6.06752 9.81795 0.415141 55 90 140 255 
-4.68202 7.5911 0.236664 35 138 141 255 
-5.73677 9.3192 0.187197 60 80 139 255 
-5.67835 9.24626 0.0852227 55 90 140 255 
-5.50633 8.91335 -0.00182858 53 94 141 255 
-5.48822 8.90516 -0.100417 55 90 140 255 
-5.29541 8.60896 -0.190539 58 84 140 255 
-5.15649 8.40307 -0.278833 64 69 136 255 
-5.11286 8.28611 -0.353621 58 83 139 255 
-4.97995 8.08676 -0.432923 64 70 136 255 
-4.92913 8.01661 -0.517905 56 88 140 255 
-4.85994 7.9229 -0.599432 62 74 137 255 
-4.74952 7.70027 -0.656449 50 100 142 255 
-4.74318 7.7083 -0.740924 50 101 142 255 
-4.56067 7.42606 -0.796168 55 91 141 255 
-4.55255 7.42179 -0.878265 55 91 141 255 
-4.4171 7.16971 -0.917802 64 69 136 255 
-4.38384 7.12711 -0.991831 50 100 142 255 
-4.37415 7.12515 -1.07103 51 98 141 255 
-4.17517 6.81189 -1.10012 62 73 137 255 
-3.97438 6.45866 -1.10767 63 71 136 255 
-3.7884 6.16389 -1.12521 58 84 140 255 
-3.58296 5.83865 -1.13039 57 85 140 255 
-3.40721 5.55894 -1.14027 65 66 135 255 
-3.26386 5.31231 -1.14431 61 78 138 255 
-3.11097 5.06763 -1.14724 62 73 137 255 
-2.96685 4.83466 -1.15097 62 74 137 255 
-2.85121 4.64999 -1.16238 62 76 138 255 
-2.74205 4.46823 -1.1632 63 71 136 255 
-2.63509 4.2958 -1.16719 62 76 138 255 
-2.52119 4.11165 -1.16593 63 72 137 255 
-2.44081 3.97758 -1.17741 63 72 137 255 
-2.35529 3.8455 -1.17883 62 74 137 255 
-2.25163 3.67642 -1.16969 68 59 132 255 
-2.17543 3.54917 -1.17325 64 69 136 255 
-2.0932 3.40843 -1.17191 66 63 133 255 
-9.31555 15.2825 5.37644 72 24 106 255 
-9.33549 15.2857 5.17991 71 19 101 255 
-9.52065 15.5764 5.08674 71 14 97 255 
-10.8721 17.7882 5.59778 71 42 122 255 
-11.1226 18.2257 5.54177 72 37 118 255 
-11.1861 18.323 5.34454 72 35 116 255 
-12.1988 19.9893 5.59182 71 13 96 255 
-13.3498 21.8849 5.87125 72 22 104 255 
-12.459 20.4075 5.27449 72 31 112 255 
-12.2469 20.0686 4.94154 70 52 128 255 
-11.9908 19.6717 4.61601 72 33 115 255 
-12.06 19.8015 4.42276 70 8 92 255 
-12.1336 19.8745 4.24851 71 47 125 255 
-13.2802 21.7703 4.40023 72 36 117 255 
-13.362 21.9384 4.17884 70 11 94 255 
-29.1882 48.0187 8.61895 69 4 87 255 
-28.9802 47.4873 8.07615 69 4 87 255 
-28.6347 46.9595 7.44623 70 7 90 255 
-28.6387 47.0758 6.93178 69 5 89 255 
-8.17995 13.4677 1.83711 69 53 129 255 
-8.21376 13.4592 1.71012 67 62 133 255 
-8.17672 13.4252 1.55514 67 61 132 255 
-7.63909 12.562 1.31473 64 70 136 255 
-7.6188 12.5586 1.17668 66 65 134 255 
-7.64234 12.5277 1.05963 61 77 138 255 
-7.09269 11.6499 0.855715 56 88 140 255 
-7.08343 11.662 0.727026 57 85 140 255 
-7.08098 11.6813 0.598792 65 66 135 255 
-6.02589 9.88572 0.416435 57 86 140 255 
-5.8142 9.55748 0.296851 65 66 135 255 
-4.55137 7.4962 0.150014 41 123 142 255 
-5.6184 9.27579 0.0851756 57 86 140 255 
-5.46819 8.9743 -0.00183417 52 96 141 255 
-5.44957 8.96516 -0.100714 54 93 141 255 
-5.26894 8.68488 -0.1915 55 91 141 255 
-5.08413 8.40034 -0.277702 63 71 136 255 
-5.07543 8.33952 -0.354565 53 95 141 255 
-4.92868 8.11461 -0.432787 61 78 138 255 
-4.90211 8.08342 -0.520268 54 93 141 255 
-4.80968 7.95001 -0.599239 64 70 136 255 
-4.72292 7.76335 -0.659343 48 106 142 255 
-4.71182 7.76367 -0.743454 48 105 142 255 
-4.52688 7.4735 -0.79826 49 103 142 255 
-4.52547 7.48023 -0.881878 52 96 141 255 
-4.37302 7.19668 -0.917802 62 74 137 255 
-4.35444 7.17765 -0.995126 48 106 142 255 
-4.34268 7.17222 -1.07408 54 93 141 255 
-4.13279 6.83653 -1.09999 64 70 136 255 
-3.92697 6.47023 -1.1055 64 70 136 255 
-3.75102 6.18787 -1.12537 59 81 139 255 
-3.5486 5.86306 -1.13087 62 74 137 255 
-3.36845 5.57216 -1.13872 66 65 134 255 
-3.22713 5.32551 -1.14287 60 79 138 255 
-3.07524 5.07906 -1.14553 64 70 136 255 
-2.93916 4.85613 -1.15177 60 80 139 255 
-2.81857 4.6607 -1.16071 62 73 137 255 
-2.71256 4.48163 -1.16233 58 83 139 255 
-2.5996 4.29688 -1.16313 58 84 140 255 
-2.50497 4.14201 -1.17016 62 73 137 255 
-2.41486 3.98999 -1.17667 64 70 136 255 
-2.31514 3.83256 -1.17048 62 74 137 255 
-2.24599 3.71826 -1.1786 62 73 137 255 
-2.14914 3.55504 -1.17081 64 70 136 255 
-2.08666 3.44501 -1.18007 67 62 133 255 
-9.22308 15.3419 5.3773 72 31 112 255 
-9.21773 15.3032 5.16658 72 23 105 255 
-9.35377 15.5165 5.04836 72 24 106 255 
-10.7373 17.8123 5.58456 72 31 112 255 
-12.0094 19.953 6.04447 70 11 94 255 
-11.0349 18.3273 5.32594 72 28 110 255 
-12.4351 20.6605 5.75812 72 24 106 255 
-12.3183 20.4755 5.47275 71 13 96 255 
-12.2419 20.3313 5.23528 72 27 109 255 
-12.1457 20.1802 4.95059 71 16 99 255 
-11.8199 19.6617 4.59656 72 29 111 255 
-11.8406 19.7126 4.3866 71 19 101 255 
-13.1075 21.769 4.6362 72 28 110 255 
-13.1367 21.8353 4.397 71 46 124 255 
-28.3242 47.1528 8.94842 70 7 90 255 
-28.9108 48.2266 8.62425 69 4 87 255 
-29.3007 48.6817 8.24855 69 4 87 255 
-28.2383 46.9551 7.41793 69 5 89 255 
-15.7568 26.2624 3.85275 71 45 123 255 
-8.11962 13.5552 1.84221 72 28 110 255 
-8.14538 13.5332 1.71314 69 53 129 255 
-8.15568 13.5775 1.56695 69 55 129 255 
-8.16278 13.6106 1.41921 65 68 135 255 
-7.89728 13.1996 1.23218 66 64 134 255 
-7.71444 12.8222 1.08051 61 77 138 255 
-7.06218 11.7617 0.860724 58 84 140 255 
-7.04509 11.7609 0.730484 59 82 139 255 
-7.0348 11.7674 0.600982 63 71 136 255 
-5.9852 9.95591 0.417837 54 93 141 255 
-5.79093 9.65213 0.298682 58 84 140 255 
-4.47909 7.48023 0.149142 49 103 142 255 
-4.40244 7.36995 0.0674257 68 58 131 255 
-5.43208 9.03939 -0.00184062 55 90 140 255 
-5.42891 9.05589 -0.101358 52 97 141 255 
-5.23249 8.74536 -0.192122 56 88 140 255 
-5.05504 8.46915 -0.278946 62 74 137 255 
-5.04371 8.40307 -0.355944 55 90 140 255 
-4.88188 8.14984 -0.43306 60 79 138 255 
-4.87036 8.14334 -0.522192 54 92 141 255 
-4.74394 7.95109 -0.597115 66 65 134 255 
-4.70547 7.84264 -0.663613 49 104 142 255 
-4.67689 7.81382 -0.745493 52 96 141 255 
-4.5029 7.5379 -0.802172 56 89 140 255 
-4.49631 7.53605 -0.88519 54 92 141 255 
-4.34309 7.24725 -0.920836 59 82 139 255 
-4.32817 7.23406 -0.999246 50 102 142 255 
-4.30978 7.21746 -1.07687 54 92 141 255 
-4.07859 6.84134 -1.09671 64 69 136 255 
-3.8872 6.49421 -1.1055 65 66 135 255 
-3.71958 6.22179 -1.12736 51 98 141 255 
-3.51206 5.88387 -1.13071 64 69 136 255 
-3.32915 5.58426 -1.137 66 65 134 255 
-3.18783 5.33423 -1.14052 62 76 138 255 
-3.04855 5.10542 -1.14724 62 76 138 255 
-2.89977 4.85809 -1.14799 62 73 137 255 
-2.78441 4.66867 -1.15842 62 73 137 255 
-2.6725 4.47723 -1.15691 62 73 137 255 
-2.57069 4.30857 -1.162 61 77 138 255 
-2.47054 4.14228 -1.16593 64 70 136 255 
-2.38437 3.99474 -1.17374 62 74 137 255 
-2.29752 3.85666 -1.17352 61 77 138 255 
-2.2182 3.72368 -1.17598 62 73 137 255 
-2.12728 3.56816 -1.17081 62 76 138 255 
-2.06352 3.45445 -1.17894 66 65 134 255 
-9.12584 15.3932 5.37558 72 20 103 255 
-9.11238 15.3405 5.16019 72 20 103 255 
-9.3342 15.7011 5.08969 72 20 103 255 
-10.6367 17.8928 5.58923 71 42 122 255 
-12.1525 20.4741 6.17963 72 35 116 255 
-11.929 20.0901 5.81684 72 31 112 255 
-12.4173 20.9204 5.80922 72 26 108 255 
-12.9171 21.7721 5.79803 71 13 96 255 
-12.0915 20.3632 5.2243 72 28 110 255 
-12.169 20.5026 5.01127 72 35 116 255 
-11.8305 19.9557 4.64823 72 33 115 255 
-12.8438 21.683 4.80746 70 7 90 255 
-11.824 19.9128 4.22535 72 40 120 255 
-13.005 21.9198 4.39785 71 16 99 255 
-27.981 47.2357 8.9314 70 7 90 255 
-27.9917 47.3497 8.43656 69 5 89 255 
-28.5135 48.0385 8.10977 69 4 87 255 
-15.6328 26.3594 4.14901 64 70 136 255 
-15.6019 26.3697 3.85437 69 56 130 255 
-15.5917 26.3953 3.57417 69 53 129 255 
-8.72237 14.6951 1.85342 71 47 125 255 
-8.34153 14.0819 1.61923 62 74 137 255 
-8.16734 13.8096 1.43471 60 79 138 255 
-7.8202 13.2547 1.23282 68 59 132 255 
-7.72265 13.016 1.09283 61 77 138 255 
-7.02344 11.8615 0.864857 58 84 140 255 
-6.99514 11.8417 0.732826 60 79 138 255 
-6.99138 11.8594 0.603478 63 71 136 255 
-5.95254 10.0406 0.41985 51 99 141 255 
-5.73872 9.69952 0.299053 59 81 139 255 
-5.58765 9.46282 0.187983 60 80 139 255 
-4.37439 7.42612 0.0676928 37 133 142 255 
-5.38926 9.09406 -0.00184499 57 86 140 255 
-5.38546 9.10969 -0.101588 51 98 141 255 
-5.21074 8.83155 -0.19331 56 89 140 255 
-5.01261 8.51637 -0.279483 64 70 136 255 
-5.03074 8.49922 -0.358702 50 102 142 255 
-4.85413 8.21748 -0.435064 56 88 140 255 
-4.8345 8.19715 -0.52373 54 92 141 255 
-4.68747 7.96714 -0.596149 66 65 134 255 
-4.66589 7.88596 -0.664843 53 95 141 255 
-4.65216 7.88185 -0.749247 51 99 141 255 
-4.48234 7.60914 -0.806812 53 94 141 255 
-4.46209 7.58408 -0.887599 56 89 140 255 
-4.31675 7.30457 -0.924736 56 89 140 255 
-4.30439 7.29555 -1.00407 50 101 142 255 
-4.28605 7.27882 -1.08208 53 94 141 255 
-4.04306 6.87734 -1.09849 65 68 135 255 
-3.84275 6.51027 -1.1042 64 69 136 255 
-3.68434 6.24961 -1.12829 51 99 141 255 
-3.47789 5.90871 -1.13136 62 76 138 255 
-3.29283 5.60119 -1.13631 65 66 135 255 
-3.14905 5.34353 -1.13835 59 81 139 255 
-3.0072 5.10711 -1.14345 60 80 139 255 
-2.86543 4.86819 -1.1462 62 73 137 255 
-2.75224 4.67977 -1.15696 63 71 136 255 
-2.65636 4.51289 -1.1619 58 84 140 255 
-2.53038 4.30075 -1.15568 59 81 139 255 
-2.44163 4.15149 -1.16429 63 71 136 255 
-2.36325 4.01514 -1.17545 61 78 138 255 
-2.2694 3.86318 -1.17124 61 77 138 255 
-2.19042 3.72889 -1.17336 64 69 136 255 
-2.1112 3.5911 -1.17407 60 79 138 255 
-2.04131 3.4654 -1.17838 64 69 136 255 
-9.42611 16.1244 5.61062 72 23 105 255 
-9.15742 15.634 5.23992 71 13 96 255 
-9.18994 15.6767 5.06339 70 11 94 255 
-11.1699 19.0551 5.93076 72 27 109 255 
-11.8927 20.3194 6.11079 72 23 105 255 
-11.8011 20.1554 5.81467 72 20 103 255 
-12.8296 21.9205 6.06493 71 14 97 255 
-13.0215 22.2582 5.90608 71 17 100 255 
-11.8958 20.3165 5.19349 72 26 108 255 
-11.8596 20.2636 4.93496 72 40 120 255 
-11.6905 19.9982 4.64136 72 24 106 255 
-0 0 0 68 1 84 255 
-11.7155 20.0087 4.23038 71 42 122 255 
-12.5403 21.4352 4.28512 72 35 116 255 
-12.7628 21.85 4.11654 71 19 101 255 
-28.1013 48.208 8.55861 69 5 89 255 
-27.7673 47.4422 7.98018 70 7 90 255 
-15.4708 26.4548 4.14901 65 68 135 255 
-15.4408 26.4666 3.85462 66 63 133 255 
-15.4264 26.4853 3.57348 71 47 125 255 
-8.56976 14.642 1.84005 71 42 122 255 
-8.25497 14.1328 1.61923 65 66 135 255 
-8.07392 13.8448 1.4332 63 71 136 255 
-7.79135 13.3929 1.2412 66 65 134 255 
-7.64717 13.0709 1.09347 61 77 138 255 
-6.96713 11.9328 0.866923 56 89 140 255 
-6.94447 11.9224 0.735167 63 71 136 255 
-6.93907 11.9375 0.605273 64 70 136 255 
-5.90898 10.108 0.421144 53 94 141 255 
-5.73048 9.82262 0.301759 55 91 141 255 
-5.54558 9.52458 0.188531 60 79 138 255 
-5.52857 9.51859 0.0864557 65 68 135 255 
-5.33941 9.13732 -0.00184708 68 58 131 255 
-5.34406 9.16761 -0.101866 58 84 140 255 
-5.17204 8.89015 -0.193894 56 89 140 255 
-4.9723 8.56772 -0.280161 62 73 137 255 
-4.98605 8.54287 -0.359247 55 91 141 255 
-4.82071 8.27646 -0.436612 57 86 140 255 
-4.80219 8.25773 -0.525708 57 85 140 255 
-4.62748 7.97677 -0.594734 64 70 136 255 
-4.63099 7.9377 -0.666797 50 100 142 255 
-4.61273 7.92575 -0.750715 54 93 141 255 
-4.44757 7.65717 -0.808996 50 102 142 255 
-4.44343 7.65951 -0.893219 53 94 141 255 
-4.27685 7.33951 -0.92582 51 98 141 255 
-4.27053 7.3407 -1.00666 48 105 142 255 
-4.25326 7.32556 -1.08513 58 84 140 255 
-4.00078 6.90202 -1.09849 64 69 136 255 
-3.79825 6.52603 -1.1029 62 76 138 255 
-3.63997 6.26184 -1.12644 55 91 141 255 
-3.42968 5.90946 -1.12745 56 88 140 255 
-3.26136 5.6264 -1.13735 66 63 133 255 
-3.11966 5.3687 -1.13962 57 85 140 255 
-2.96841 5.11273 -1.14061 62 73 137 255 
-2.83059 4.8772 -1.14421 62 76 138 255 
-2.72544 4.69995 -1.15779 60 80 139 255 
-2.62862 4.52911 -1.1619 62 73 137 255 
-2.50541 4.31873 -1.15636 60 79 138 255 
-2.4127 4.16051 -1.16264 62 74 137 255 
-2.3303 4.01531 -1.17129 61 78 138 255 
-2.24323 3.87285 -1.16998 64 69 136 255 
-2.1675 3.74226 -1.17336 64 70 136 255 
-2.09588 3.61564 -1.17787 61 78 138 255 
-2.01133 3.46292 -1.17332 65 68 135 255 
-9.32221 16.1737 5.60775 66 65 134 255 
-9.34525 16.1815 5.40411 61 78 138 255 
-9.09888 15.7419 5.06634 70 8 92 255 
-9.34147 16.1624 5.01249 68 57 131 255 
-9.33915 16.1835 4.84964 68 57 131 255 
-9.33485 16.17 4.6483 68 57 131 255 
-9.34578 16.1952 4.46491 68 59 132 255 
-9.36386 16.2337 4.29221 69 53 129 255 
-9.34923 16.1945 4.12502 70 52 128 255 
-9.34814 16.1996 3.93118 66 63 133 255 
-9.34565 16.2145 3.74982 67 61 132 255 
-9.32867 16.1988 3.56587 68 57 131 255 
-9.32213 16.1475 3.40186 72 35 116 255 
-9.33364 16.181 3.22323 72 40 120 255 
-9.32616 16.1938 3.04008 71 45 123 255 
-9.31233 16.2031 2.86641 71 46 124 255 
-9.30959 16.1323 2.70393 70 7 90 255 
-15.3171 26.5647 4.15142 69 53 129 255 
-15.2747 26.5548 3.85375 71 47 125 255 
-15.2493 26.5545 3.57012 72 38 119 255 
-8.49417 14.7193 1.84317 72 40 120 255 
-8.1666 14.1806 1.61893 63 72 137 255 
-7.93917 13.8077 1.42429 65 68 135 255 
-7.70605 13.4353 1.24072 66 63 133 255 
-7.56384 13.1124 1.09304 60 79 138 255 
-6.92166 12.0238 0.87043 61 77 138 255 
-6.89008 11.9977 0.737189 64 70 136 255 
-6.87563 11.9972 0.606149 67 61 132 255 
-5.86182 10.17 0.422222 53 95 141 255 
-5.67658 9.86886 0.302103 55 90 140 255 
-5.50147 9.58357 0.189027 59 82 139 255 
-5.48696 9.58183 0.0867228 58 83 139 255 
-4.23937 7.35811 -0.00148213 32 146 140 255 
-5.28771 9.20023 -0.101866 62 73 137 255 
-5.1348 8.95207 -0.194554 54 93 141 255 
-4.92758 8.61195 -0.280614 63 72 137 255 
-4.95896 8.61748 -0.361098 54 92 141 255 
-4.7788 8.32148 -0.437432 54 93 141 255 
-4.76484 8.31043 -0.527192 55 90 140 255 
-4.58885 8.0232 -0.596085 62 76 138 255 
-4.59811 7.99363 -0.669113 54 92 141 255 
-4.55806 7.94353 -0.749736 59 81 139 255 
-4.41436 7.70851 -0.811543 49 103 142 255 
-4.40277 7.69786 -0.894524 52 96 141 255 
-4.2456 7.38975 -0.928853 50 101 142 255 
-4.24616 7.40295 -1.01161 48 105 142 255 
-4.20379 7.34378 -1.08399 63 72 137 255 
-3.95197 6.91526 -1.09671 66 64 134 255 
-3.76848 6.56723 -1.10594 62 76 138 255 
-3.60737 6.29435 -1.12829 52 96 141 255 
-3.39434 5.93211 -1.12778 51 99 141 255 
-3.22043 5.63518 -1.13511 66 65 134 255 
-3.0852 5.38518 -1.13908 60 79 138 255 
-2.94138 5.13851 -1.14231 62 73 137 255 
-2.79623 4.88682 -1.14242 62 74 137 255 
-2.69655 4.71658 -1.15779 62 76 138 255 
-2.59691 4.53837 -1.16016 61 78 138 255 
-2.47306 4.32387 -1.15365 60 80 139 255 
-2.38664 4.17439 -1.16241 61 77 138 255 
-2.29358 4.0085 -1.16518 61 77 138 255 
-2.21799 3.88402 -1.16922 64 69 136 255 
-2.13588 3.74041 -1.16865 62 73 137 255 
-2.06697 3.61673 -1.17407 63 72 137 255 
-1.9786 3.45521 -1.16657 66 63 133 255 
-9.18163 16.1581 5.58272 62 76 138 255 
-9.21062 16.1768 5.38355 64 69 136 255 
-9.21674 16.1741 5.18713 63 71 136 255 
-9.22539 16.19 5.00341 70 52 128 255 
-9.20474 16.1791 4.8313 68 57 131 255 
-9.22058 16.2009 4.64081 66 65 134 255 
-9.23084 16.2251 4.45748 66 64 134 255 
-9.22119 16.2155 4.27234 69 53 129 255 
-9.22989 16.2167 4.11619 60 79 138 255 
-9.21905 16.2048 3.91863 61 77 138 255 
-9.2266 16.2375 3.74197 58 83 139 255 
-9.19661 16.1985 3.55331 64 70 136 255 
-9.21995 16.1993 3.40078 59 81 139 255 
-9.22931 16.2294 3.22153 57 86 140 255 
-9.21639 16.2327 3.03671 57 86 140 255 
-9.20932 16.2539 2.86535 60 79 138 255 
-9.25203 16.2622 2.71614 55 91 141 255 
-9.24047 16.2556 2.53145 62 76 138 255 
-9.21782 16.255 2.35074 62 74 137 255 
-9.19041 16.2337 2.17491 67 62 133 255 
-8.38206 14.7331 1.83843 70 51 127 255 
-8.07502 14.2227 1.61805 67 62 133 255 
-7.79339 13.7487 1.41324 65 66 135 255 
-7.63181 13.4971 1.24208 63 71 136 255 
-7.48324 13.1586 1.09304 62 76 138 255 
-6.87781 12.1189 0.874249 63 72 137 255 
-6.87143 12.1371 0.743148 66 65 134 255 
-6.83727 12.1017 0.609303 68 58 131 255 
-5.8314 10.2623 0.424559 50 101 142 255 
-5.58337 9.84612 0.300353 54 93 141 255 
-5.46472 9.6563 0.189796 60 80 139 255 
-5.44379 9.64318 0.0869741 58 83 139 255 
-5.2901 9.31345 -0.00186942 67 62 133 255 
-4.11562 7.26368 -0.0801434 33 142 141 255 
-4.06254 7.18447 -0.155594 62 73 137 255 
-4.08741 7.24638 -0.235296 59 81 139 255 
-4.92226 8.67643 -0.362295 57 85 140 255 
-4.73503 8.36368 -0.438115 56 89 140 255 
-4.68477 8.28822 -0.52395 62 74 137 255 
-4.41701 7.83389 -0.579996 66 64 134 255 
-4.56669 8.05293 -0.671718 53 94 141 255 
-4.53377 8.01472 -0.753816 62 73 137 255 
-4.37579 7.75106 -0.813181 52 96 141 255 
-4.35106 7.71693 -0.893621 60 80 139 255 
-4.21341 7.43902 -0.931779 50 102 142 255 
-4.20505 7.43664 -1.01267 49 104 142 255 
-4.15719 7.36684 -1.08361 63 72 137 255 
-3.91578 6.95059 -1.09849 65 66 135 255 
-3.7403 6.61176 -1.10955 54 93 141 255 
-3.56576 6.3112 -1.12736 52 96 141 255 
-3.36175 5.9597 -1.12908 47 108 142 255 
-3.18095 5.64626 -1.13338 66 64 134 255 
-3.05113 5.4023 -1.13871 62 76 138 255 
-2.89676 5.13338 -1.1372 63 71 136 255 
-2.76426 4.90047 -1.14163 62 73 137 255 
-2.66084 4.72111 -1.15488 64 69 136 255 
-2.55558 4.53041 -1.1541 60 79 138 255 
-2.4637 4.36951 -1.16178 61 78 138 255 
-2.36051 4.18811 -1.16217 57 85 140 255 
-2.27466 4.03263 -1.16811 62 74 137 255 
-2.18794 3.88659 -1.16593 62 76 138 255 
-2.10295 3.73578 -1.16315 62 76 138 255 
-2.03529 3.61258 -1.16864 63 72 137 255 
-1.94887 3.45224 -1.16151 65 66 135 255 
-9.10338 16.2518 5.59566 65 66 135 255 
-9.11354 16.2372 5.38494 65 66 135 255 
-9.11779 16.2312 5.1874 66 65 134 255 
-9.08047 16.1655 4.97852 70 52 128 255 
-9.09629 16.2192 4.82653 69 56 130 255 
-9.08776 16.1979 4.6239 67 62 133 255 
-9.09209 16.2119 4.43844 68 58 131 255 
-9.09245 16.2199 4.25872 69 56 130 255 
-9.10823 16.2339 4.10628 61 78 138 255 
-9.11131 16.2465 3.91514 60 80 139 255 
-9.09997 16.2459 3.73096 58 84 140 255 
-9.08361 16.2306 3.54807 61 77 138 255 
-9.11653 16.2487 3.39934 57 85 140 255 
-9.10353 16.2393 3.21235 56 88 140 255 
-9.09926 16.2579 3.03093 56 88 140 255 
-9.08917 16.2738 2.85898 58 83 139 255 
-9.1148 16.2522 2.70507 55 91 141 255 
-9.10131 16.242 2.52058 62 73 137 255 
-9.08982 16.261 2.3435 63 72 137 255 
-9.07175 16.2559 2.1704 67 62 133 255 
-8.29248 14.786 1.83865 69 56 130 255 
-7.98322 14.2642 1.61716 63 71 136 255 
-7.74338 13.858 1.41957 65 66 135 255 
-7.57603 13.5924 1.24655 63 72 137 255 
-7.46284 13.3121 1.10197 62 76 138 255 
-6.82232 12.1949 0.876691 63 72 137 255 
-6.81971 12.22 0.745649 66 65 134 255 
-6.78427 12.1819 0.611229 69 55 129 255 
-5.78883 10.3345 0.426068 56 89 140 255 
-5.45359 9.75629 0.296586 51 98 141 255 
-5.41803 9.71236 0.190241 59 81 139 255 
-5.40835 9.71922 0.0873589 55 91 141 255 
-5.25044 9.37715 -0.00187571 56 88 140 255 
-4.05781 7.26523 -0.0798842 52 96 141 255 
-4.04418 7.25554 -0.156593 33 142 141 255 
-4.04967 7.28355 -0.235692 38 130 142 255 
-4.07679 7.28999 -0.303353 31 161 135 255 
-4.06975 7.29259 -0.380692 31 158 137 255 
-4.07349 7.31112 -0.460592 31 156 137 255 
-4.05714 7.29998 -0.538613 31 148 140 255 
-4.0865 7.31033 -0.607673 35 138 141 255 
-4.07678 7.31118 -0.68528 31 148 140 255 
-4.0715 7.31657 -0.764962 31 154 138 255 
-4.07453 7.33126 -0.846049 31 152 139 255 
-4.10469 7.35189 -0.917694 37 133 142 255 
-4.10374 7.36255 -0.999129 34 140 141 255 
-4.07575 7.3272 -1.07408 38 129 142 255 
-3.86056 6.95197 -1.09494 65 66 135 255 
-3.70785 6.64928 -1.11201 59 82 139 255 
-3.51832 6.31742 -1.1246 53 95 141 255 
-3.32512 5.98021 -1.12908 47 107 142 255 
-3.15868 5.68806 -1.13786 64 69 136 255 
-3.01314 5.41232 -1.13691 61 78 138 255 
-2.85948 5.14076 -1.13492 61 77 138 255 
-2.73319 4.91563 -1.14123 61 78 138 255 
-2.61709 4.71085 -1.14842 64 70 136 255 
-2.51967 4.5315 -1.15042 62 76 138 255 
-2.43401 4.37944 -1.16042 61 78 138 255 
-2.31824 4.17278 -1.15395 62 74 137 255 
-2.25364 4.05329 -1.17007 62 76 138 255 
-2.16405 3.89995 -1.16593 62 76 138 255 
-2.07858 3.74608 -1.16236 63 72 137 255 
-2.01169 3.62247 -1.16783 61 78 138 255 
-1.94911 3.50271 -1.17444 62 74 137 255 
-9.07801 16.4423 5.64198 64 70 136 255 
-9.09233 16.4349 5.43189 65 66 135 255 
-9.07402 16.3879 5.21961 65 66 135 255 
-9.06017 16.3637 5.02234 70 48 126 255 
-9.04671 16.3654 4.85341 70 48 126 255 
-9.0624 16.3875 4.66207 69 55 129 255 
-9.05033 16.3721 4.467 68 57 131 255 
-9.04272 16.3658 4.28238 70 52 128 255 
-9.04673 16.3587 4.12373 67 61 132 255 
-9.05311 16.3775 3.93324 63 72 137 255 
-9.03376 16.3624 3.74491 64 70 136 255 
-9.03984 16.3876 3.57018 65 68 135 255 
-9.0238 16.3172 3.40204 62 74 137 255 
-9.03326 16.3483 3.22289 60 80 139 255 
-9.01745 16.3463 3.03703 62 76 138 255 
-9.01012 16.3674 2.86565 61 77 138 255 
-9.01107 16.3009 2.70393 59 82 139 255 
-8.99909 16.2932 2.51991 66 64 134 255 
-8.99131 16.3191 2.34388 65 68 135 255 
-8.98907 16.3426 2.17457 68 57 131 255 
-8.14148 14.7278 1.82517 69 55 129 255 
-7.89555 14.3129 1.61716 63 72 137 255 
-7.67742 13.9402 1.42313 65 66 135 255 
-7.52176 13.6919 1.25142 63 71 136 255 
-7.38632 13.3673 1.10277 62 73 137 255 
-6.76568 12.2697 0.879071 62 76 138 255 
-6.76048 12.2905 0.747404 66 64 134 255 
-6.75699 12.31 0.615565 66 64 134 255 
-5.75381 10.4214 0.428189 52 97 141 255 
-5.36227 9.73265 0.294862 51 99 141 255 
-5.34678 9.72439 0.189831 56 88 140 255 
-5.34284 9.7417 0.0872647 59 82 139 255 
-5.20826 9.4372 -0.00188129 54 92 141 255 
-5.06201 9.19526 -0.100762 61 78 138 255 
-5.01922 9.13621 -0.196514 60 79 138 255 
-4.85085 8.85197 -0.285476 61 78 138 255 
-4.84581 8.79132 -0.364582 61 78 138 255 
-4.66766 8.48593 -0.441485 59 81 139 255 
-4.67066 8.50525 -0.534006 62 76 138 255 
-4.48115 8.1807 -0.601556 62 76 138 255 
-4.14504 7.52308 -0.623232 59 81 139 255 
-4.15618 7.56228 -0.706412 64 69 136 255 
-4.22959 7.71163 -0.803537 54 93 141 255 
-4.24217 7.74443 -0.89071 58 83 139 255 
-4.05806 7.37433 -0.917369 37 132 142 255 
-4.06518 7.39978 -1.00078 40 124 142 255 
-4.02451 7.34076 -1.07243 50 102 142 255 
-3.81973 6.97901 -1.09549 64 70 136 255 
-3.66317 6.66497 -1.11085 49 104 142 255 
-3.47378 6.3285 -1.12275 51 99 141 255 
-3.2841 5.99272 -1.12762 49 103 142 255 
-3.11379 5.68919 -1.13425 63 72 137 255 
