ply
format ascii 1.0
comment VTK generated PLY File
obj_info vtkPolyData points and polygons: vtk4.0
element vertex 1250
property float x
property float y
property float z
property uchar red
property uchar green
property uchar blue
property uchar alpha
element face 0
property list uchar int vertex_indices
end_header
7.2565 -9.63333 3.62294 63 72 137 255 
9.63267 -12.765 4.62483 72 20 103 255 
9.73136 -12.8862 4.49945 72 36 117 255 
7.94851 -10.5258 3.5416 72 31 112 255 
8.14374 -10.7994 3.51062 69 55 129 255 
8.23857 -10.9215 3.40584 62 76 138 255 
8.72515 -11.5706 3.4604 70 7 90 255 
0 -0 0 68 1 84 255 
8.09915 -10.7364 2.96672 72 20 103 255 
8.12452 -10.7742 2.83628 58 84 140 255 
8.20725 -10.8956 2.73315 58 83 139 255 
8.61921 -11.4513 2.73408 71 47 125 255 
23.0983 -30.6196 6.99792 71 13 96 255 
21.4687 -28.4808 6.15417 70 10 93 255 
20.8722 -27.7292 5.64613 71 13 96 255 
22.2603 -29.6281 5.68401 70 10 93 255 
22.1266 -29.3421 5.33501 71 19 101 255 
21.5571 -28.6085 4.84958 70 8 92 255 
20.4997 -27.2641 4.2911 72 23 105 255 
20.3656 -27.1261 3.95471 72 22 104 255 
13.6494 -18.1004 2.45875 72 24 106 255 
13.5395 -17.9879 2.22736 72 29 111 255 
13.6205 -18.1215 2.02719 72 28 110 255 
13.5934 -18.1255 1.81493 70 51 127 255 
13.6714 -18.1362 1.63996 71 42 122 255 
13.6904 -18.195 1.42859 71 44 122 255 
13.3924 -17.8374 1.18849 72 41 121 255 
13.4612 -17.9622 0.983958 72 31 112 255 
13.6431 -18.1118 0.815616 72 37 118 255 
22.1713 -29.4878 0.978965 72 20 103 255 
22.1594 -29.525 0.631474 71 16 99 255 
24.8189 -33.1417 0.325199 69 5 89 255 
0 -0 -0 68 2 86 255 
0 -0 -0 68 2 86 255 
0 -0 -0 68 2 86 255 
0 -0 -0 68 2 86 255 
0 -0 -0 68 2 86 255 
24.9641 -33.2505 -1.89536 70 8 92 255 
20.8152 -27.7642 -1.90968 71 13 96 255 
17.9287 -23.967 -1.93029 72 26 108 255 
10.3474 -13.7616 -1.24929 72 22 104 255 
9.20153 -12.2647 -1.25519 72 29 111 255 
8.32443 -11.1156 -1.26872 72 31 112 255 
7.58503 -10.1396 -1.2773 72 41 121 255 
6.99649 -9.31515 -1.26971 71 45 123 255 
6.48722 -8.64997 -1.28163 68 58 131 255 
6.01153 -8.03013 -1.285 71 44 122 255 
5.57778 -7.46178 -1.28277 71 45 123 255 
5.18538 -6.91136 -1.26203 68 59 132 255 
4.84851 -6.46963 -1.25737 68 58 131 255 
4.52828 -6.05103 -1.24712 68 57 131 255 
4.26701 -5.70827 -1.24639 67 62 133 255 
4.04732 -5.40232 -1.2389 63 72 137 255 
3.86131 -5.15799 -1.24309 48 106 142 255 
3.65877 -4.88912 -1.23906 47 108 142 255 
3.49963 -4.68 -1.24533 53 95 141 255 
3.34701 -4.47243 -1.23944 51 98 141 255 
3.21017 -4.2913 -1.2412 51 98 141 255 
3.07236 -4.10851 -1.24018 63 72 137 255 
2.94943 -3.94135 -1.24199 65 68 135 255 
2.8354 -3.79568 -1.23852 66 65 134 255 
2.74691 -3.67737 -1.24537 69 56 130 255 
2.63765 -3.52847 -1.24161 69 56 130 255 
2.54544 -3.39903 -1.24417 68 58 131 255 
7.18583 -9.66231 3.61719 68 58 131 255 
9.56163 -12.8339 4.62844 72 28 110 255 
9.59107 -12.8638 4.471 70 51 127 255 
9.53419 -12.788 4.28301 72 35 116 255 
7.93571 -10.659 3.44906 66 63 133 255 
8.43397 -11.3244 3.51528 60 79 138 255 
8.52678 -11.453 3.40954 70 10 93 255 
8.16651 -10.9735 3.13287 70 11 94 255 
8.03545 -10.789 2.96759 72 24 106 255 
8.09039 -10.8671 2.8476 62 74 137 255 
8.16248 -10.9757 2.74061 66 64 134 255 
8.52359 -11.47 2.72602 71 19 101 255 
20.4732 -27.4889 6.25358 71 13 96 255 
21.9007 -29.4278 6.32965 69 4 87 255 
22.5038 -30.2817 6.13764 69 5 89 255 
20.5976 -27.7683 5.30287 69 4 87 255 
22.1471 -29.7472 5.38386 70 7 90 255 
21.949 -29.5035 4.97838 70 7 90 255 
20.3356 -27.3942 4.29185 70 7 90 255 
21.8094 -29.4234 4.27004 70 8 92 255 
20.8773 -28.0417 3.7917 69 5 89 255 
13.4307 -18.0731 2.22766 72 40 120 255 
13.5299 -18.2327 2.03031 72 35 116 255 
13.4944 -18.2254 1.81661 72 36 117 255 
13.5307 -18.1806 1.63643 71 45 123 255 
13.2553 -17.8436 1.39459 72 40 120 255 
13.3606 -18.0243 1.19546 72 35 116 255 
13.5515 -18.3159 0.99876 72 36 117 255 
13.6963 -18.4165 0.825537 72 32 113 255 
12.7795 -17.2156 0.568927 72 22 104 255 
22.1671 -29.9158 0.636913 71 13 96 255 
23.2644 -31.4665 0.307355 70 11 94 255 
0 -0 -0 68 2 86 255 
57.5078 -77.5269 -0.926626 69 4 87 255 
0 -0 -0 68 2 86 255 
0 -0 -0 68 1 84 255 
0 -0 -0 68 2 86 255 
24.4943 -33.0451 -1.87505 70 7 90 255 
20.3569 -27.503 -1.88309 71 14 97 255 
17.7107 -23.981 -1.92263 71 17 100 255 
10.2818 -13.8505 -1.2516 72 31 112 255 
9.13856 -12.3378 -1.2569 72 33 115 255 
8.25429 -11.1641 -1.26845 72 33 115 255 
7.51144 -10.1708 -1.2754 72 35 116 255 
6.96229 -9.38904 -1.27394 70 52 128 255 
6.46298 -8.72871 -1.2874 69 55 129 255 
5.99398 -8.10994 -1.29187 70 52 128 255 
5.53189 -7.49586 -1.28277 71 42 122 255 
5.15937 -6.96531 -1.26607 67 62 133 255 
4.82811 -6.52547 -1.26245 66 63 133 255 
4.5157 -6.11203 -1.25396 66 64 134 255 
4.23892 -5.74386 -1.24846 67 61 132 255 
4.02053 -5.43575 -1.24089 63 72 137 255 
3.82959 -5.18158 -1.24309 48 105 142 255 
3.6287 -4.91148 -1.23906 47 107 142 255 
3.47085 -4.70138 -1.24533 50 100 142 255 
3.32124 -4.49523 -1.24009 52 97 141 255 
3.18493 -4.31248 -1.24165 50 100 142 255 
3.05922 -4.1437 -1.24512 52 96 141 255 
2.93613 -3.9742 -1.24664 65 68 135 255 
2.81435 -3.81612 -1.23953 65 68 135 255 
2.72143 -3.69028 -1.24406 67 61 132 255 
2.61252 -3.53994 -1.23999 68 57 131 255 
2.53252 -3.42539 -1.24811 68 59 132 255 
7.08049 -9.64369 3.59388 71 16 99 255 
9.45367 -12.8528 4.61427 71 13 96 255 
9.48512 -12.8859 4.45838 69 5 89 255 
8.29621 -11.2712 3.75788 71 16 99 255 
7.90283 -10.7519 3.46338 64 69 136 255 
8.51091 -11.5753 3.57688 70 48 126 255 
8.23457 -11.2034 3.32012 71 45 123 255 
8.20926 -11.1735 3.17551 72 29 111 255 
8.0848 -10.9955 3.01067 61 78 138 255 
8.09427 -11.0127 2.87269 71 47 125 255 
14.5361 -19.7986 4.92131 72 35 116 255 
20.1838 -27.5119 6.50906 70 11 94 255 
20.1975 -27.4689 6.22073 70 11 94 255 
24.0092 -32.6778 6.99687 69 5 89 255 
20.6354 -28.1265 5.67504 71 17 100 255 
16.4113 -22.4107 4.26043 71 13 96 255 
16.3915 -22.3009 4.01789 72 20 103 255 
21.6825 -29.5219 4.95892 71 13 96 255 
22.8222 -31.1413 4.85688 69 4 87 255 
14.6982 -20.086 2.90182 70 8 92 255 
14.7027 -20.0033 2.69252 71 13 96 255 
13.3849 -18.2442 2.23859 72 41 121 255 
13.2582 -18.0977 2.00617 72 36 117 255 
13.3617 -18.2797 1.81381 72 37 118 255 
13.5004 -18.3742 1.64637 70 50 126 255 
12.9307 -17.6316 1.3718 72 40 120 255 
12.6146 -17.2381 1.13816 72 36 117 255 
13.4984 -18.4802 1.00318 72 26 108 255 
13.5943 -18.5155 0.82622 72 32 113 255 
12.6459 -17.2558 0.567681 72 23 105 255 
21.9861 -30.0553 0.636999 71 17 100 255 
0 -0 0 68 2 86 255 
0 -0 -0 68 2 86 255 
0 -0 -0 68 2 86 255 
0 -0 -0 68 2 86 255 
0 -0 -0 69 4 87 255 
0 -0 -0 69 4 87 255 
24.4344 -33.3907 -1.88611 70 10 93 255 
20.1536 -27.5806 -1.8799 70 11 94 255 
17.5627 -24.0884 -1.92257 71 14 97 255 
10.1896 -13.9036 -1.25073 72 28 110 255 
9.07975 -12.417 -1.25927 72 33 115 255 
8.18681 -11.2161 -1.26863 72 32 113 255 
7.47761 -10.2561 -1.28031 72 33 115 255 
6.92099 -9.45405 -1.27697 71 42 122 255 
6.41399 -8.77462 -1.28834 69 55 129 255 
5.94411 -8.14657 -1.29187 66 64 134 255 
5.4852 -7.52886 -1.28264 71 42 122 255 
5.11946 -7.00083 -1.2668 67 61 132 255 
4.79789 -6.56854 -1.26506 66 63 133 255 
4.47462 -6.13484 -1.25298 64 69 136 255 
4.21346 -5.78329 -1.25139 68 58 131 255 
3.9987 -5.47621 -1.2445 64 70 136 255 
3.79946 -5.20736 -1.24366 51 99 141 255 
3.60832 -4.94711 -1.24244 50 102 142 255 
3.43963 -4.71943 -1.2445 52 97 141 255 
3.29878 -4.52263 -1.24204 50 101 142 255 
3.17391 -4.3532 -1.24774 50 102 142 255 
3.03545 -4.16475 -1.24582 53 94 141 255 
2.91455 -3.99605 -1.24786 65 66 135 255 
2.79145 -3.8341 -1.23978 68 58 131 255 
2.69362 -3.69988 -1.2417 70 51 127 255 
2.57885 -3.53957 -1.23429 69 53 129 255 
2.50071 -3.42613 -1.24277 68 57 131 255 
0 -0 0 68 2 86 255 
0 -0 0 68 2 86 255 
8.42282 -11.5911 3.99241 72 26 108 255 
8.23201 -11.3289 3.76021 72 33 115 255 
8.24372 -11.3611 3.64326 71 44 122 255 
8.49957 -11.7098 3.60225 72 23 105 255 
8.49127 -11.7024 3.4525 69 55 129 255 
7.94482 -10.9538 3.09916 71 45 123 255 
8.12387 -11.1919 3.05074 66 63 133 255 
14.3582 -19.7885 5.1388 72 29 111 255 
20.3683 -28.102 6.95408 71 14 97 255 
19.9138 -27.496 6.47627 71 14 97 255 
20.1297 -27.7317 6.25214 71 16 99 255 
20.0226 -27.6052 5.88432 69 5 89 255 
16.0247 -22.1253 4.44426 72 28 110 255 
16.1716 -22.37 4.23375 72 28 110 255 
16.2642 -22.4146 4.02033 72 37 118 255 
20.9612 -28.9098 4.83442 71 14 97 255 
20.1107 -27.7976 4.31606 70 7 90 255 
14.4217 -19.964 2.87136 72 28 110 255 
14.6422 -20.1792 2.70406 72 31 112 255 
13.2733 -18.3268 2.23869 72 22 104 255 
12.6648 -17.512 1.9326 72 33 115 255 
13.1945 -18.2853 1.80631 72 32 113 255 
13.3106 -18.3509 1.63694 72 33 115 255 
12.5753 -17.3695 1.34537 70 48 126 255 
12.4922 -17.2925 1.13667 70 50 126 255 
12.4405 -17.2531 0.932413 72 36 117 255 
12.5203 -17.274 0.767376 72 26 108 255 
12.4835 -17.2553 0.565134 70 10 93 255 
22.6395 -31.3504 0.661491 70 11 94 255 
0 -0 0 68 2 86 255 
0 -0 -0 68 2 86 255 
0 -0 -0 68 2 86 255 
0 -0 -0 68 2 86 255 
0 -0 -0 68 2 86 255 
0 -0 -0 69 4 87 255 
24.2185 -33.5254 -1.88529 70 10 93 255 
20.0588 -27.8074 -1.88693 70 10 93 255 
17.3399 -24.0921 -1.91433 71 17 100 255 
10.1549 -14.0362 -1.25703 72 31 112 255 
9.04364 -12.5282 -1.2649 72 33 115 255 
8.1516 -11.313 -1.2739 72 33 115 255 
7.43837 -10.3349 -1.28443 72 28 110 255 
6.87508 -9.51326 -1.27925 71 47 125 255 
6.36932 -8.8267 -1.29023 67 62 133 255 
5.90039 -8.19174 -1.29326 67 61 132 255 
5.45915 -7.59053 -1.28741 71 46 124 255 
5.08162 -7.03933 -1.2681 68 59 132 255 
4.72976 -6.55938 -1.25768 67 62 133 255 
4.43632 -6.16138 -1.25282 67 62 133 255 
4.19515 -5.83303 -1.25656 68 57 131 255 
3.97192 -5.51022 -1.24667 61 78 138 255 
3.77375 -5.23934 -1.24575 50 101 142 255 
3.57331 -4.96279 -1.24085 48 106 142 255 
3.41404 -4.74521 -1.24575 51 99 141 255 
3.27667 -4.55071 -1.24421 54 93 141 255 
3.14088 -4.36389 -1.24526 49 104 142 255 
3.00587 -4.17777 -1.24418 51 98 141 255 
2.88884 -4.01229 -1.24737 66 63 133 255 
2.76901 -3.85273 -1.24029 67 62 133 255 
2.66467 -3.70772 -1.23882 70 52 128 255 
2.56158 -3.56158 -1.23646 68 57 131 255 
2.47515 -3.43518 -1.24052 69 53 129 255 
8.5092 -11.8928 4.39281 71 19 101 255 
8.43673 -11.7702 4.1881 71 46 124 255 
8.37007 -11.6684 4.00127 72 38 119 255 
8.12068 -11.3212 3.74102 71 45 123 255 
8.277 -11.5555 3.68924 72 33 115 255 
8.30379 -11.589 3.54934 62 74 137 255 
8.45046 -11.7978 3.46528 71 47 125 255 
8.34788 -11.6593 3.28423 72 28 110 255 
8.2945 -11.5757 3.14143 71 13 96 255 
14.0696 -19.6431 5.07853 72 28 110 255 
14.0627 -19.6549 4.84234 72 23 105 255 
19.8652 -27.7863 6.51581 71 16 99 255 
14.314 -19.9764 4.48382 71 19 101 255 
15.7757 -22.0331 4.67586 72 22 104 255 
15.8289 -22.1397 4.42757 72 31 112 255 
16.0306 -22.464 4.23284 72 32 113 255 
16.1143 -22.4971 4.01731 72 28 110 255 
16.1538 -22.5696 3.75753 72 36 117 255 
21.1375 -29.5975 4.5753 70 10 93 255 
14.2141 -19.9333 2.85434 72 32 113 255 
14.4284 -20.1434 2.68734 72 35 116 255 
13.0888 -18.3075 2.22648 72 22 104 255 
12.2863 -17.21 1.89092 71 46 124 255 
12.5297 -17.5906 1.73005 71 19 101 255 
12.5387 -17.5118 1.55519 72 37 118 255 
12.4476 -17.4171 1.34312 72 41 121 255 
12.3581 -17.3298 1.13412 72 22 104 255 
12.2933 -17.2714 0.929303 72 37 118 255 
12.392 -17.3196 0.76601 72 28 110 255 
24.3335 -34.0734 1.11104 71 13 96 255 
22.2029 -31.1468 0.654307 71 17 100 255 
0 -0 0 68 2 86 255 
0 -0 -0 68 1 84 255 
0 -0 -0 68 1 84 255 
0 -0 -0 68 2 86 255 
0 -0 -0 68 2 86 255 
31.9794 -44.7617 -1.99796 69 5 89 255 
23.8308 -33.4188 -1.87104 70 10 93 255 
20.0372 -28.1398 -1.90111 70 10 93 255 
17.1444 -24.1313 -1.90906 72 24 106 255 
11.1896 -15.668 -1.39699 72 27 109 255 
8.95156 -12.5623 -1.26278 72 27 109 255 
8.08319 -11.3645 -1.27409 72 29 111 255 
7.36156 -10.3617 -1.28212 72 35 116 255 
6.82928 -9.57307 -1.28163 70 48 126 255 
6.32311 -8.87693 -1.29188 68 58 131 255 
5.87243 -8.25932 -1.29822 67 62 133 255 
5.42738 -7.64488 -1.29096 71 44 122 255 
5.03603 -7.06716 -1.26752 68 59 132 255 
4.69343 -6.59392 -1.25876 69 55 129 255 
4.41958 -6.21824 -1.25884 63 72 137 255 
4.16954 -5.87312 -1.25966 68 57 131 255 
3.94203 -5.54009 -1.24793 58 84 140 255 
3.74779 -5.2712 -1.24783 52 96 141 255 
3.54336 -4.98542 -1.24105 48 106 142 255 
3.38939 -4.77245 -1.24742 51 99 141 255 
3.23511 -4.55163 -1.23901 52 97 141 255 
3.12025 -4.39182 -1.24774 49 104 142 255 
2.97736 -4.19218 -1.243 52 97 141 255 
2.86024 -4.02441 -1.24566 61 78 138 255 
2.75259 -3.8799 -1.24358 68 58 131 255 
2.63964 -3.72085 -1.23778 70 52 128 255 
2.55361 -3.59685 -1.24324 68 57 131 255 
2.45124 -3.4464 -1.23911 71 47 125 255 
8.39739 -11.89 4.37267 69 53 129 255 
8.3699 -11.8296 4.19088 71 47 125 255 
8.28885 -11.7061 3.99671 69 55 129 255 
8.02707 -11.3369 3.72987 71 44 122 255 
8.18415 -11.5753 3.67944 63 71 136 255 
8.27287 -11.6967 3.56673 62 73 137 255 
7.72654 -10.9282 3.19586 71 46 124 255 
8.37464 -11.8496 3.3233 72 29 111 255 
8.17934 -11.5642 3.12463 71 16 99 255 
8.24894 -11.6672 3.00331 72 26 108 255 
8.32338 -11.7854 2.8909 66 63 133 255 
8.33242 -11.8074 2.75675 72 40 120 255 
20.5053 -28.991 6.47884 70 7 90 255 
15.6777 -22.1826 4.68708 72 35 116 255 
15.7423 -22.3066 4.44153 72 33 115 255 
15.753 -22.3639 4.19569 72 24 106 255 
15.7068 -22.215 3.94965 72 31 112 255 
16.1105 -22.8034 3.77993 72 20 103 255 
16.4067 -23.274 3.58215 72 27 109 255 
14.1024 -20.0355 2.85654 71 14 97 255 
13.9492 -19.7291 2.6206 72 22 104 255 
12.2486 -17.3565 2.10164 72 37 118 255 
12.1971 -17.3087 1.8935 72 35 116 255 
12.1355 -17.2602 1.69021 71 44 122 255 
12.0816 -17.094 1.51148 72 38 119 255 
12.3123 -17.4532 1.34005 71 47 125 255 
12.2026 -17.3359 1.12959 72 40 120 255 
12.167 -17.3179 0.927771 72 35 116 255 
15.5785 -22.058 0.971334 70 8 92 255 
15.5687 -22.0856 0.717021 70 7 90 255 
0 -0 0 68 2 86 255 
0 -0 0 68 2 86 255 
0 -0 -0 68 2 86 255 
0 -0 -0 68 2 86 255 
0 -0 -0 68 1 84 255 
0 -0 -0 68 2 86 255 
0 -0 -0 68 2 86 255 
0 -0 -0 69 4 87 255 
19.8601 -28.2565 -1.90073 70 10 93 255 
17.0229 -24.2745 -1.91208 71 19 101 255 
10.9094 -15.4755 -1.37383 70 48 126 255 
8.87775 -12.6219 -1.26327 72 31 112 255 
7.99728 -11.391 -1.27154 72 29 111 255 
7.29385 -10.4009 -1.28142 72 37 118 255 
6.80189 -9.65949 -1.28759 70 48 126 255 
6.26395 -8.90907 -1.29093 68 59 132 255 
5.81993 -8.29276 -1.29784 68 58 131 255 
5.38265 -7.68129 -1.2915 70 51 127 255 
4.992 -7.09711 -1.26737 67 61 132 255 
4.66424 -6.63876 -1.26183 68 59 132 255 
4.38304 -6.24766 -1.25933 68 59 132 255 
4.13117 -5.89536 -1.25897 67 61 132 255 
3.91984 -5.58108 -1.25172 60 80 139 255 
3.71199 -5.28928 -1.24669 51 99 141 255 
3.52565 -5.02553 -1.24563 49 104 142 255 
3.36004 -4.79315 -1.24742 50 100 142 255 
3.21553 -4.58338 -1.24226 51 98 141 255 
3.09492 -4.41328 -1.24842 49 103 142 255 
2.95103 -4.20957 -1.24277 55 91 141 255 
2.83493 -4.04109 -1.24541 59 81 139 255 
2.73484 -3.90544 -1.24636 67 62 133 255 
2.6223 -3.74488 -1.24039 69 55 129 255 
2.53204 -3.61324 -1.24351 67 62 133 255 
2.43226 -3.46451 -1.24024 70 51 127 255 
8.34126 -11.9657 4.38159 69 53 129 255 
8.47097 -12.1296 4.27867 66 64 134 255 
8.10816 -11.6012 3.94383 71 46 124 255 
8.03536 -11.4975 3.76643 72 31 112 255 
8.02711 -11.5022 3.6405 64 69 136 255 
8.21094 -11.7616 3.57108 72 37 118 255 
0 -0 0 68 2 86 255 
8.29062 -11.8848 3.31884 72 27 109 255 
13.8223 -19.7989 5.32662 72 28 110 255 
8.20464 -11.757 3.01339 59 81 139 255 
8.18867 -11.7469 2.8691 66 64 134 255 
13.9303 -19.9992 4.64931 71 13 96 255 
13.9906 -20.04 4.45923 72 20 103 255 
15.6157 -22.3851 4.70953 72 35 116 255 
15.4455 -22.1736 4.39609 72 37 118 255 
15.4857 -22.2735 4.16082 72 26 108 255 
15.4864 -22.1908 3.92839 72 29 111 255 
16.2559 -23.3115 3.84755 72 26 108 255 
14.1969 -20.404 3.12696 71 16 99 255 
12.6882 -18.2634 2.59274 72 20 103 255 
13.1451 -18.836 2.49121 72 20 103 255 
12.1613 -17.4591 2.10499 72 40 120 255 
12.7441 -18.3227 1.99584 72 37 118 255 
12.0521 -17.3671 1.6934 72 37 118 255 
12.0501 -17.2733 1.52077 72 33 115 255 
12.1508 -17.4506 1.3341 72 29 111 255 
11.9479 -17.1972 1.11576 71 45 123 255 
11.8453 -17.0819 0.911217 72 41 121 255 
11.9654 -17.1645 0.752602 72 20 103 255 
15.4643 -22.2259 0.71848 72 27 109 255 
15.2082 -21.8981 0.456062 72 23 105 255 
0 -0 0 68 2 86 255 
0 -0 -0 68 2 86 255 
0 -0 -0 68 2 86 255 
0 -0 -0 68 1 84 255 
0 -0 -0 68 1 84 255 
0 -0 -0 68 2 86 255 
0 -0 -0 69 5 89 255 
19.5788 -28.2228 -1.89034 70 8 92 255 
16.8498 -24.344 -1.90938 72 23 105 255 
10.7151 -15.3996 -1.36124 71 46 124 255 
8.88824 -12.8031 -1.27591 72 33 115 255 
7.959 -11.4857 -1.27663 72 35 116 255 
7.24631 -10.4692 -1.28433 72 32 113 255 
6.75214 -9.71492 -1.28943 69 53 129 255 
6.212 -8.95141 -1.29152 67 62 133 255 
5.76837 -8.3275 -1.29771 63 71 136 255 
5.37937 -7.77772 -1.30214 68 57 131 255 
4.96811 -7.15606 -1.27243 68 58 131 255 
4.65833 -6.7176 -1.27136 69 55 129 255 
4.339 -6.26633 -1.2577 65 66 135 255 
4.09491 -5.9206 -1.25897 66 64 134 255 
3.90345 -5.63089 -1.2575 60 80 139 255 
3.68059 -5.31357 -1.24707 52 97 141 255 
3.52041 -5.08413 -1.25477 47 107 142 255 
3.33446 -4.81931 -1.24888 51 98 141 255 
3.20624 -4.63031 -1.24962 49 104 142 255 
3.06557 -4.42898 -1.24752 52 97 141 255 
2.93731 -4.24518 -1.24794 53 94 141 255 
2.81285 -4.06239 -1.24664 67 62 133 255 
2.70092 -3.90782 -1.24181 66 65 134 255 
2.6289 -3.80378 -1.25453 68 57 131 255 
2.50928 -3.62792 -1.24324 68 59 132 255 
2.41533 -3.48568 -1.24249 69 56 130 255 
8.34748 -12.1326 4.42388 68 57 131 255 
8.28625 -12.0215 4.22255 70 52 128 255 
7.93125 -11.4977 3.89202 62 73 137 255 
8.09463 -11.735 3.82789 72 29 111 255 
8.02721 -11.6541 3.67291 70 50 126 255 
8.13862 -11.8118 3.57108 69 55 129 255 
8.15297 -11.8368 3.43206 67 61 132 255 
8.22417 -11.9451 3.32152 72 20 103 255 
7.79357 -11.3107 3.03006 72 32 113 255 
8.1168 -11.7845 3.00763 62 76 138 255 
8.09365 -11.7639 2.86104 71 16 99 255 
13.8073 -20.0842 4.64931 72 28 110 255 
15.461 -22.4382 4.97167 70 10 93 255 
15.4786 -22.4813 4.7097 72 23 105 255 
15.2057 -22.1175 4.36639 72 31 112 255 
15.4192 -22.4708 4.17992 72 29 111 255 
15.021 -21.8078 3.8442 72 28 110 255 
14.8996 -21.6484 3.5579 72 35 116 255 
14.0614 -20.476 3.12471 72 28 110 255 
13.9454 -20.3382 2.87507 71 16 99 255 
13.335 -19.36 2.54965 72 20 103 255 
12.1069 -17.6105 2.11424 70 52 128 255 
12.3597 -18.0048 1.95291 71 44 122 255 
12.0292 -17.5633 1.7053 72 32 113 255 
11.9207 -17.3132 1.51781 71 42 122 255 
11.8553 -17.2509 1.31325 71 46 124 255 
11.8399 -17.2669 1.11555 70 48 126 255 
11.7826 -17.216 0.914501 71 44 122 255 
15.1469 -22.0153 0.961197 72 31 112 255 
15.1081 -22.0006 0.708188 71 13 96 255 
14.948 -21.8079 0.452265 72 23 105 255 
0 -0 0 68 2 86 255 
0 -0 -0 68 1 84 255 
0 -0 -0 68 1 84 255 
0 -0 -0 68 1 84 255 
0 -0 -0 68 1 84 255 
0 -0 -0 69 4 87 255 
23.937 -34.9096 -1.92951 70 7 90 255 
19.4307 -28.3795 -1.89281 71 13 96 255 
16.8003 -24.5936 -1.92083 71 16 99 255 
10.5301 -15.3336 -1.34966 70 48 126 255 
8.84613 -12.9108 -1.28122 72 26 108 255 
7.90805 -11.5631 -1.27982 72 32 113 255 
7.23469 -10.5907 -1.29376 72 37 118 255 
6.70871 -9.77995 -1.29257 70 50 126 255 
6.18446 -9.02951 -1.29729 68 58 131 255 
5.71549 -8.36028 -1.29733 59 81 139 255 
5.33378 -7.81385 -1.30269 66 64 134 255 
4.94592 -7.21824 -1.27807 68 57 131 255 
4.61814 -6.74769 -1.27167 70 52 128 255 
4.33721 -6.3466 -1.26845 68 58 131 255 
4.07906 -5.97572 -1.26534 66 63 133 255 
3.8766 -5.6661 -1.26002 60 80 139 255 
3.65401 -5.34497 -1.24916 52 97 141 255 
3.47145 -5.07974 -1.24841 50 101 142 255 
3.30152 -4.83483 -1.24762 51 98 141 255 
3.17502 -4.64587 -1.24854 49 103 142 255 
3.03448 -4.44207 -1.24594 51 99 141 255 
2.91395 -4.26714 -1.24911 53 94 141 255 
2.78841 -4.08037 -1.24688 61 78 138 255 
2.68016 -3.92911 -1.24332 67 61 132 255 
2.60388 -3.81744 -1.25375 66 63 133 255 
2.48263 -3.63688 -1.24107 67 61 132 255 
2.40581 -3.51787 -1.24867 69 56 130 255 
14.6703 -21.6052 7.84486 72 23 105 255 
7.88004 -11.5837 4.05169 67 61 132 255 
7.86869 -11.5581 3.89605 68 58 131 255 
7.78877 -11.4412 3.71638 69 56 130 255 
7.95175 -11.6975 3.67115 72 37 118 255 
8.04634 -11.8326 3.56239 72 22 104 255 
8.06706 -11.8673 3.42649 68 57 131 255 
7.81216 -11.4971 3.18355 71 42 122 255 
7.72787 -11.3639 3.03157 64 70 136 255 
8.04654 -11.8373 3.00845 72 38 119 255 
8.09347 -11.9196 2.88678 72 36 117 255 
13.6998 -20.1922 4.65474 71 13 96 255 
0 -0 0 68 2 86 255 
15.1056 -22.2303 4.6376 72 31 112 255 
15.2221 -22.4349 4.41054 72 31 112 255 
15.6269 -23.0757 4.27453 70 7 90 255 
14.8023 -21.7752 3.82236 71 17 100 255 
13.8105 -20.3319 3.32755 72 36 117 255 
12.1876 -17.9829 2.7328 72 38 119 255 
12.2327 -18.0772 2.54479 72 31 112 255 
12.1104 -17.8152 2.33637 72 22 104 255 
12.1668 -17.9323 2.14388 72 26 108 255 
12.2211 -18.0391 1.94845 72 28 110 255 
11.804 -17.4633 1.68853 72 31 112 255 
11.8429 -17.4281 1.52149 70 50 126 255 
11.7677 -17.3506 1.31532 71 42 122 255 
11.7102 -17.3045 1.11331 71 47 125 255 
11.6437 -17.2392 0.911917 72 40 120 255 
12.1013 -17.8219 0.774853 72 20 103 255 
14.8315 -21.8844 0.701504 72 26 108 255 
14.7282 -21.7725 0.449648 72 26 108 255 
0 -0 0 68 1 84 255 
0 -0 -0 68 1 84 255 
0 -0 -0 68 1 84 255 
0 -0 -0 68 1 84 255 
0 -0 -0 68 2 86 255 
0 -0 -0 69 4 87 255 
23.7627 -35.1154 -1.93279 70 7 90 255 
19.3137 -28.5834 -1.89847 71 16 99 255 
16.8025 -24.9238 -1.93853 71 17 100 255 
10.4297 -15.3888 -1.34886 70 48 126 255 
8.7874 -12.9954 -1.28424 72 36 117 255 
7.87985 -11.675 -1.28682 72 35 116 255 
7.17291 -10.6399 -1.29437 72 37 118 255 
6.65136 -9.82504 -1.29311 71 46 124 255 
6.13561 -9.07716 -1.2987 69 55 129 255 
5.68128 -8.42068 -1.30127 67 62 133 255 
5.28739 -7.8489 -1.3031 65 68 135 255 
4.91817 -7.27305 -1.28241 69 53 129 255 
4.57167 -6.76853 -1.27028 67 62 133 255 
4.2833 -6.351 -1.26405 67 61 132 255 
4.06818 -6.03903 -1.27344 66 64 134 255 
3.83516 -5.68 -1.25786 58 84 140 255 
3.63817 -5.39252 -1.25503 53 95 141 255 
3.4331 -5.09038 -1.24583 50 100 142 255 
3.28163 -4.8696 -1.25138 52 96 141 255 
3.147 -4.66607 -1.24876 50 100 142 255 
3.00826 -4.46223 -1.24639 49 103 142 255 
2.88608 -4.28252 -1.24841 52 96 141 255 
2.77525 -4.11509 -1.25226 56 89 140 255 
2.66573 -3.95993 -1.24788 63 72 137 255 
2.56693 -3.81333 -1.2472 66 65 134 255 
2.46672 -3.66163 -1.24433 66 63 133 255 
2.38096 -3.52779 -1.24699 70 51 127 255 
12.5478 -18.7256 6.77119 72 22 104 255 
7.87092 -11.7243 4.08392 68 59 132 255 
7.80729 -11.6206 3.90088 63 72 137 255 
7.69688 -11.4567 3.70601 72 26 108 255 
14.4132 -21.4851 6.71499 71 13 96 255 
14.7884 -22.0367 6.60706 72 22 104 255 
7.57469 -11.2914 3.24672 65 66 135 255 
7.76861 -11.5853 3.19471 71 46 124 255 
7.64222 -11.3876 3.02532 64 69 136 255 
7.67282 -11.4379 2.89491 61 77 138 255 
7.73199 -11.5389 2.78305 71 14 97 255 
21.4459 -32.0303 7.35322 70 8 92 255 
22.9519 -34.2004 7.51485 70 11 94 255 
15.0205 -22.3995 4.65359 72 31 112 255 
14.9347 -22.3048 4.36687 72 29 111 255 
15.1999 -22.7446 4.19584 72 26 108 255 
14.7153 -21.9355 3.83457 71 14 97 255 
12.407 -18.5091 3.0167 72 27 109 255 
12.0881 -18.0738 2.73529 71 42 122 255 
12.6147 -18.8904 2.64832 72 24 106 255 
13.2099 -19.6915 2.57175 72 28 110 255 
13.1251 -19.6025 2.33389 72 20 103 255 
11.948 -17.8711 1.92236 72 26 108 255 
11.961 -17.9318 1.7267 72 33 115 255 
12.9639 -19.332 1.68072 72 23 105 255 
11.736 -17.5344 1.32377 72 40 120 255 
11.5933 -17.3602 1.1123 71 46 124 255 
11.5455 -17.3219 0.91253 72 31 112 255 
11.5617 -17.254 0.747066 70 51 127 255 
14.5897 -21.8146 0.696384 72 24 106 255 
14.5294 -21.7651 0.447647 72 24 106 255 
0 -0 0 68 1 84 255 
0 -0 -0 68 1 84 255 
0 -0 -0 68 2 86 255 
0 -0 -0 68 1 84 255 
0 -0 -0 68 1 84 255 
0 -0 -0 69 4 87 255 
23.5251 -35.2282 -1.93101 70 8 92 255 
19.1878 -28.7761 -1.90342 71 14 97 255 
16.8001 -25.2532 -1.9561 71 19 101 255 
10.3217 -15.4326 -1.34713 71 47 125 255 
8.72354 -13.0731 -1.2866 72 35 116 255 
7.81469 -11.733 -1.28792 72 32 113 255 
7.10529 -10.6804 -1.29396 72 31 112 255 
6.59648 -9.87393 -1.2942 70 48 126 255 
6.10129 -9.14685 -1.30329 69 56 130 255 
5.6427 -8.4752 -1.30432 70 48 126 255 
5.25175 -7.90017 -1.30624 66 64 134 255 
4.86686 -7.29321 -1.28067 68 59 132 255 
4.53444 -6.80303 -1.27151 69 56 130 255 
4.26611 -6.41002 -1.27056 65 68 135 255 
4.03378 -6.06798 -1.2743 68 57 131 255 
3.80732 -5.71407 -1.2602 55 91 141 255 
3.611 -5.42373 -1.25711 52 97 141 255 
3.40668 -5.11869 -1.24762 48 105 142 255 
3.26414 -4.90837 -1.25617 50 101 142 255 
3.1156 -4.68123 -1.24767 51 99 141 255 
2.98676 -4.48952 -1.24887 51 99 141 255 
2.87051 -4.31634 -1.25311 51 99 141 255 
2.75156 -4.13446 -1.253 55 91 141 255 
2.64138 -3.97621 -1.24788 63 72 137 255 
2.53227 -3.81213 -1.2417 67 61 132 255 
2.42875 -3.65345 -1.23646 67 61 132 255 
2.35076 -3.52955 -1.24249 70 50 126 255 
7.89137 -11.9343 4.29787 71 19 101 255 
7.95588 -12.0095 4.16615 70 51 127 255 
7.89712 -11.9115 3.98221 67 61 132 255 
0 -0 0 68 2 86 255 
14.2912 -21.5884 6.71976 71 19 101 255 
7.66961 -11.5817 3.45826 69 53 129 255 
7.53856 -11.3879 3.26112 67 62 133 255 
7.53386 -11.3856 3.12684 71 42 122 255 
7.43147 -11.2218 2.96909 59 81 139 255 
7.54847 -11.4031 2.87434 52 97 141 255 
7.61562 -11.5174 2.76654 72 24 106 255 
7.57969 -11.4722 2.62296 70 7 90 255 
21.5553 -32.5493 7.12284 71 13 96 255 
14.7822 -22.3392 4.62213 72 20 103 255 
14.7927 -22.3887 4.36542 72 26 108 255 
14.2918 -21.6723 3.98178 72 33 115 255 
12.0682 -18.2303 3.17385 71 44 122 255 
12.0002 -18.1418 2.94479 72 40 120 255 
11.9999 -18.1825 2.74054 72 41 121 255 
12.9691 -19.6816 2.74803 72 31 112 255 
12.9786 -19.6055 2.55008 72 37 118 255 
12.9541 -19.6063 2.32483 72 24 106 255 
15.3907 -23.3291 2.49925 70 11 94 255 
11.7554 -17.86 1.7128 72 22 104 255 
11.6941 -17.672 1.53013 71 45 123 255 
11.6567 -17.6494 1.32703 69 53 129 255 
11.4964 -17.4461 1.11326 71 47 125 255 
11.4313 -17.3808 0.911917 71 45 123 255 
11.8635 -17.9415 0.773667 72 37 118 255 
14.3785 -21.7869 0.692671 72 24 106 255 
14.3444 -21.7762 0.446056 72 33 115 255 
0 -0 0 68 1 84 255 
0 -0 -0 68 1 84 255 
0 -0 -0 68 1 84 255 
0 -0 -0 68 1 84 255 
0 -0 -0 68 1 84 255 
0 -0 -0 69 4 87 255 
0 -0 -0 69 5 89 255 
19.0307 -28.9233 -1.9054 71 13 96 255 
16.555 -25.219 -1.94555 71 16 99 255 
10.1834 -15.4299 -1.34141 71 46 124 255 
8.66728 -13.163 -1.29019 72 33 115 255 
7.76115 -11.8091 -1.29101 71 45 123 255 
7.06473 -10.762 -1.29858 72 36 117 255 
6.54671 -9.93082 -1.29636 70 48 126 255 
6.0516 -9.19407 -1.30471 69 55 129 255 
5.59821 -8.52127 -1.3061 71 44 122 255 
5.22273 -7.96207 -1.31115 65 66 135 255 
4.83997 -7.35021 -1.28544 68 59 132 255 
4.52682 -6.88273 -1.28119 68 59 132 255 
4.22995 -6.44103 -1.27154 66 64 134 255 
3.99647 -6.09262 -1.2743 67 62 133 255 
3.78462 -5.75622 -1.26436 53 95 141 255 
3.58142 -5.45153 -1.25844 50 102 142 255 
3.38597 -5.15588 -1.25159 49 104 142 255 
3.23235 -4.92586 -1.25555 48 105 142 255 
3.08897 -4.70352 -1.24854 46 110 142 255 
2.95648 -4.50369 -1.24774 50 100 142 255 
2.84451 -4.33468 -1.25334 50 102 142 255 
2.72348 -4.14722 -1.25177 56 89 140 255 
2.61375 -3.98749 -1.24636 63 71 136 255 
2.521 -3.84616 -1.24773 67 62 133 255 
2.42318 -3.69404 -1.24514 68 59 132 255 
2.33011 -3.54551 -1.24305 69 53 129 255 
7.80596 -11.9641 4.29126 70 48 126 255 
7.98874 -12.2213 4.22255 72 37 118 255 
14.3542 -21.9421 7.306 71 17 100 255 
7.72013 -11.8017 3.78666 72 29 111 255 
14.1707 -21.6944 6.72554 71 16 99 255 
7.61804 -11.6586 3.4672 68 58 131 255 
7.48024 -11.4519 3.26623 71 47 125 255 
7.38498 -11.3108 3.0938 71 46 124 255 
7.46771 -11.4282 3.01153 62 73 137 255 
7.48425 -11.4582 2.8766 59 81 139 255 
7.62946 -11.6937 2.79758 68 59 132 255 
7.68511 -11.7884 2.68442 71 14 97 255 
21.5876 -33.0367 7.20038 69 5 89 255 
14.5505 -22.2851 4.59237 72 22 104 255 
14.3758 -22.0507 4.28225 72 26 108 255 
14.2 -21.8234 3.99345 72 20 103 255 
12.0286 -18.415 3.19311 72 20 103 255 
11.9368 -18.289 2.95673 72 41 121 255 
12.0733 -18.5401 2.78322 72 29 111 255 
12.8183 -19.715 2.74166 72 35 116 255 
12.8765 -19.7131 2.55375 71 17 100 255 
11.4711 -17.5955 2.07801 72 22 104 255 
12.037 -18.4914 1.97304 71 17 100 255 
11.5728 -17.8198 1.7021 72 23 105 255 
11.5397 -17.6732 1.52408 71 45 123 255 
11.5259 -17.6863 1.32446 70 51 127 255 
11.3979 -17.5297 1.11411 70 48 126 255 
11.3794 -17.5352 0.91634 70 50 126 255 
11.9493 -18.3144 0.786571 72 33 115 255 
14.2205 -21.8379 0.691504 72 27 109 255 
0 -0 0 68 1 84 255 
0 -0 0 68 1 84 255 
0 -0 -0 68 1 84 255 
0 -0 -0 68 1 84 255 
0 -0 -0 68 2 86 255 
0 -0 -0 68 1 84 255 
0 -0 -0 69 4 87 255 
23.0323 -35.4237 -1.92609 70 7 90 255 
18.9605 -29.2054 -1.91628 71 14 97 255 
16.3756 -25.2824 -1.94265 72 20 103 255 
9.94543 -15.2723 -1.32238 71 46 124 255 
8.84807 -13.6188 -1.32952 72 35 116 255 
7.70588 -11.8832 -1.29392 72 28 110 255 
7.04076 -10.8703 -1.30641 72 33 115 255 
6.49378 -9.98331 -1.29799 71 46 124 255 
6.00156 -9.24102 -1.30612 70 52 128 255 
5.5496 -8.56128 -1.30699 71 45 123 255 
5.16302 -7.97733 -1.30842 68 58 131 255 
4.80395 -7.39387 -1.2879 66 63 133 255 
4.49257 -6.92281 -1.2835 66 64 134 255 
4.18767 -6.46272 -1.27073 68 59 132 255 
3.95419 -6.10958 -1.27275 67 62 133 255 
3.76207 -5.79914 -1.26869 53 95 141 255 
3.54684 -5.47176 -1.25806 50 102 142 255 
3.36014 -5.18561 -1.25378 47 107 142 255 
3.20685 -4.95299 -1.25742 50 101 142 255 
3.06058 -4.72321 -1.24876 51 99 141 255 
2.9378 -4.53565 -1.25158 50 101 142 255 
2.81944 -4.3545 -1.25405 52 96 141 255 
2.70273 -4.17117 -1.25398 56 88 140 255 
2.61288 -4.04001 -1.25774 56 88 140 255 
2.51098 -3.88263 -1.25453 66 64 134 255 
2.41511 -3.73146 -1.25274 68 59 132 255 
2.32084 -3.57907 -1.2498 70 50 126 255 
7.68575 -11.9393 4.26536 59 81 139 255 
14.3641 -22.2716 7.66443 72 23 105 255 
7.70647 -11.9395 3.95967 71 42 122 255 
7.60515 -11.7831 3.76566 72 29 111 255 
7.54011 -11.6996 3.61261 72 38 119 255 
7.56635 -11.7362 3.47638 70 52 128 255 
11.0818 -17.1953 4.88483 72 36 117 255 
7.30172 -11.3346 3.088 65 68 135 255 
7.42285 -11.5132 3.02187 58 83 139 255 
7.37404 -11.4423 2.86117 53 94 141 255 
7.56287 -11.7485 2.79955 72 28 110 255 
14.7135 -22.8752 5.1884 71 16 99 255 
15.4931 -24.0306 5.21667 70 10 93 255 
15.0294 -23.3299 4.7886 71 14 97 255 
14.3908 -22.3726 4.32753 72 23 105 255 
13.236 -20.6175 3.75785 71 14 97 255 
12.0767 -18.7388 3.23635 72 40 120 255 
11.8217 -18.3577 2.95606 72 23 105 255 
11.9711 -18.6322 2.78597 72 31 112 255 
12.6719 -19.7539 2.73622 72 33 115 255 
12.7149 -19.7291 2.54566 72 32 113 255 
11.4851 -17.8555 2.10036 72 24 106 255 
12.0245 -18.7224 1.98978 72 27 109 255 
11.7892 -18.399 1.75049 72 23 105 255 
11.3338 -17.5928 1.51112 70 50 126 255 
11.334 -17.6275 1.31482 68 58 131 255 
11.3074 -17.6262 1.11581 70 50 126 255 
11.6594 -18.2105 0.947872 72 32 113 255 
12.0898 -18.7807 0.803394 71 42 122 255 
13.8058 -21.4882 0.677737 72 27 109 255 
13.8754 -21.6375 0.439694 70 7 90 255 
0 -0 0 68 2 86 255 
0 -0 -0 68 1 84 255 
0 -0 -0 68 1 84 255 
0 -0 -0 68 1 84 255 
0 -0 -0 68 1 84 255 
0 -0 -0 69 4 87 255 
21.4148 -33.3825 -1.80792 70 8 92 255 
18.7422 -29.2606 -1.91232 71 16 99 255 
16.0557 -25.1251 -1.92296 72 24 106 255 
9.79978 -15.2525 -1.31543 70 52 128 255 
8.90633 -13.8943 -1.35106 69 55 129 255 
7.66717 -11.9839 -1.29974 72 33 115 255 
6.97017 -10.9074 -1.30571 72 35 116 255 
6.43294 -10.0238 -1.2981 70 51 127 255 
5.95868 -9.29941 -1.30918 70 52 128 255 
5.49964 -8.59935 -1.30762 68 59 132 255 
5.11504 -8.01053 -1.30869 68 57 131 255 
4.78038 -7.45736 -1.29382 68 59 132 255 
4.4564 -6.96023 -1.28534 64 69 136 255 
4.16441 -6.51406 -1.27577 65 68 135 255 
3.91875 -6.13705 -1.27344 65 66 135 255 
3.7349 -5.83537 -1.27158 50 100 142 255 
3.50949 -5.48763 -1.25673 51 98 141 255 
3.32878 -5.20696 -1.25398 46 110 142 255 
3.17482 -4.9701 -1.2568 48 106 142 255 
3.03943 -4.75424 -1.25201 47 108 142 255 
2.91044 -4.55441 -1.2518 48 106 142 255 
2.78953 -4.3668 -1.25264 55 91 141 255 
2.68805 -4.20483 -1.25911 54 93 141 255 
2.58232 -4.04699 -1.25496 63 72 137 255 
2.48452 -3.89389 -1.25323 66 65 134 255 
2.39476 -3.75027 -1.25409 66 63 133 255 
2.2916 -3.58192 -1.24586 69 55 129 255 
12.1291 -19.0982 6.79622 72 24 106 255 
13.3175 -20.9297 7.17436 71 19 101 255 
7.61341 -11.9557 3.94947 72 35 116 255 
7.53997 -11.8409 3.76929 71 44 122 255 
7.48324 -11.7693 3.6199 72 38 119 255 
7.53273 -11.8429 3.49426 70 51 127 255 
7.5479 -11.8711 3.35914 72 26 108 255 
7.34915 -11.5635 3.138 66 64 134 255 
7.41862 -11.6632 3.04923 59 82 139 255 
7.33258 -11.5327 2.87249 61 78 138 255 
14.5098 -22.847 5.42287 72 26 108 255 
14.5066 -22.8605 5.16479 72 24 106 255 
15.0032 -23.5873 5.10036 72 23 105 255 
14.7633 -23.2288 4.74915 71 17 100 255 
14.2464 -22.4496 4.32544 72 23 105 255 
13.1093 -20.6983 3.75785 71 17 100 255 
11.9716 -18.8285 3.23908 72 27 109 255 
11.7816 -18.5445 2.97444 72 35 116 255 
11.8905 -18.7589 2.79396 72 31 112 255 
12.6748 -20.0277 2.76331 72 22 104 255 
12.592 -19.8042 2.54534 72 22 104 255 
11.3785 -17.9307 2.10095 71 17 100 255 
11.9109 -18.7984 1.99005 71 42 122 255 
11.9376 -18.8847 1.7897 72 29 111 255 
11.1823 -17.5938 1.50528 70 50 126 255 
11.1898 -17.6402 1.31062 68 57 131 255 
11.6182 -18.3576 1.15758 72 31 112 255 
11.5923 -18.3526 0.951551 72 32 113 255 
13.2152 -20.8083 0.886645 72 22 104 255 
13.7765 -21.7346 0.68283 72 27 109 255 
13.7461 -21.7282 0.439814 72 24 106 255 
0 -0 0 68 1 84 255 
0 -0 -0 68 1 84 255 
0 -0 -0 68 1 84 255 
0 -0 -0 68 1 84 255 
0 -0 -0 68 2 86 255 
27.009 -42.5932 -1.83173 69 5 89 255 
21.1849 -33.4744 -1.80583 70 8 92 255 
18.4033 -29.1235 -1.89595 71 16 99 255 
16.1008 -25.5397 -1.94709 71 13 96 255 
9.63552 -15.2011 -1.30588 69 53 129 255 
8.80546 -13.9243 -1.34869 66 64 134 255 
7.61104 -12.0586 -1.30275 72 35 116 255 
6.89887 -10.9433 -1.3049 72 33 115 255 
6.3995 -10.1076 -1.30384 71 47 125 255 
5.92591 -9.37441 -1.31459 67 62 133 255 
5.46159 -8.65642 -1.31118 69 53 129 255 
5.08374 -8.07026 -1.31333 70 52 128 255 
4.73877 -7.49324 -1.29498 68 58 131 255 
4.4152 -6.98995 -1.2858 65 66 135 255 
4.12594 -6.542 -1.27626 66 64 134 255 
3.8847 -6.16682 -1.27465 66 65 134 255 
3.69693 -5.85485 -1.27085 50 100 142 255 
3.48466 -5.52317 -1.25995 50 102 142 255 
3.2952 -5.2248 -1.25338 44 114 142 255 
3.13175 -4.96963 -1.25179 50 102 142 255 
3.00499 -4.76454 -1.24984 49 103 142 255 
2.88296 -4.57301 -1.25203 47 108 142 255 
2.76372 -4.38548 -1.25311 51 99 141 255 
2.66634 -4.22781 -1.26107 53 95 141 255 
2.54867 -4.04884 -1.25066 62 73 137 255 
2.45235 -3.896 -1.24904 65 66 135 255 
2.38145 -3.78036 -1.25925 67 62 133 255 
2.28392 -3.61864 -1.25373 69 55 129 255 
12.0148 -19.1771 6.79794 72 23 105 255 
7.46928 -11.8992 4.06308 71 17 100 255 
11.1387 -17.7309 5.83455 72 20 103 255 
7.6141 -12.1209 3.84345 72 26 108 255 
11.2143 -17.8787 5.47771 72 35 116 255 
7.52542 -11.9933 3.52494 71 47 125 255 
7.4868 -11.9362 3.36448 65 66 135 255 
7.27392 -11.6017 3.13622 68 57 131 255 
7.3355 -11.6903 3.04449 72 35 116 255 
7.27675 -11.6015 2.87845 67 62 133 255 
14.2553 -22.7536 5.37985 72 33 115 255 
0 -0 0 68 1 84 255 
0 -0 0 68 2 86 255 
12.434 -19.8315 4.0389 71 17 100 255 
10.5968 -16.9271 3.24882 72 23 105 255 
10.6613 -17.064 3.08609 71 42 122 255 
11.1412 -17.7622 3.04384 72 22 104 255 
11.6729 -18.6248 2.97578 72 37 118 255 
11.5769 -18.5144 2.7469 72 23 105 255 
11.3155 -18.1251 2.49118 72 28 110 255 
11.4032 -18.1798 2.32753 72 41 121 255 
11.2223 -17.9268 2.09239 72 26 108 255 
11.8191 -18.9091 1.99406 72 35 116 255 
11.8088 -18.9373 1.78778 72 24 106 255 
11.1425 -17.7711 1.51457 72 32 113 255 
11.0745 -17.6975 1.30981 71 45 123 255 
11.7052 -18.7487 1.17769 71 14 97 255 
11.5096 -18.4718 0.954047 72 40 120 255 
13.5579 -21.6402 0.918529 71 13 96 255 
13.6396 -21.8137 0.68267 72 23 105 255 
21.8731 -35.0487 0.706712 71 13 96 255 
0 -0 0 68 1 84 255 
0 -0 -0 68 1 84 255 
0 -0 -0 68 1 84 255 
0 -0 -0 68 1 84 255 
0 -0 -0 68 1 84 255 
0 -0 -0 69 4 87 255 
20.7845 -33.2919 -1.78907 70 7 90 255 
18.2232 -29.2342 -1.89584 71 17 100 255 
15.9006 -25.5685 -1.94181 71 16 99 255 
9.46328 -15.1339 -1.29509 70 50 126 255 
8.69032 -13.9307 -1.34412 64 70 136 255 
7.5448 -12.1177 -1.30411 72 32 113 255 
6.85997 -11.031 -1.31032 72 32 113 255 
6.35105 -10.1686 -1.30666 71 45 123 255 
5.87564 -9.42239 -1.31624 69 53 129 255 
5.41309 -8.69735 -1.31232 70 51 127 255 
5.02995 -8.09457 -1.31224 71 46 124 255 
4.69375 -7.52386 -1.29527 67 61 132 255 
4.37849 -7.02698 -1.28765 67 62 133 255 
4.09719 -6.58562 -1.27984 65 68 135 255 
3.8473 -6.19137 -1.27482 66 65 134 255 
3.65885 -5.87408 -1.27013 51 98 141 255 
3.45538 -5.55195 -1.26166 50 102 142 255 
3.26774 -5.25241 -1.25517 48 106 142 255 
3.10946 -5.00204 -1.25513 51 98 141 255 
2.98447 -4.79698 -1.25352 47 107 142 255 
2.84918 -4.58151 -1.24955 49 103 142 255 
2.74189 -4.41061 -1.25546 51 98 141 255 
2.63471 -4.23503 -1.25838 54 93 141 255 
2.52429 -4.06523 -1.25091 59 81 139 255 
2.43145 -3.91589 -1.25061 65 68 135 255 
2.35618 -3.79163 -1.25816 66 63 133 255 
2.25863 -3.6277 -1.25205 69 55 129 255 
7.25221 -11.7349 4.14396 72 26 108 255 
7.42798 -11.9963 4.08059 72 24 106 255 
7.5671 -12.2112 4.00288 68 58 131 255 
7.54976 -12.1838 3.84864 72 40 120 255 
7.29852 -11.7961 3.6003 72 24 106 255 
7.4093 -11.9708 3.50489 70 51 127 255 
7.46357 -12.0629 3.38724 72 37 118 255 
7.31949 -11.8352 3.18712 72 41 121 255 
10.5878 -17.1057 4.43781 72 23 105 255 
7.28421 -11.7733 2.90992 69 53 129 255 
14.1695 -22.9282 5.40048 72 27 109 255 
0 -0 0 68 2 86 255 
0 -0 0 68 2 86 255 
14.7171 -23.7962 4.82788 71 17 100 255 
10.4891 -16.986 3.24769 72 41 121 255 
10.4833 -17.0104 3.06471 71 42 122 255 
10.1552 -16.4131 2.80191 72 31 112 255 
10.9107 -17.6484 2.80902 72 26 108 255 
10.3229 -16.7365 2.47368 72 35 116 255 
11.2109 -18.2052 2.49268 72 27 109 255 
11.2731 -18.2199 2.32375 72 38 119 255 
11.2209 -18.1715 2.11286 72 35 116 255 
11.7071 -18.9881 1.99477 71 14 97 255 
11.6527 -18.9449 1.78171 72 23 105 255 
12.0673 -19.5111 1.65653 71 13 96 255 
13.8437 -22.4277 1.65357 72 40 120 255 
11.5884 -18.8176 1.17753 72 26 108 255 
11.4515 -18.6323 0.958689 72 36 117 255 
12.5117 -20.2454 0.856055 70 11 94 255 
13.5538 -21.9752 0.685111 72 23 105 255 
21.6587 -35.1839 0.706746 70 8 92 255 
0 -0 0 68 1 84 255 
0 -0 -0 68 1 84 255 
0 -0 -0 68 2 86 255 
0 -0 -0 68 2 86 255 
0 -0 -0 68 1 84 255 
0 -0 -0 69 5 89 255 
20.54 -33.3542 -1.78561 69 5 89 255 
18.0383 -29.337 -1.89529 71 19 101 255 
15.7319 -25.6469 -1.9404 71 17 100 255 
9.32626 -15.1204 -1.28902 69 53 129 255 
8.57334 -13.9328 -1.33923 67 61 132 255 
7.49115 -12.1977 -1.30775 72 38 119 255 
6.81869 -11.1161 -1.31544 72 33 115 255 
6.28645 -10.204 -1.30622 70 51 127 255 
5.82916 -9.47688 -1.31883 68 57 131 255 
5.36377 -8.73716 -1.31334 70 48 126 255 
4.97656 -8.11937 -1.31128 70 52 128 255 
4.66357 -7.57864 -1.29975 68 59 132 255 
4.33995 -7.06129 -1.28903 67 61 132 255 
4.05773 -6.61232 -1.28017 68 59 132 255 
3.81645 -6.22662 -1.27723 66 65 134 255 
3.62892 -5.90648 -1.2723 52 96 141 255 
3.42227 -5.57472 -1.26204 50 101 142 255 
3.23237 -5.26735 -1.25398 47 108 142 255 
3.07258 -5.01102 -1.25263 50 101 142 255 
2.95855 -4.82103 -1.25504 47 107 142 255 
2.82356 -4.60306 -1.25067 50 101 142 255 
2.70715 -4.41492 -1.25193 52 97 141 255 
2.60918 -4.25195 -1.25862 57 86 140 255 
2.49728 -4.07734 -1.2499 58 84 140 255 
2.41444 -3.94226 -1.25427 62 73 137 255 
2.34192 -3.82079 -1.26304 69 56 130 255 
2.23633 -3.64149 -1.25205 69 55 129 255 
7.32812 -12.0221 4.2294 68 58 131 255 
7.21454 -11.8129 4.00308 69 55 129 255 
7.4664 -12.2155 3.98919 72 29 111 255 
7.49803 -12.2678 3.86057 68 57 131 255 
7.2608 -11.8976 3.61764 70 8 92 255 
10.5884 -17.3441 5.05899 71 16 99 255 
10.4219 -17.0776 4.7773 72 22 104 255 
7.2508 -11.8865 3.1889 72 29 111 255 
10.6588 -17.4587 4.51234 72 28 110 255 
10.5473 -17.2835 4.25576 72 24 106 255 
10.5976 -17.386 4.07968 71 14 97 255 
10.6498 -17.486 3.90559 70 8 92 255 
11.9721 -19.61 4.19197 70 7 90 255 
11.9895 -19.6545 3.97259 72 20 103 255 
10.4129 -17.0964 3.25653 72 29 111 255 
10.1754 -16.7399 3.00468 72 37 118 255 
9.93984 -16.2875 2.77001 68 58 131 255 
10.2022 -16.731 2.653 71 45 123 255 
9.98746 -16.4173 2.41739 72 41 121 255 
10.0079 -16.4773 2.24764 70 51 127 255 
11.1611 -18.2887 2.32375 72 36 117 255 
11.0139 -18.0836 2.09475 72 38 119 255 
14.0222 -23.0585 2.4133 71 16 99 255 
11.0994 -18.2959 1.71424 72 23 105 255 
12.1598 -19.933 1.68598 72 27 109 255 
13.4692 -22.1235 1.62502 71 13 96 255 
11.4535 -18.8568 1.17556 72 36 117 255 
11.3582 -18.7372 0.960485 72 28 110 255 
12.2838 -20.152 0.848902 72 20 103 255 
13.2649 -21.8052 0.677259 72 23 105 255 
0 -0 0 68 1 84 255 
0 -0 0 68 2 86 255 
0 -0 -0 68 1 84 255 
0 -0 -0 68 2 86 255 
0 -0 -0 68 1 84 255 
0 -0 -0 68 1 84 255 
27.2283 -44.7393 -1.90214 70 7 90 255 
20.3801 -33.5539 -1.78957 70 10 93 255 
17.859 -29.4488 -1.8954 71 19 101 255 
15.4245 -25.4953 -1.92173 70 11 94 255 
9.22968 -15.1714 -1.28851 70 51 127 255 
8.42977 -13.8897 -1.33009 67 61 132 255 
7.4466 -12.2937 -1.31312 72 40 120 255 
6.77662 -11.2012 -1.32056 72 35 116 255 
6.26038 -10.3027 -1.31392 71 44 122 255 
5.7879 -9.54048 -1.32272 70 50 126 255 
5.32599 -8.79621 -1.31728 71 47 125 255 
4.95996 -8.20486 -1.32015 70 51 127 255 
4.61082 -7.59696 -1.29801 68 59 132 255 
4.30269 -7.09792 -1.29088 67 62 133 255 
4.02832 -6.65566 -1.28375 63 71 136 255 
3.78429 -6.26004 -1.2793 64 69 136 255 
3.5972 -5.93621 -1.27392 51 98 141 255 
3.38597 -5.59226 -1.26128 50 100 142 255 
3.1939 -5.27702 -1.25159 48 105 142 255 
3.04531 -5.03563 -1.25409 51 99 141 255 
2.92992 -4.84076 -1.25547 47 108 142 255 
2.80031 -4.62863 -1.25293 48 105 142 255 
2.68706 -4.4431 -1.25522 54 92 141 255 
2.57752 -4.25875 -1.25593 54 92 141 255 
2.47722 -4.10087 -1.25243 60 80 139 255 
2.39819 -3.97022 -1.25846 62 73 137 255 
2.31595 -3.83097 -1.26169 68 59 132 255 
2.21891 -3.66335 -1.25486 69 56 130 255 
7.21227 -11.997 4.20495 66 65 134 255 
7.22965 -12.0026 4.05225 72 40 120 255 
7.22272 -11.9814 3.8982 71 46 124 255 
7.2496 -12.0265 3.77058 68 58 131 255 
13.5128 -22.4509 6.80116 71 13 96 255 
11.0034 -18.275 5.31072 72 31 112 255 
10.2191 -16.9787 4.73201 72 29 111 255 
10.1314 -16.8404 4.50117 72 24 106 255 
10.1812 -16.9089 4.35401 71 44 122 255 
10.6818 -17.7478 4.35388 72 22 104 255 
10.618 -17.6625 4.12919 71 47 125 255 
10.5413 -17.5493 3.90521 71 19 101 255 
11.8019 -19.6005 4.17438 72 32 113 255 
10.0287 -16.6693 3.35671 71 14 97 255 
10.073 -16.769 3.18234 72 28 110 255 
10.4379 -17.4116 3.11368 72 26 108 255 
9.9132 -16.4703 2.7907 72 37 118 255 
9.95019 -16.5454 2.61382 70 48 126 255 
9.72932 -16.2162 2.37895 67 62 133 255 
9.86727 -16.4727 2.23872 72 38 119 255 
11.022 -18.3125 2.31815 72 33 115 255 
13.8497 -23.0568 2.66094 71 14 97 255 
13.6929 -22.8315 2.3807 71 13 96 255 
10.9808 -18.3534 1.71328 72 20 103 255 
12.0666 -20.056 1.69009 72 24 106 255 
11.5293 -19.2015 1.40517 72 20 103 255 
11.3371 -18.9259 1.17551 71 45 123 255 
11.1271 -18.6127 0.950587 71 16 99 255 
13.1881 -21.9374 0.920686 72 23 105 255 
13.1628 -21.9393 0.678904 71 14 97 255 
0 -0 0 68 2 86 255 
0 -0 0 68 1 84 255 
0 -0 -0 68 1 84 255 
0 -0 -0 68 1 84 255 
0 -0 -0 68 2 86 255 
0 -0 -0 68 1 84 255 
26.9574 -44.9123 -1.90243 69 5 89 255 
20.4567 -34.1505 -1.81466 70 7 90 255 
17.621 -29.4627 -1.8893 70 11 94 255 
15.3025 -25.6478 -1.92611 71 14 97 255 
9.15386 -15.2568 -1.29097 71 45 123 255 
8.33671 -13.9284 -1.32887 66 65 134 255 
7.39299 -12.3759 -1.31703 72 41 121 255 
6.69909 -11.228 -1.31885 72 37 118 255 
6.195 -10.3375 -1.31348 70 50 126 255 
5.74251 -9.59797 -1.32578 69 55 129 255 
5.27751 -8.83809 -1.31868 69 56 130 255 
4.9151 -8.2445 -1.32165 70 50 126 255 
4.56412 -7.62511 -1.29801 66 65 134 255 
4.26058 -7.12673 -1.29134 66 64 134 255 
3.9869 -6.67941 -1.28359 67 61 132 255 
3.75135 -6.29245 -1.28119 64 69 136 255 
3.56827 -5.97083 -1.27663 51 99 141 255 
3.35763 -5.62305 -1.26355 48 106 142 255 
3.16599 -5.30409 -1.25338 49 103 142 255 
3.02438 -5.07103 -1.25825 52 97 141 255 
2.90367 -4.86451 -1.25699 46 110 142 255 
2.77286 -4.6474 -1.25338 49 103 142 255 
2.66821 -4.47369 -1.25922 53 94 141 255 
2.54488 -4.26366 -1.25275 59 81 139 255 
2.45795 -4.12596 -1.25546 57 86 140 255 
2.37329 -3.98403 -1.2582 62 76 138 255 
2.28451 -3.83188 -1.25735 68 57 131 255 
2.19295 -3.67113 -1.25289 69 56 130 255 
7.01984 -11.8409 4.13504 70 50 126 255 
7.13281 -12.0079 4.03919 68 59 132 255 
7.06046 -11.8764 3.84988 66 65 134 255 
7.15741 -12.0401 3.76099 72 37 118 255 
10.1363 -17.0773 5.15438 72 35 116 255 
10.8534 -18.2787 5.29236 72 22 104 255 
10.0835 -16.9884 4.71738 72 41 121 255 
10.0617 -16.9593 4.51635 72 28 110 255 
10.8151 -18.2137 4.67283 72 22 104 255 
10.5852 -17.8341 4.35902 71 45 123 255 
10.5105 -17.729 4.12958 71 44 122 255 
10.3338 -17.4455 3.86793 72 33 115 255 
11.6673 -19.6488 4.16935 71 13 96 255 
9.91716 -16.7153 3.35365 69 55 129 255 
9.78527 -16.5189 3.12341 71 45 123 255 
9.93299 -16.8023 2.99376 72 29 111 255 
9.90489 -16.6874 2.81713 70 52 128 255 
9.69229 -16.3427 2.57237 67 62 133 255 
9.55183 -16.1441 2.35973 70 51 127 255 
9.70387 -16.4278 2.22448 72 27 109 255 
11.4133 -19.2287 2.42522 72 27 109 255 
11.2755 -19.0351 2.18877 72 28 110 255 
11.0199 -18.6328 1.93581 72 20 103 255 
10.8958 -18.4677 1.71767 72 33 115 255 
12.1275 -20.4401 1.71616 71 19 101 255 
11.2323 -18.9696 1.38313 71 42 122 255 
11.4346 -19.357 1.19791 72 29 111 255 
12.8265 -21.7574 1.10715 71 13 96 255 
12.7755 -21.5494 0.901095 71 14 97 255 
12.6105 -21.3142 0.657152 72 28 110 255 
0 -0 0 68 2 86 255 
0 -0 0 68 1 84 255 
0 -0 -0 68 1 84 255 
0 -0 -0 68 1 84 255 
0 -0 -0 68 1 84 255 
0 -0 -0 68 1 84 255 
26.4731 -44.7252 -1.88759 69 5 89 255 
20.1827 -34.167 -1.80893 69 5 89 255 
17.097 -28.9889 -1.85215 71 13 96 255 
15.0836 -25.6371 -1.91832 70 8 92 255 
8.8493 -14.9565 -1.26094 71 45 123 255 
8.23437 -13.9509 -1.32617 66 63 133 255 
7.32753 -12.4391 -1.31894 72 38 119 255 
6.63461 -11.2766 -1.31976 72 40 120 255 
6.13853 -10.3873 -1.315 71 45 123 255 
5.68149 -9.62961 -1.3253 67 62 133 255 
5.23123 -8.88399 -1.32071 69 55 129 255 
4.87446 -8.29158 -1.32438 71 47 125 255 
4.53083 -7.67598 -1.30192 67 61 132 255 
4.22279 -7.16296 -1.29318 67 62 133 255 
3.95385 -6.71735 -1.28619 67 61 132 255 
3.73214 -6.34846 -1.28791 57 86 140 255 
3.53457 -5.9977 -1.27771 50 102 142 255 
3.32157 -5.641 -1.26298 46 111 142 255 
3.14034 -5.33524 -1.25617 48 106 142 255 
2.98874 -5.0819 -1.25638 51 98 141 255 
2.87278 -4.88056 -1.25655 47 107 142 255 
2.74626 -4.66769 -1.25428 48 105 142 255 
2.64021 -4.48914 -1.25898 52 96 141 255 
2.52408 -4.28839 -1.25544 61 78 138 255 
2.42132 -4.12178 -1.24965 58 84 140 255 
2.3532 -4.006 -1.26056 61 78 138 255 
2.24779 -3.82342 -1.25002 68 57 131 255 
2.17087 -3.68534 -1.25317 68 57 131 255 
6.90452 -11.811 4.10972 70 52 128 255 
7.05997 -12.0531 4.03975 70 51 127 255 
6.95238 -11.8597 3.83056 63 71 136 255 
10.2454 -17.4778 5.43986 72 26 108 255 
10.046 -17.1642 5.16192 71 42 122 255 
10.0154 -17.1056 4.93482 72 38 119 255 
9.98689 -17.0634 4.72109 72 37 118 255 
9.96043 -17.0257 4.51769 72 31 112 255 
9.99118 -17.0637 4.36198 72 29 111 255 
10.5052 -17.9494 4.37136 72 29 111 255 
10.4104 -17.8084 4.13312 72 29 111 255 
10.2785 -17.5976 3.8876 72 33 115 255 
13.167 -22.4876 4.75449 70 7 90 255 
9.78207 -16.7205 3.3426 71 44 122 255 
9.67924 -16.5709 3.12197 71 46 124 255 
9.76101 -16.7451 2.97284 71 47 125 255 
9.80332 -16.7496 2.81742 68 58 131 255 
9.80144 -16.7603 2.62858 70 48 126 255 
9.63759 -16.5195 2.40591 70 52 128 255 
9.5689 -16.4287 2.2166 71 42 122 255 
11.2394 -19.2032 2.41325 72 24 106 255 
11.1234 -19.0437 2.18188 72 36 117 255 
10.8964 -18.6846 1.9342 72 26 108 255 
10.7988 -18.5626 1.72031 72 35 116 255 
10.4365 -17.8385 1.49232 72 26 108 255 
10.0418 -17.1989 1.24951 70 50 126 255 
11.1171 -19.086 1.17689 72 33 115 255 
12.6139 -21.7001 1.10027 71 19 101 255 
12.3848 -21.1857 0.882691 72 22 104 255 
12.6518 -21.6864 0.666224 72 20 103 255 
41.9558 -72.0595 1.42635 69 5 89 255 
0 -0 0 68 1 84 255 
0 -0 -0 68 2 86 255 
41.9684 -71.9958 -0.799985 69 4 87 255 
