ply
format ascii 1.0
comment VTK generated PLY File
obj_info vtkPolyData points and polygons: vtk4.0
element vertex 1221
property float x
property float y
property float z
property uchar red
property uchar green
property uchar blue
property uchar alpha
element face 0
property list uchar int vertex_indices
end_header
17.5078 22.7741 -0.00501363 69 5 89 255 
14.5688 18.9095 -0.229151 71 13 96 255 
12.0389 15.5979 -0.371446 72 20 103 255 
10.3445 13.3733 -0.478168 72 28 110 255 
9.3203 12.1107 -0.555021 72 29 111 255 
8.68278 11.2616 -0.648224 72 40 120 255 
8.10855 10.5019 -0.730178 72 41 121 255 
7.59723 9.81808 -0.800615 70 50 126 255 
7.10706 9.23152 -0.845329 63 72 137 255 
6.54009 8.47642 -0.876446 70 50 126 255 
6.04571 7.8217 -0.903161 69 55 129 255 
5.65718 7.31091 -0.932461 63 72 137 255 
5.30629 6.88501 -0.947381 57 86 140 255 
4.98878 6.46349 -0.967818 59 82 139 255 
4.68884 6.06404 -0.981955 60 79 138 255 
4.43617 5.72884 -0.997682 53 94 141 255 
4.21841 5.46755 -1.00867 53 95 141 255 
3.99501 5.17221 -1.01641 61 78 138 255 
3.76929 4.87304 -1.01658 59 81 139 255 
3.60956 4.66136 -1.03105 63 71 136 255 
3.45423 4.47064 -1.0369 59 81 139 255 
3.29501 4.26134 -1.03926 62 73 137 255 
3.20072 4.13798 -1.06149 60 80 139 255 
3.07359 3.97064 -1.07005 60 80 139 255 
2.94646 3.80934 -1.06854 60 80 139 255 
2.83788 3.6675 -1.074 61 78 138 255 
2.74637 3.54802 -1.08463 59 82 139 255 
2.63878 3.41139 -1.08812 61 78 138 255 
2.55646 3.29919 -1.09107 58 84 140 255 
2.47457 3.19337 -1.09611 63 71 136 255 
2.39957 3.09888 -1.10462 61 78 138 255 
2.30884 2.98699 -1.10612 66 64 134 255 
9.12925 11.7299 4.46502 65 68 135 255 
11.0877 14.2715 5.22658 72 29 111 255 
10.9078 14.0503 4.95629 72 38 119 255 
10.6093 13.6653 4.64528 71 42 122 255 
10.4959 13.5004 4.43839 72 33 115 255 
10.9121 14.0404 4.42701 72 27 109 255 
6.04879 7.78023 2.35323 54 92 141 255 
6.11486 7.86208 2.28117 59 82 139 255 
6.62154 8.52007 2.38036 72 41 121 255 
12.0217 15.4626 4.11672 71 16 99 255 
5.89459 7.57371 1.92295 49 104 142 255 
7.03135 9.02744 2.1828 71 45 123 255 
7.63408 9.82293 2.26982 72 41 121 255 
6.88475 8.85213 1.93503 71 45 123 255 
7.06267 9.06799 1.86984 68 58 131 255 
6.91366 8.86041 1.72376 49 103 142 255 
5.55053 7.13941 1.31281 54 93 141 255 
5.62754 7.23305 1.2407 40 124 142 255 
5.59073 7.17038 1.14379 72 29 111 255 
15.3151 19.6134 2.90124 70 11 94 255 
17.6665 22.7237 3.12177 71 16 99 255 
20.2575 26.0088 3.2615 71 14 97 255 
20.3811 26.1303 2.96339 70 11 94 255 
26.4833 33.8796 3.44477 70 8 92 255 
26.287 33.7997 3.09181 71 19 101 255 
26.376 33.8522 2.69244 71 16 99 255 
26.3494 33.7457 2.28127 70 7 90 255 
39.0648 49.9389 2.77933 69 5 89 255 
20.5505 26.4047 1.20351 70 10 93 255 
20.6082 26.4305 0.889334 71 16 99 255 
20.5251 26.2771 0.570364 71 13 96 255 
16.6388 21.2551 0.212008 70 7 90 255 
16.7276 21.485 -0.00475236 69 5 89 255 
14.7781 18.9396 -0.23061 71 16 99 255 
12.1313 15.5198 -0.371352 72 23 105 255 
10.4135 13.2931 -0.477575 72 27 109 255 
9.4061 12.0683 -0.555711 72 32 113 255 
8.74865 11.2042 -0.647996 71 45 123 255 
8.18145 10.4629 -0.730947 71 45 123 255 
7.66779 9.78463 -0.801709 71 47 125 255 
7.1838 9.21369 -0.847717 63 71 136 255 
6.60916 8.45812 -0.878731 70 51 127 255 
6.1028 7.79622 -0.904525 68 58 131 255 
5.70869 7.28468 -0.933565 64 69 136 255 
5.36128 6.86878 -0.949656 54 93 141 255 
5.02468 6.42806 -0.967111 55 91 141 255 
4.72412 6.03281 -0.981574 56 89 140 255 
4.47246 5.70307 -0.997955 56 89 140 255 
4.25066 5.44 -1.00838 47 107 142 255 
4.02423 5.14449 -1.0158 58 84 140 255 
3.80825 4.86147 -1.01902 62 73 137 255 
3.63627 4.6368 -1.03054 64 70 136 255 
3.48584 4.45479 -1.03817 62 76 138 255 
3.34229 4.2681 -1.04589 62 76 138 255 
3.21517 4.10437 -1.05791 61 78 138 255 
3.09729 3.95094 -1.06984 57 86 140 255 
2.9758 3.79888 -1.0707 57 85 140 255 
2.86093 3.65078 -1.07423 58 84 140 255 
2.77529 3.54028 -1.08745 56 88 140 255 
2.65009 3.38292 -1.0842 57 85 140 255 
2.57965 3.28725 -1.09233 61 78 138 255 
2.49114 3.17433 -1.0948 61 77 138 255 
2.42211 3.08864 -1.10625 62 74 137 255 
2.32594 2.97126 -1.10556 67 62 133 255 
9.2301 11.7105 4.47912 67 62 133 255 
9.31936 11.8447 4.35868 71 19 101 255 
11.1849 14.2262 5.04245 72 31 112 255 
11.3669 14.4571 4.93806 72 26 108 255 
10.8066 13.7255 4.5341 71 45 123 255 
11.3587 14.4315 4.5722 72 33 115 255 
6.1271 7.78194 2.36508 69 56 130 255 
6.14911 7.8068 2.27603 72 27 109 255 
6.34574 8.06261 2.26339 69 55 129 255 
6.7677 8.5954 2.29943 48 105 142 255 
5.88329 7.46424 1.90428 51 99 141 255 
5.91493 7.49873 1.82191 65 68 135 255 
7.00912 8.90546 2.06771 69 56 130 255 
5.80176 7.36595 1.61791 48 105 142 255 
5.89565 7.47455 1.5487 56 89 140 255 
6.95686 8.80386 1.72103 55 90 140 255 
5.67259 7.20475 1.3312 64 70 136 255 
5.6945 7.22718 1.24567 47 108 142 255 
5.68259 7.19668 1.15353 53 94 141 255 
15.437 19.5214 2.90158 71 19 101 255 
15.4409 19.6115 2.70718 71 19 101 255 
17.9368 22.74 2.86533 71 13 96 255 
16.6422 21.0689 2.40092 72 23 105 255 
26.4779 33.4476 3.4173 71 13 96 255 
26.4069 33.5273 3.08165 71 13 96 255 
26.4497 33.5205 2.67891 72 22 104 255 
0 0 0 68 1 84 255 
39.4157 49.7555 2.78252 70 7 90 255 
39.2751 49.8296 2.28214 70 7 90 255 
34.9782 44.2972 1.4977 69 4 87 255 
33.3333 42.1392 0.919085 70 10 93 255 
0 0 0 68 2 86 255 
16.7 21.1802 -0.0047075 69 4 87 255 
14.9486 18.9176 -0.231455 71 16 99 255 
12.2083 15.4223 -0.370805 72 23 105 255 
10.4706 13.1984 -0.476472 72 26 108 255 
9.49112 12.0244 -0.556364 72 31 112 255 
8.83458 11.1723 -0.649271 72 41 121 255 
8.24611 10.4133 -0.731002 71 42 122 255 
7.74319 9.75694 -0.803318 71 47 125 255 
7.25133 9.18353 -0.84902 66 64 134 255 
6.66712 8.42522 -0.879547 69 55 129 255 
6.15485 7.76409 -0.905162 67 62 133 255 
5.75822 7.25575 -0.934368 65 68 135 255 
5.40641 6.83965 -0.950198 56 89 140 255 
5.05971 6.39166 -0.966287 54 92 141 255 
4.78447 6.03324 -0.986403 58 84 140 255 
4.51168 5.68095 -0.99891 55 90 140 255 
4.27843 5.40683 -1.00708 52 96 141 255 
4.05388 5.11738 -1.01534 57 86 140 255 
3.83923 4.83956 -1.01935 59 81 139 255 
3.67077 4.62211 -1.03226 63 72 137 255 
3.51006 4.42946 -1.03726 62 76 138 255 
3.37207 4.25213 -1.04702 57 85 140 255 
3.23786 4.0815 -1.05711 59 82 139 255 
3.10749 3.91424 -1.06505 59 81 139 255 
3.00876 3.79278 -1.07417 59 82 139 255 
2.88449 3.63469 -1.07468 57 85 140 255 
2.7891 3.51329 -1.0844 57 85 140 255 
2.67261 3.36887 -1.08494 62 73 137 255 
2.59014 3.25924 -1.08829 62 73 137 255 
2.51297 3.16201 -1.09585 63 71 136 255 
2.44401 3.07749 -1.10761 65 68 135 255 
2.35009 2.96445 -1.10837 66 64 134 255 
9.15899 11.4748 4.41036 67 61 132 255 
9.41102 11.8113 4.36757 72 38 119 255 
9.00931 11.3155 4.03026 71 42 122 255 
10.8905 13.6776 4.69456 72 27 109 255 
8.86917 11.1236 3.6925 71 45 123 255 
11.3654 14.2591 4.53959 72 31 112 255 
9.04896 11.349 3.46597 71 47 125 255 
7.47396 9.36995 2.74508 72 36 117 255 
6.79194 8.52141 2.40384 70 52 128 255 
7.17356 8.99674 2.41852 72 41 121 255 
5.96813 7.47704 1.91686 65 66 135 255 
5.95041 7.44925 1.81872 55 91 141 255 
5.83669 7.32293 1.70856 58 83 139 255 
5.84193 7.32405 1.61655 47 107 142 255 
5.93401 7.42898 1.54677 43 117 142 255 
6.98296 8.72628 1.71421 52 97 141 255 
5.72039 7.17445 1.33207 60 80 139 255 
5.72576 7.17584 1.24285 46 111 142 255 
5.76939 7.21514 1.16214 42 119 142 255 
5.67845 7.09103 1.05914 72 24 106 255 
16.4733 20.6606 2.8659 72 22 104 255 
16.7276 20.9414 2.65159 70 10 93 255 
16.7905 20.9905 2.40368 71 14 97 255 
26.9844 33.6609 3.45595 70 10 93 255 
26.7483 33.5354 3.09742 71 16 99 255 
26.7788 33.5127 2.69138 71 16 99 255 
33.2436 41.5146 2.83383 69 5 89 255 
39.7816 49.5891 2.78682 70 7 90 255 
39.6044 49.6181 2.28354 70 8 92 255 
0 0 0 69 4 87 255 
33.6357 41.9892 0.920299 70 10 93 255 
15.093 18.8005 0.189358 69 4 87 255 
15.4531 19.3534 -0.00432248 69 5 89 255 
15.0212 18.7716 -0.230793 71 16 99 255 
12.2895 15.3307 -0.37041 72 26 108 255 
10.5514 13.1339 -0.476472 72 24 106 255 
9.55661 11.9558 -0.555892 72 32 113 255 
8.89797 11.1116 -0.648907 72 41 121 255 
8.30735 10.3594 -0.730782 71 45 123 255 
7.82104 9.73181 -0.805185 71 45 123 255 
7.31502 9.14821 -0.849888 62 73 137 255 
6.68752 8.34527 -0.875467 70 52 128 255 
6.19614 7.71841 -0.904252 69 55 129 255 
5.77771 7.18926 -0.930353 67 62 133 255 
5.44144 6.79781 -0.949006 55 90 140 255 
5.09325 6.35352 -0.965228 55 90 140 255 
4.81208 5.99217 -0.984497 57 85 140 255 
4.54335 5.6493 -0.998228 53 95 141 255 
4.32143 5.39283 -1.00939 50 101 142 255 
4.08521 5.09241 -1.01534 57 85 140 255 
3.86329 4.80899 -1.01788 60 80 139 255 
3.69845 4.59873 -1.03209 63 71 136 255 
3.54086 4.41244 -1.03835 59 82 139 255 
3.39441 4.22676 -1.04589 58 84 140 255 
3.25302 4.04933 -1.05393 59 81 139 255 
3.11551 3.87528 -1.05963 62 73 137 255 
3.03198 3.77425 -1.07417 60 80 139 255 
2.90796 3.61844 -1.07513 57 86 140 255 
2.81121 3.49687 -1.08463 57 85 140 255 
2.71023 3.37358 -1.09179 61 77 138 255 
2.621 3.25685 -1.09284 61 77 138 255 
2.53354 3.14803 -1.09638 61 77 138 255 
2.45862 3.05718 -1.10571 63 72 137 255 
2.35081 2.92827 -1.10022 63 72 137 255 
10.3189 12.7665 4.93109 72 36 117 255 
10.8707 13.4729 5.00655 70 52 128 255 
10.8109 13.4085 4.79927 72 38 119 255 
9.00949 11.1738 3.85408 65 66 135 255 
8.94029 11.0727 3.69376 57 86 140 255 
9.07695 11.2457 3.5979 64 69 136 255 
10.4975 13.0013 3.99018 72 41 121 255 
7.59073 9.39747 2.76674 66 63 133 255 
6.83305 8.4659 2.39996 61 78 138 255 
6.65319 8.23988 2.226 62 76 138 255 
7.00193 8.66266 2.23178 57 85 140 255 
5.98118 7.39427 1.81423 48 105 142 255 
5.86668 7.2686 1.70425 50 102 142 255 
5.89976 7.30416 1.62012 48 106 142 255 
5.88078 7.27041 1.52124 70 52 128 255 
7.05255 8.70324 1.71815 62 74 137 255 
6.9909 8.65837 1.61552 58 84 140 255 
5.77404 7.14597 1.24379 60 80 139 255 
5.82667 7.1958 1.16476 44 114 142 255 
15.4408 19.0412 2.85816 72 20 103 255 
16.7078 20.693 2.88456 71 14 97 255 
18.2889 22.6102 2.87704 70 11 94 255 
18.1979 22.466 2.58538 71 14 97 255 
27.4706 33.8399 3.49156 69 4 87 255 
26.8896 33.2915 3.09008 71 14 97 255 
26.7103 33.0095 2.66407 70 8 92 255 
34.1316 42.0917 2.88746 69 4 87 255 
0 0 0 69 4 87 255 
39.8836 49.3439 2.28214 69 5 89 255 
0 0 0 68 2 86 255 
34.1068 42.0461 0.926114 70 8 92 255 
0 0 0 69 4 87 255 
15.0592 18.6245 -0.00418024 70 8 92 255 
14.9926 18.502 -0.228604 70 8 92 255 
12.3664 15.2341 -0.369901 71 19 101 255 
10.6311 13.0681 -0.476444 72 26 108 255 
9.6562 11.9296 -0.557417 72 35 116 255 
8.97164 11.0638 -0.649317 71 45 123 255 
8.39342 10.3361 -0.732761 71 47 125 255 
7.8762 9.67822 -0.804734 71 47 125 255 
7.38105 9.11556 -0.851046 67 62 133 255 
6.73923 8.30485 -0.875549 69 55 129 255 
6.24401 7.68102 -0.904343 69 53 129 255 
5.80727 7.13592 -0.928045 67 62 133 255 
5.4724 6.75117 -0.947164 58 84 140 255 
5.13777 6.32909 -0.966287 52 96 141 255 
4.85126 5.96561 -0.985005 56 89 140 255 
4.57355 5.61594 -0.997273 55 91 141 255 
4.36753 5.38235 -1.01242 48 105 142 255 
4.11638 5.06725 -1.01534 56 88 140 255 
3.89522 4.78825 -1.01854 59 81 139 255 
3.72597 4.57519 -1.03192 62 76 138 255 
3.59082 4.41887 -1.04503 54 92 141 255 
3.41966 4.20509 -1.0457 55 91 141 255 
3.26853 4.01789 -1.05095 60 79 138 255 
3.14356 3.8614 -1.06109 60 79 138 255 
3.05693 3.75785 -1.07482 58 84 140 255 
2.93318 3.60431 -1.07626 57 86 140 255 
2.84612 3.49614 -1.0898 56 88 140 255 
2.72415 3.34861 -1.0891 61 77 138 255 
2.64338 3.24371 -1.09385 61 78 138 255 
2.5522 3.13168 -1.09611 62 73 137 255 
2.47004 3.03309 -1.10245 62 73 137 255 
2.37418 2.9205 -1.10275 67 61 132 255 
11.2432 13.7368 5.33242 72 38 119 255 
11.3233 13.8589 5.17574 72 28 110 255 
10.8777 13.3232 4.79256 71 44 122 255 
10.8083 13.2377 4.58875 71 47 125 255 
9.05402 11.0739 3.7126 69 56 130 255 
9.12674 11.1665 3.59041 63 71 136 255 
10.5186 12.8651 3.96811 71 46 124 255 
10.7352 13.1248 3.88344 72 35 116 255 
7.69627 9.41658 2.6828 62 76 138 255 
6.91857 8.4618 2.29737 50 101 142 255 
6.03211 7.36986 1.90821 64 69 136 255 
6.03266 7.36503 1.8161 53 94 141 255 
5.95288 7.2835 1.71627 50 101 142 255 
5.98627 7.31893 1.63151 46 109 142 255 
7.18427 8.77128 1.84447 54 93 141 255 
15.092 18.3924 3.64915 72 40 120 255 
5.84872 7.15351 1.3414 48 105 142 255 
5.83159 7.12728 1.24674 52 96 141 255 
16.1451 19.6905 3.20322 72 22 104 255 
16.8545 20.5259 3.09648 71 14 97 255 
15.6961 19.1977 2.6895 72 27 109 255 
15.8174 19.3111 2.46955 72 36 117 255 
15.8473 19.3204 2.23454 72 23 105 255 
16.1018 19.5882 2.03125 72 24 106 255 
26.9437 32.9429 3.07301 71 14 97 255 
26.9129 32.8458 2.66414 70 10 93 255 
0 0 0 69 4 87 255 
40.3928 49.1041 2.78721 69 4 87 255 
40.3584 49.3093 2.29196 69 4 87 255 
35.8067 43.669 1.4985 69 4 87 255 
34.4759 41.972 0.929125 70 7 90 255 
14.4042 17.4983 0.178009 69 5 89 255 
14.615 17.8501 -0.00402647 70 7 90 255 
14.4563 17.6181 -0.218775 70 8 92 255 
12.4907 15.1958 -0.370824 71 19 101 255 
10.7276 13.0227 -0.477179 72 28 110 255 
9.71211 11.8493 -0.556437 72 31 112 255 
9.04697 11.0178 -0.649863 71 42 122 255 
8.44907 10.2752 -0.732101 72 37 118 255 
7.94051 9.63587 -0.805249 70 52 128 255 
7.45139 9.08783 -0.85271 64 69 136 255 
6.79069 8.26411 -0.87563 71 46 124 255 
6.29862 7.65179 -0.905435 69 55 129 255 
5.85094 7.10016 -0.928045 68 59 132 255 
5.5049 6.7067 -0.945647 52 97 141 255 
5.17903 6.30051 -0.966758 50 101 142 255 
4.88651 5.9342 -0.984751 55 91 141 255 
4.5991 5.57707 -0.995363 52 97 141 255 
4.39293 5.34628 -1.01069 50 100 142 255 
4.14927 5.04418 -1.0158 57 85 140 255 
3.92327 4.76274 -1.01821 61 78 138 255 
3.75836 4.55756 -1.03312 61 77 138 255 
3.60599 4.38233 -1.0416 55 90 140 255 
3.45352 4.19389 -1.04816 57 86 140 255 
3.30309 4.00986 -1.05413 59 82 139 255 
3.1815 3.8594 -1.06588 60 79 138 255 
3.07806 3.73676 -1.07417 60 79 138 255 
2.95214 3.58248 -1.07513 57 86 140 255 
2.86628 3.47711 -1.08933 56 89 140 255 
2.75636 3.34605 -1.09374 61 78 138 255 
2.65954 3.22295 -1.09233 63 71 136 255 
2.56522 3.10852 -1.0935 65 68 135 255 
2.48432 3.01267 -1.10055 62 76 138 255 
2.4006 2.91625 -1.10668 67 61 132 255 
11.6702 14.0813 5.49382 72 23 105 255 
11.0824 13.3954 5.02794 72 36 117 255 
11.4165 13.8093 4.99253 72 28 110 255 
10.8961 13.1793 4.5916 70 52 128 255 
10.8402 13.0938 4.41201 72 35 116 255 
10.8885 13.1564 4.25162 71 44 122 255 
11.8398 14.301 4.43333 72 28 110 255 
7.49595 9.05062 2.6915 72 28 110 255 
7.73648 9.34812 2.67677 58 83 139 255 
7.85968 9.49335 2.59048 71 46 124 255 
6.03529 7.28212 1.89505 57 86 140 255 
6.18184 7.45338 1.84721 66 65 134 255 
5.97237 7.21652 1.70909 48 106 142 255 
6.07066 7.32988 1.64222 49 103 142 255 
7.23858 8.7278 1.84463 55 90 140 255 
15.3372 18.4591 3.68099 72 33 115 255 
15.4769 18.6944 3.52325 72 36 117 255 
15.44 18.6361 3.27643 71 42 122 255 
16.3518 19.6949 3.22019 71 19 101 255 
16.4016 19.7263 2.99099 71 17 100 255 
17.9723 21.7086 3.05665 70 8 92 255 
16.5334 19.9345 2.5622 70 8 92 255 
15.9674 19.2251 2.23481 72 28 110 255 
16.6846 20.0453 2.08922 71 19 101 255 
16.3989 19.8011 1.85645 72 31 112 255 
16.49 19.8751 1.62026 72 32 113 255 
16.7425 20.1369 1.39536 72 23 105 255 
16.9023 20.2924 1.15769 72 24 106 255 
16.8473 20.328 0.949658 70 7 90 255 
16.9035 20.3591 0.702167 70 11 94 255 
16.993 20.4309 0.454574 71 19 101 255 
14.3116 17.1699 0.175558 69 5 89 255 
14.1626 17.0826 -0.00387289 71 13 96 255 
14.1641 17.0476 -0.212765 70 11 94 255 
12.688 15.2441 -0.373897 71 17 100 255 
10.792 12.9382 -0.4765 72 26 108 255 
9.82101 11.8333 -0.558506 72 31 112 255 
9.12717 10.9774 -0.650774 72 33 115 255 
8.52154 10.2347 -0.732925 72 37 118 255 
7.9899 9.57547 -0.804284 71 46 124 255 
7.47197 8.99974 -0.84873 65 66 135 255 
6.84446 8.22612 -0.876038 71 47 125 255 
6.32569 7.58928 -0.902615 67 62 133 255 
5.90141 7.07253 -0.929149 66 63 133 255 
5.51417 6.63457 -0.94023 60 79 138 255 
5.21441 6.2648 -0.96617 51 98 141 255 
4.91966 5.9003 -0.984115 57 86 140 255 
4.63069 5.54571 -0.994818 55 91 141 255 
4.41426 5.30553 -1.00809 49 103 142 255 
4.18204 5.02091 -1.01626 60 80 139 255 
3.96317 4.75146 -1.02098 56 88 140 255 
3.78815 4.53668 -1.03364 59 82 139 255 
3.62274 4.34803 -1.03871 54 93 141 255 
3.49239 4.18845 -1.05214 53 94 141 255 
3.34584 4.01134 -1.0599 55 91 141 255 
3.22079 3.85858 -1.07109 56 89 140 255 
3.09968 3.7163 -1.07374 60 80 139 255 
2.9722 3.56205 -1.07446 59 82 139 255 
2.8832 3.45423 -1.08769 55 91 141 255 
2.78057 3.33354 -1.09521 62 73 137 255 
2.68547 3.21399 -1.09486 61 78 138 255 
2.58177 3.08976 -1.09245 64 69 136 255 
2.50831 3.00402 -1.10299 62 74 137 255 
2.4252 2.90957 -1.10977 66 63 133 255 
11.0342 13.1489 5.15635 72 36 117 255 
11.2945 13.4826 5.08656 72 35 116 255 
11.493 13.7294 4.98904 72 41 121 255 
10.9805 13.1167 4.59316 72 40 120 255 
10.9421 13.053 4.4208 72 37 118 255 
9.13407 10.8997 3.5404 67 61 132 255 
7.2346 8.63015 2.68907 71 46 124 255 
7.47618 8.91483 2.66471 69 56 130 255 
7.7341 9.22937 2.65631 56 89 140 255 
7.03069 8.38676 2.30025 62 73 137 255 
6.11138 7.28251 1.90487 50 102 142 255 
6.10932 7.27465 1.81216 72 41 121 255 
6.15934 7.35015 1.74966 64 70 136 255 
15.6048 18.608 4.1904 71 17 100 255 
15.3393 18.2659 3.88034 72 33 115 255 
15.4285 18.339 3.67584 72 27 109 255 
15.4648 18.4481 3.49466 71 17 100 255 
15.4783 18.4507 3.26047 71 47 125 255 
15.747 18.7315 3.07841 70 8 92 255 
16.7674 19.9163 3.03534 70 10 93 255 
16.6694 19.8852 2.81425 72 20 103 255 
16.6509 19.8273 2.56151 71 17 100 255 
15.9165 18.9263 2.21138 72 27 109 255 
16.9512 20.1133 2.10711 71 17 100 255 
16.8867 20.1372 1.89765 72 29 111 255 
16.8055 20.0044 1.63917 72 27 109 255 
16.8921 20.0651 1.39755 72 24 106 255 
16.9878 20.1425 1.15506 72 26 108 255 
16.9525 20.2013 0.94858 72 29 111 255 
17.0133 20.2374 0.701557 72 33 115 255 
13.7624 16.3418 0.365465 72 32 113 255 
13.7646 16.3092 0.167618 70 48 126 255 
14.0235 16.7051 -0.00380674 71 16 99 255 
13.8964 16.5181 -0.207217 72 23 105 255 
12.8747 15.2768 -0.37663 72 24 106 255 
10.8744 12.8756 -0.476642 72 24 106 255 
9.88572 11.7636 -0.55807 72 35 116 255 
9.17441 10.8975 -0.649363 72 32 113 255 
8.59384 10.1936 -0.73375 71 45 123 255 
8.06976 9.55142 -0.806407 70 50 126 255 
7.52128 8.94685 -0.848079 65 66 135 255 
6.88068 8.1672 -0.874243 71 45 123 255 
6.36957 7.54728 -0.902251 69 56 130 255 
5.94341 7.03466 -0.928948 68 59 132 255 
5.5503 6.59529 -0.939471 61 77 138 255 
5.24251 6.22053 -0.964286 50 100 142 255 
4.95193 5.86545 -0.983353 58 83 139 255 
4.66847 5.52173 -0.995636 51 98 141 255 
4.44355 5.27456 -1.00737 50 100 142 255 
4.20768 4.98911 -1.01503 58 84 140 255 
3.99606 4.73158 -1.02195 53 95 141 255 
3.81719 4.51486 -1.03398 61 77 138 255 
3.6576 4.33549 -1.04105 53 94 141 255 
3.50979 4.15719 -1.04968 57 85 140 255 
3.35332 3.97052 -1.05453 55 91 141 255 
3.23998 3.83351 -1.06963 60 80 139 255 
3.11235 3.68528 -1.07027 61 78 138 255 
2.99337 3.54301 -1.07423 57 85 140 255 
2.89681 3.42757 -1.08487 57 86 140 255 
2.79659 3.31123 -1.0935 65 68 135 255 
2.71264 3.20632 -1.0979 60 79 138 255 
2.61813 3.09449 -1.09978 62 74 137 255 
2.52421 2.98564 -1.10191 64 69 136 255 
2.4492 2.90197 -1.11259 66 64 134 255 
16.7387 19.6998 7.76546 70 11 94 255 
11.1639 13.1617 4.99127 69 53 129 255 
11.0034 12.9819 4.74183 72 29 111 255 
10.914 12.8759 4.53222 72 27 109 255 
9.23251 10.8773 3.70305 71 47 125 255 
7.30412 8.60816 2.81058 66 65 134 255 
7.31574 8.61897 2.69953 61 77 138 255 
7.90109 9.30495 2.79576 70 50 126 255 
7.63201 8.99484 2.60224 62 73 137 255 
7.13458 8.40539 2.31732 62 73 137 255 
6.16103 7.25085 1.90644 55 90 140 255 
14.8988 17.5212 4.38735 72 26 108 255 
7.23286 8.52442 2.03971 72 31 112 255 
7.24702 8.53483 1.93197 48 106 142 255 
15.6941 18.4572 3.94136 71 19 101 255 
16.349 19.1928 3.86701 72 22 104 255 
15.5386 18.3069 3.4859 72 26 108 255 
15.5964 18.3614 3.26154 72 33 115 255 
15.2771 17.9477 2.96495 70 10 93 255 
17.1083 20.07 3.07471 70 7 90 255 
16.8735 19.8795 2.82806 72 20 103 255 
15.8472 18.6369 2.42023 71 14 97 255 
15.8986 18.6713 2.19295 71 17 100 255 
21.7395 25.4759 2.68283 71 13 96 255 
22.363 26.3377 2.49483 70 7 90 255 
27.079 31.8347 2.62212 70 7 90 255 
17.0227 19.9702 1.39818 69 5 89 255 
17.1325 20.063 1.15651 69 4 87 255 
17.1305 20.1609 0.951599 72 22 104 255 
13.9991 16.446 0.573092 72 28 110 255 
13.3668 15.6757 0.352398 71 19 101 255 
13.422 15.7067 0.162269 70 51 127 255 
13.5085 15.8926 -0.00364041 72 40 120 255 
13.48 15.825 -0.199557 70 48 126 255 
13.255 15.5337 -0.384961 72 29 111 255 
10.9421 12.7957 -0.476161 72 27 109 255 
9.93505 11.6761 -0.5568 72 29 111 255 
9.25601 10.8585 -0.65041 72 32 113 255 
8.67697 10.165 -0.735508 72 33 115 255 
8.13794 9.5131 -0.807373 71 46 124 255 
7.58832 8.91496 -0.849454 64 70 136 255 
6.91773 8.10966 -0.872612 71 42 122 255 
6.4164 7.50881 -0.902342 68 59 132 255 
5.98517 6.99655 -0.928747 67 61 132 255 
5.58292 6.55203 -0.938171 62 76 138 255 
5.27285 6.17919 -0.962874 51 99 141 255 
4.98783 5.83496 -0.983353 59 81 139 255 
4.71193 5.50427 -0.997682 48 106 142 255 
4.47262 5.24343 -1.00664 51 98 141 255 
4.22794 4.95117 -1.01257 54 92 141 255 
4.02374 4.70547 -1.02163 53 94 141 255 
3.84354 4.48986 -1.03364 59 82 139 255 
3.67774 4.30549 -1.03925 53 95 141 255 
3.53842 4.13931 -1.05062 54 92 141 255 
3.37443 3.94615 -1.05353 57 85 140 255 
3.26281 3.81282 -1.06942 59 81 139 255 
3.14252 3.67502 -1.07287 57 85 140 255 
3.01315 3.52235 -1.07355 57 86 140 255 
2.91969 3.41195 -1.08557 57 86 140 255 
2.79795 3.2719 -1.08616 64 70 136 255 
2.72282 3.17859 -1.0941 62 74 137 255 
2.63205 3.0725 -1.09768 65 68 135 255 
2.55813 2.98837 -1.10869 61 78 138 255 
2.46696 2.88689 -1.11259 65 68 135 255 
10.9849 12.7685 5.05969 72 36 117 255 
11.1487 12.9815 4.94877 71 45 123 255 
11.0972 12.9309 4.748 72 35 116 255 
9.28196 10.8152 3.82686 64 69 136 255 
9.30224 10.8241 3.70431 67 61 132 255 
7.35111 8.55656 2.8084 72 36 117 255 
7.38434 8.59236 2.70533 56 88 140 255 
10.871 12.6445 3.81914 72 36 117 255 
7.50061 8.73081 2.53912 57 85 140 255 
7.23131 8.41415 2.33193 50 100 142 255 
6.19005 7.19507 1.90173 55 91 141 255 
15.0092 17.4332 4.38828 71 19 101 255 
7.36196 8.56942 2.06125 66 65 134 255 
7.29796 8.48871 1.93163 47 108 142 255 
15.7362 18.2782 3.9237 72 27 109 255 
15.4729 17.9402 3.63369 72 20 103 255 
15.0069 17.4621 3.34252 72 37 118 255 
15.133 17.5959 3.14201 72 31 112 255 
18.5828 21.5619 3.58078 71 16 99 255 
14.7871 17.1329 2.63859 70 11 94 255 
17.1124 19.9121 2.84757 72 22 104 255 
15.9554 18.5325 2.41934 72 26 108 255 
15.8698 18.4074 2.17335 71 19 101 255 
15.793 18.279 1.93511 71 13 96 255 
22.4292 26.0895 2.48432 70 7 90 255 
0 0 0 68 2 86 255 
41.8248 48.4614 3.41086 70 7 90 255 
0 0 0 68 2 86 255 
41.819 48.6093 2.30644 69 4 87 255 
13.6312 15.8161 0.554046 72 41 121 255 
13.4412 15.5685 0.351834 72 24 106 255 
13.4612 15.5583 0.161586 69 53 129 255 
13.4355 15.6116 -0.00359485 69 55 129 255 
13.4646 15.6118 -0.197906 66 64 134 255 
13.4455 15.5625 -0.387712 70 52 128 255 
11.029 12.7381 -0.476529 72 24 106 255 
10.0267 11.6384 -0.557925 72 29 111 255 
9.32116 10.8 -0.650319 72 36 117 255 
8.73003 10.101 -0.734739 71 45 123 255 
8.21576 9.48562 -0.809304 71 47 125 255 
7.6318 8.85539 -0.848224 67 62 133 255 
6.96345 8.06254 -0.872122 70 51 127 255 
6.47083 7.47909 -0.903524 70 52 128 255 
6.02603 6.95744 -0.928446 65 66 135 255 
5.62172 6.51614 -0.937955 62 73 137 255 
5.31326 6.14972 -0.963345 49 104 142 255 
5.02873 5.81024 -0.98437 57 86 140 255 
4.73847 5.46702 -0.996182 50 100 142 255 
4.49888 5.20915 -1.00534 52 97 141 255 
4.25307 4.91916 -1.01134 57 85 140 255 
4.04608 4.67323 -1.02 56 89 140 255 
3.85682 4.44981 -1.02985 59 81 139 255 
3.71696 4.29772 -1.04286 51 99 141 255 
3.5599 4.11307 -1.04949 57 85 140 255 
3.43065 3.96241 -1.06348 58 84 140 255 
3.27718 3.78238 -1.0665 59 81 139 255 
3.15606 3.64533 -1.06984 58 84 140 255 
3.04172 3.5119 -1.07604 58 83 139 255 
2.94184 3.39544 -1.08604 56 89 140 255 
2.82686 3.26494 -1.08958 65 66 135 255 
2.75115 3.17206 -1.09765 63 72 137 255 
2.64959 3.05484 -1.09716 62 73 137 255 
2.57137 2.9668 -1.10652 63 71 136 255 
2.48274 2.86952 -1.11174 65 68 135 255 
11.0617 12.6994 5.05911 72 31 112 255 
11.2288 12.9136 4.94904 72 32 113 255 
11.5662 13.3112 4.91361 72 36 117 255 
9.32217 10.7282 3.81622 68 57 131 255 
9.31129 10.7011 3.6817 69 56 130 255 
11.1737 12.8456 4.23858 72 36 117 255 
7.40436 8.50947 2.69349 72 31 112 255 
7.3958 8.49632 2.57988 64 69 136 255 
7.56493 8.69715 2.54278 55 90 140 255 
7.48323 8.59995 2.3961 55 91 141 255 
7.42616 8.5255 2.26538 71 42 122 255 
7.39303 8.4812 2.14627 61 78 138 255 
7.41828 8.52855 2.06233 53 94 141 255 
7.35315 8.44748 1.93248 46 111 142 255 
7.34617 8.42773 1.81878 47 107 142 255 
17.067 19.5447 3.97981 71 17 100 255 
15.3529 17.6445 3.39539 72 29 111 255 
17.5144 20.1139 3.61076 71 16 99 255 
15.5797 17.8546 2.98093 71 16 99 255 
17.2586 19.7501 3.05792 70 8 92 255 
15.8018 18.1605 2.61089 71 14 97 255 
15.8498 18.183 2.38636 72 40 120 255 
18.6699 21.3885 2.5388 70 11 94 255 
15.876 18.1488 1.9316 72 27 109 255 
23.9955 27.5674 2.63902 70 11 94 255 
30.3183 34.7692 2.89425 69 4 87 255 
42.2061 48.3008 3.41772 69 4 87 255 
42.2848 48.3042 2.81414 69 4 87 255 
0 0 0 68 2 86 255 
13.6287 15.6185 0.550041 72 41 121 255 
13.5305 15.4789 0.35168 72 23 105 255 
13.5604 15.4799 0.161633 69 55 129 255 
13.535 15.5334 -0.0035959 66 63 133 255 
13.5469 15.5138 -0.197714 69 55 129 255 
13.5533 15.494 -0.388071 71 46 124 255 
11.1043 12.6672 -0.476416 72 29 111 255 
10.1065 11.5864 -0.558397 72 28 110 255 
9.42209 10.7825 -0.652732 72 36 117 255 
8.805 10.0623 -0.735838 72 40 120 255 
8.2896 9.45304 -0.810848 70 50 126 255 
7.68796 8.81065 -0.848441 65 68 135 255 
7.01148 8.01816 -0.871959 70 48 126 255 
6.50478 7.42576 -0.901887 68 59 132 255 
6.06139 6.9121 -0.927342 67 61 132 255 
5.66748 6.48827 -0.93893 60 80 139 255 
5.36397 6.13195 -0.965699 50 102 142 255 
5.06625 5.78152 -0.984751 59 81 139 255 
4.77389 5.44007 -0.996591 52 96 141 255 
4.53206 5.18294 -1.00563 53 95 141 255 
4.28057 4.89 -1.01073 57 85 140 255 
4.06752 4.64015 -1.01821 53 95 141 255 
3.89575 4.43939 -1.03295 61 78 138 255 
3.74844 4.28075 -1.0443 53 95 141 255 
3.59413 4.10148 -1.05214 56 88 140 255 
3.45167 3.93761 -1.06248 57 85 140 255 
3.29839 3.75999 -1.06588 60 80 139 255 
3.18545 3.63397 -1.07222 56 88 140 255 
3.06386 3.4939 -1.07626 57 85 140 255 
2.95941 3.37367 -1.08487 60 80 139 255 
2.86345 3.26649 -1.09594 62 74 137 255 
2.78014 3.16602 -1.10144 62 76 138 255 
2.67083 3.04142 -1.09821 62 73 137 255 
2.58635 2.94735 -1.10516 65 66 135 255 
2.50789 2.86289 -1.11512 69 56 130 255 
11.116 12.6047 5.04847 71 44 122 255 
11.1447 12.6591 4.87765 68 58 131 255 
11.5713 13.1532 4.8814 72 27 109 255 
9.45927 10.752 3.84527 67 62 133 255 
9.41453 10.6866 3.69652 72 31 112 255 
11.6217 13.1963 4.37773 72 36 117 255 
7.42493 8.42811 2.68211 71 46 124 255 
7.39301 8.38862 2.5609 54 93 141 255 
7.28126 8.26802 2.43034 60 80 139 255 
7.21111 8.18526 2.29285 62 76 138 255 
7.3804 8.36873 2.23571 70 48 126 255 
7.41179 8.39811 2.13671 57 86 140 255 
7.45096 8.46072 2.05694 63 71 136 255 
7.40484 8.40221 1.93248 47 108 142 255 
7.37685 8.35882 1.81364 56 89 140 255 
15.6173 17.6645 3.61641 72 23 105 255 
15.4857 17.5781 3.40085 72 33 115 255 
15.4697 17.5471 3.16696 72 33 115 255 
15.6679 17.7348 2.97693 72 33 115 255 
15.2233 17.2068 2.67855 72 20 103 255 
15.7033 17.8252 2.5765 72 20 103 255 
15.8115 17.916 2.36401 72 31 112 255 
15.9369 18.0329 2.15206 72 22 104 255 
15.9487 18.0077 1.92696 71 19 101 255 
24.1259 27.3762 2.63484 70 11 94 255 
25.8519 29.2824 2.45068 69 5 89 255 
30.6062 34.5951 2.46116 70 7 90 255 
0 0 0 68 2 86 255 
42.4249 48.1067 2.30712 70 7 90 255 
13.7005 15.5076 0.549086 72 32 113 255 
13.6988 15.4787 0.353578 72 22 104 255 
13.685 15.43 0.161987 69 53 129 255 
13.6314 15.4516 -0.00359625 67 62 133 255 
13.6485 15.4379 -0.19781 70 50 126 255 
13.6733 15.439 -0.388787 71 46 124 255 
11.144 12.5562 -0.474804 72 22 104 255 
10.19 11.5384 -0.559086 72 28 110 255 
9.4616 10.6945 -0.650911 72 33 115 255 
8.88379 10.0275 -0.737267 72 38 119 255 
8.34811 9.40274 -0.810913 71 44 122 255 
7.74056 8.76182 -0.848296 67 62 133 255 
7.06054 7.97499 -0.871959 70 51 127 255 
6.54031 7.37454 -0.900522 69 56 130 255 
6.09973 6.87032 -0.92674 68 57 131 255 
5.71114 6.45784 -0.93958 62 73 137 255 
5.40281 6.10041 -0.965934 47 107 142 255 
5.09373 5.74142 -0.983226 57 86 140 255 
4.8006 5.40327 -0.995227 51 98 141 255 
4.55394 5.14392 -1.00346 54 92 141 255 
4.31115 4.86438 -1.01088 57 86 140 255 
4.10771 4.62839 -1.02114 57 86 140 255 
3.93142 4.42498 -1.03519 57 85 140 255 
3.76811 4.25031 -1.0425 56 89 140 255 
3.61141 4.07054 -1.04987 56 88 140 255 
3.4582 3.89656 -1.05711 59 82 139 255 
3.32399 3.74261 -1.06671 60 80 139 255 
3.20833 3.61509 -1.07244 58 84 140 255 
3.09494 3.48596 -1.07965 60 80 139 255 
2.96779 3.34164 -1.0804 60 80 139 255 
2.88151 3.24668 -1.09521 62 73 137 255 
2.7918 3.14023 -1.0984 60 79 138 255 
2.68495 3.01993 -1.09638 64 70 136 255 
2.59991 2.92639 -1.10327 64 70 136 255 
2.52286 2.84458 -1.11399 66 64 134 255 
11.1396 12.4763 5.0243 72 29 111 255 
11.1525 12.5123 4.84736 67 61 132 255 
11.3148 12.7036 4.74022 72 20 103 255 
11.7457 13.1869 4.74175 72 33 115 255 
9.55337 10.711 3.72516 72 40 120 255 
9.58811 10.7534 3.58679 72 33 115 255 
7.47844 8.38457 2.6828 69 53 129 255 
7.44564 8.34455 2.56135 52 97 141 255 
7.32341 8.21371 2.42754 58 83 139 255 
7.27553 8.15692 2.29737 62 73 137 255 
7.13252 7.98831 2.14573 53 94 141 255 
7.22101 8.08146 2.06738 49 104 142 255 
12.8529 14.4154 3.52373 72 31 112 255 
7.45626 8.35661 1.93248 46 111 142 255 
7.41945 8.30383 1.81155 72 29 111 255 
15.7194 17.5617 3.61504 72 32 113 255 
17.4502 19.5647 3.80584 71 16 99 255 
15.6087 17.4874 3.1734 72 29 111 255 
15.5099 17.3403 2.92663 72 31 112 255 
15.3319 17.1168 2.67913 71 16 99 255 
15.2976 17.1513 2.49261 72 31 112 255 
15.8628 17.7533 2.35535 72 35 116 255 
16.0572 17.9459 2.1534 72 28 110 255 
16.1048 17.9608 1.93247 72 23 105 255 
16.2368 18.1979 1.76103 72 27 109 255 
25.8987 28.9751 2.43822 70 8 92 255 
25.9416 28.9625 2.07174 70 7 90 255 
30.8285 34.3571 2.02349 70 8 92 255 
35.3386 39.5792 1.90852 69 4 87 255 
30.959 34.6121 1.23223 69 4 87 255 
13.8089 15.4115 0.353972 70 8 92 255 
13.8829 15.4611 0.163204 71 14 97 255 
13.7439 15.3878 -0.00360096 71 42 122 255 
13.8217 15.4418 -0.198943 72 35 116 255 
13.7718 15.3593 -0.3889 72 24 106 255 
11.0524 12.3002 -0.46768 72 20 103 255 
10.2779 11.4951 -0.56003 72 28 110 255 
9.5397 10.6504 -0.651776 72 35 116 255 
8.96315 9.99286 -0.73875 72 41 121 255 
8.42166 9.36915 -0.812457 71 45 123 255 
7.79085 8.71044 -0.847934 69 56 130 255 
7.12265 7.94636 -0.873591 71 47 125 255 
6.58278 7.3313 -0.900158 69 56 130 255 
6.16239 6.8557 -0.929851 66 63 133 255 
5.75132 6.42341 -0.939688 59 81 139 255 
5.44014 6.06715 -0.965934 50 100 142 255 
5.13549 5.71743 -0.984497 55 90 140 255 
4.82969 5.3693 -0.994409 56 89 140 255 
4.5841 5.11441 -1.00318 51 99 141 255 
4.33828 4.83489 -1.01026 60 80 139 255 
4.14526 4.61338 -1.02342 59 82 139 255 
3.96179 4.40443 -1.03605 59 81 139 255 
3.79609 4.22931 -1.04304 56 89 140 255 
3.62844 4.03954 -1.04759 57 86 140 255 
3.49646 3.89131 -1.06149 56 89 140 255 
3.34101 3.7156 -1.06484 60 80 139 255 
3.2285 3.59316 -1.07179 58 84 140 255 
3.12083 3.47198 -1.08122 56 88 140 255 
2.98564 3.32047 -1.07946 62 76 138 255 
2.89231 3.21884 -1.09179 62 74 137 255 
2.80907 3.12088 -1.09765 64 70 136 255 
2.70149 3.00124 -1.09559 65 66 135 255 
2.59915 2.88963 -1.0954 65 66 135 255 
2.51078 2.7962 -1.10106 68 59 132 255 
11.0245 12.196 4.93857 72 33 115 255 
11.1911 12.4016 4.83097 68 59 132 255 
12.0009 13.3085 4.99333 72 22 104 255 
9.61961 10.6674 3.85694 71 47 125 255 
9.54756 10.5732 3.69753 66 64 134 255 
9.65651 10.6973 3.58775 64 69 136 255 
7.54996 8.36091 2.69 56 89 140 255 
7.50063 8.30305 2.56269 58 83 139 255 
7.35862 8.15195 2.42258 54 92 141 255 
7.78783 8.62417 2.44238 52 96 141 255 
7.44835 8.23971 2.22549 69 53 129 255 
7.21313 7.97363 2.05108 48 105 142 255 
7.18377 7.95825 1.95607 70 50 126 255 
7.51334 8.31729 1.93401 49 103 142 255 
15.5841 17.2278 3.77918 72 32 113 255 
11.5378 12.7319 2.63536 72 33 115 255 
15.8329 17.5337 3.42958 72 37 118 255 
15.6314 17.2979 3.15636 71 17 100 255 
15.2717 16.8646 2.8621 72 40 120 255 
15.456 17.0437 2.68248 72 31 112 255 
15.4798 17.1427 2.50512 72 33 115 255 
15.4608 17.0911 2.28004 72 40 120 255 
16.1309 17.8072 2.14859 72 27 109 255 
16.007 17.6328 1.90772 72 29 111 255 
26.0246 28.8101 2.80337 70 8 92 255 
30.6317 33.85 2.8642 69 5 89 255 
30.6535 33.8034 2.43142 69 5 89 255 
30.7667 33.8678 2.00575 70 8 92 255 
30.9072 34.1914 1.65783 70 8 92 255 
30.8916 34.1132 1.2212 69 5 89 255 
0 0 0 68 1 84 255 
21.8098 23.9913 0.254655 69 4 87 255 
21.7364 24.0376 -0.00565626 70 10 93 255 
18.3378 20.236 -0.262153 71 19 101 255 
15.781 17.3843 -0.442618 72 22 104 255 
10.9131 11.9963 -0.458662 72 27 109 255 
10.367 11.4525 -0.561046 72 26 108 255 
9.62903 10.6183 -0.653415 72 32 113 255 
9.02362 9.93694 -0.738695 72 40 120 255 
8.48503 9.32394 -0.813036 71 47 125 255 
7.83478 8.65212 -0.846921 71 45 123 255 
7.17328 7.90472 -0.873835 71 47 125 255 
6.63903 7.3033 -0.901705 70 51 127 255 
6.19965 6.81261 -0.929149 67 61 132 255 
5.7953 6.39316 -0.940446 61 78 138 255 
5.46592 6.02115 -0.963933 59 81 139 255 
5.17114 5.68655 -0.984624 56 88 140 255 
4.85787 5.33443 -0.993454 49 103 142 255 
4.60941 5.07959 -1.00187 52 96 141 255 
4.36986 4.81038 -1.01073 62 74 137 255 
4.19606 4.61267 -1.02896 53 94 141 255 
3.99073 4.38222 -1.03657 63 71 136 255 
3.82131 4.20521 -1.04286 52 96 141 255 
3.66901 4.03463 -1.05214 57 85 140 255 
3.52027 3.86978 -1.06149 54 93 141 255 
3.37099 3.70298 -1.06713 60 79 138 255 
3.26297 3.587 -1.0759 59 81 139 255 
3.14601 3.45709 -1.08258 56 88 140 255 
3.02952 3.32797 -1.08792 61 77 138 255 
2.90352 3.19171 -1.08861 62 74 137 255 
2.82882 3.1043 -1.0979 65 68 135 255 
2.72766 2.99317 -1.09873 63 72 137 255 
2.61748 2.87434 -1.09567 67 61 132 255 
2.53563 2.78926 -1.10443 69 55 129 255 
10.7953 11.796 4.80335 71 46 124 255 
11.2287 12.2908 4.81458 68 58 131 255 
11.4607 12.5538 4.73646 71 42 122 255 
12.0232 13.1695 4.78817 72 37 118 255 
9.5476 10.4437 3.67266 68 59 132 255 
9.69906 10.6128 3.5793 72 35 116 255 
7.70022 8.42282 2.72507 66 63 133 255 
7.48828 8.18782 2.54126 56 89 140 255 
7.48558 8.19099 2.44778 53 94 141 255 
7.83069 8.56539 2.4393 55 91 141 255 
7.6444 8.35298 2.26872 72 41 121 255 
7.27718 7.94588 2.05539 58 84 140 255 
7.32869 8.01932 1.9821 51 99 141 255 
7.57155 8.27903 1.93588 56 88 140 255 
7.4028 8.08332 1.78313 67 61 132 255 
15.611 17.0157 3.54182 72 22 104 255 
15.8894 17.3807 3.41866 71 19 101 255 
10.9606 11.9806 2.19833 70 11 94 255 
10.9021 11.8918 2.02947 72 28 110 255 
15.5724 16.9617 2.68457 72 29 111 255 
15.5968 17.0606 2.50706 72 33 115 255 
15.603 17.037 2.28555 71 47 125 255 
16.081 17.5347 2.12757 72 20 103 255 
15.8572 17.2539 1.87722 71 13 96 255 
15.8497 17.3312 1.69585 70 11 94 255 
26.0406 28.424 2.41856 70 8 92 255 
32.4426 35.3382 2.55608 69 4 87 255 
43.6117 47.4196 2.82413 69 5 89 255 
31.0334 33.9104 1.65341 71 13 96 255 
31.0085 33.8228 1.21759 70 10 93 255 
24.2661 26.4226 0.61367 69 4 87 255 
22.2911 24.2205 0.258535 69 5 89 255 
15.3221 16.7367 -0.00396033 70 7 90 255 
17.4395 19.009 -0.247639 71 17 100 255 
15.7067 17.0906 -0.437585 72 23 105 255 
10.9987 11.9424 -0.459171 72 29 111 255 
10.4269 11.3776 -0.560502 72 28 110 255 
9.70076 10.5664 -0.653871 72 36 117 255 
9.07159 9.86742 -0.737651 72 36 117 255 
8.5556 9.28638 -0.814324 72 40 120 255 
7.86952 8.58403 -0.844967 70 51 127 255 
7.21491 7.85321 -0.87302 70 52 128 255 
6.69653 7.27635 -0.903433 69 56 130 255 
6.20965 6.74005 -0.924432 68 58 131 255 
5.8277 6.35015 -0.939363 62 74 137 255 
5.49067 5.97434 -0.961814 62 76 138 255 
5.21937 5.66931 -0.987165 54 92 141 255 
4.8885 5.30234 -0.993044 49 104 142 255 
4.6338 5.04392 -1.00043 52 97 141 255 
4.41334 4.79875 -1.01395 59 81 139 255 
4.22963 4.59264 -1.03026 51 98 141 255 
4.0122 4.35186 -1.03519 59 81 139 255 
3.84504 4.17951 -1.04232 54 92 141 255 
3.68971 4.00771 -1.051 59 82 139 255 
3.54528 3.84955 -1.06188 55 90 140 255 
3.39563 3.68439 -1.06776 60 79 138 255 
3.30079 3.58415 -1.0811 59 82 139 255 
3.1632 3.43342 -1.08122 57 85 140 255 
3.04263 3.30145 -1.08534 62 74 137 255 
2.93487 3.18667 -1.09301 62 74 137 255 
2.84847 3.0876 -1.09815 61 78 138 255 
2.74663 2.97709 -1.09899 66 65 134 255 
2.62659 2.84902 -1.09214 67 61 132 255 
2.57025 2.79271 -1.11202 69 56 130 255 
11.3738 12.2762 5.02718 67 62 133 255 
11.6138 12.5567 4.94654 71 17 100 255 
11.9501 12.9297 4.90583 71 42 122 255 
11.9439 12.9224 4.7249 72 26 108 255 
7.53851 8.14509 2.88054 68 59 132 255 
7.61362 8.2289 2.79101 71 42 122 255 
9.73445 10.5176 3.42208 71 46 124 255 
7.53838 8.14172 2.54126 62 76 138 255 
7.82285 8.45527 2.54106 54 93 141 255 
7.85984 8.49204 2.4321 60 79 138 255 
7.7235 8.33613 2.27697 62 73 137 255 
7.42064 8.00336 2.08199 57 86 140 255 
7.32698 7.91932 1.96846 50 102 142 255 
7.70522 8.32208 1.95696 56 89 140 255 
15.8527 17.0982 3.79315 71 14 97 255 
7.608 8.19111 1.71466 72 26 108 255 
15.7672 17.0359 3.36981 72 31 112 255 
15.8209 17.0815 3.15207 72 29 111 255 
11.0052 11.8574 2.03509 72 40 120 255 
15.7417 16.9364 2.6958 72 36 117 255 
15.7593 17.0273 2.51633 72 24 106 255 
15.5651 16.7877 2.26487 72 36 117 255 
15.558 16.7568 2.04474 72 31 112 255 
15.6471 16.8169 1.84009 71 19 101 255 
15.4964 16.7374 1.64702 72 41 121 255 
15.5177 16.7307 1.43166 72 33 115 255 
15.5041 16.6813 1.21345 72 31 112 255 
43.9079 47.1577 2.82452 70 7 90 255 
43.8298 47.3069 2.31967 70 7 90 255 
0 0 0 68 2 86 255 
23.9947 25.8075 0.602792 70 8 92 255 
21.744 23.337 0.250524 69 5 89 255 
15.3919 16.6071 -0.00395195 72 20 103 255 
15.3877 16.5673 -0.217056 71 16 99 255 
15.8256 17.0093 -0.437981 72 28 110 255 
13.4672 14.4438 -0.558513 72 29 111 255 
10.4993 11.3164 -0.560647 72 28 110 255 
9.78989 10.533 -0.65551 72 38 119 255 
9.15373 9.83496 -0.73941 72 33 115 255 
8.60425 9.22496 -0.813551 72 38 119 255 
7.92883 8.5429 -0.845691 72 41 121 255 
7.25549 7.80077 -0.872122 71 46 124 255 
6.72951 7.22274 -0.901887 68 59 132 255 
6.24003 6.69018 -0.922826 68 57 131 255 
5.86384 6.31136 -0.93893 64 70 136 255 
5.52519 5.93836 -0.961461 56 89 140 255 
5.24527 5.62774 -0.985513 55 90 140 255 
4.92229 5.2737 -0.993317 51 98 141 255 
4.67005 5.02119 -1.00159 55 91 141 255 
4.46694 4.79761 -1.01948 55 91 141 255 
4.24697 4.55506 -1.02765 52 96 141 255 
4.04891 4.33796 -1.03777 59 81 139 255 
3.87665 4.16232 -1.04394 54 93 141 255 
3.71892 3.99002 -1.05233 57 86 140 255 
3.57752 3.83704 -1.06447 54 92 141 255 
3.42018 3.66563 -1.06838 60 80 139 255 
3.31007 3.55026 -1.07699 54 92 141 255 
3.16693 3.39542 -1.07536 58 84 140 255 
3.06548 3.28556 -1.08628 62 73 137 255 
2.95239 3.16648 -1.09228 60 79 138 255 
2.84557 3.04673 -1.08981 62 73 137 255 
2.75694 2.95172 -1.09585 66 65 134 255 
2.66372 2.85396 -1.10028 66 64 134 255 
2.57098 2.75934 -1.105 67 62 133 255 
9.36214 9.98131 4.11087 70 48 126 255 
9.56126 10.2111 4.04558 72 33 115 255 
9.44858 10.098 3.85337 69 56 130 255 
7.69217 8.22058 3.02295 66 64 134 255 
7.62937 8.14248 2.89612 62 76 138 255 
7.66065 8.17849 2.7898 60 79 138 255 
7.54429 8.05159 2.63473 72 26 108 255 
7.59219 8.09958 2.5426 57 85 140 255 
11.179 11.935 3.60738 71 44 122 255 
11.048 11.7907 3.39618 72 41 121 255 
7.81744 8.33435 2.28954 63 71 136 255 
7.47028 7.95839 2.08218 70 52 128 255 
7.45278 7.95678 1.9891 42 120 142 255 
7.44816 7.94607 1.87925 50 101 142 255 
7.38052 7.86305 1.75439 45 112 142 255 
14.1997 15.1011 3.17933 72 27 109 255 
11.0104 11.7509 2.33772 70 10 93 255 
15.817 16.8685 3.1306 72 24 106 255 
15.7453 16.7571 2.89256 72 23 105 255 
16.1067 17.1173 2.74027 72 23 105 255 
18.4214 19.6602 2.92208 71 13 96 255 
15.5596 16.5765 2.24922 71 44 122 255 
18.132 19.2905 2.36743 72 22 104 255 
15.7425 16.7126 1.83921 72 20 103 255 
15.607 16.6508 1.64788 71 45 123 255 
25.8048 27.4817 2.36514 71 13 96 255 
15.7136 16.7 1.2218 72 29 111 255 
43.8079 46.4752 2.79969 69 5 89 255 
44.1835 47.1056 2.32305 69 5 89 255 
32.5582 34.6498 1.26165 69 4 87 255 
23.8977 25.389 0.59643 69 5 89 255 
21.3598 22.6445 0.244492 69 5 89 255 
15.5318 16.5532 -0.00396172 71 19 101 255 
16.7343 17.797 -0.234508 70 11 94 255 
15.9838 16.9694 -0.43947 72 26 108 255 
13.5322 14.3361 -0.557552 72 31 112 255 
10.5076 11.1869 -0.557417 72 33 115 255 
9.86324 10.4822 -0.656102 72 32 113 255 
9.20706 9.77134 -0.73886 72 32 113 255 
8.67782 9.19013 -0.81516 72 40 120 255 
7.97768 8.49045 -0.845329 71 42 122 255 
7.31142 7.76481 -0.873101 70 50 126 255 
6.77916 7.1871 -0.902615 66 63 133 255 
6.29189 6.66334 -0.924432 68 58 131 255 
5.89769 6.2702 -0.938171 63 72 137 255 
5.56357 5.90651 -0.961814 57 85 140 255 
5.25996 5.57453 -0.981828 55 90 140 255 
4.95796 5.24699 -0.993999 56 89 140 255 
4.68992 4.98092 -0.999273 55 90 140 255 
4.49697 4.77083 -1.01964 53 95 141 255 
4.27619 4.53035 -1.02798 51 98 141 255 
4.09034 4.32879 -1.04156 59 82 139 255 
3.90144 4.13773 -1.04376 52 97 141 255 
3.75276 3.97713 -1.05498 57 86 140 255 
3.59696 3.81074 -1.06328 56 88 140 255 
3.45067 3.6531 -1.07088 60 79 138 255 
3.32777 3.52562 -1.07569 56 88 140 255 
3.20242 3.39151 -1.08032 60 79 138 255 
3.07624 3.2568 -1.08299 62 74 137 255 
2.96377 3.13984 -1.08934 60 79 138 255 
2.8569 3.02148 -1.08702 64 70 136 255 
2.77964 2.93965 -1.09768 66 65 134 255 
2.6878 2.84456 -1.10299 66 65 134 255 
2.60169 2.75817 -1.1109 66 63 133 255 
9.4298 9.93062 4.11375 66 63 133 255 
9.47702 9.99751 3.98391 71 47 125 255 
9.46863 9.99582 3.83646 58 84 140 255 
12.0026 12.6704 4.68626 71 44 122 255 
7.63256 8.04635 2.87853 53 95 141 255 
7.59518 8.00952 2.74801 72 32 113 255 
17.5327 18.483 6.08328 71 16 99 255 
9.92441 10.4583 3.30209 71 44 122 255 
11.8978 12.5472 3.81439 72 31 112 255 
11.1505 11.7546 3.40543 71 47 125 255 
7.76513 8.17744 2.25948 72 24 106 255 
7.49664 7.88891 2.076 49 103 142 255 
7.42226 7.82738 1.9681 53 95 141 255 
7.5022 7.90594 1.88061 55 91 141 255 
7.53197 7.92637 1.7788 69 56 130 255 
8.02008 8.42503 1.7841 71 46 124 255 
11.4889 12.1118 2.42349 68 58 131 255 
15.9222 16.7732 3.13101 72 29 111 255 
16.0263 16.8478 2.92513 70 10 93 255 
11.2363 11.7954 1.8993 71 42 122 255 
16.2332 17.1132 2.55828 72 27 109 255 
15.7864 16.6127 2.26724 72 28 110 255 
18.099 19.0201 2.34784 72 28 110 255 
15.5737 16.3315 1.80775 72 24 106 255 
15.6834 16.5279 1.64522 69 55 129 255 
15.8188 16.641 1.44049 72 32 113 255 
15.8963 16.6879 1.22803 70 7 90 255 
0 0 0 68 2 86 255 
44.5054 46.8691 2.32481 69 5 89 255 
44.6063 46.892 1.71734 69 4 87 255 
23.1426 24.2864 0.573853 71 19 101 255 
20.7194 21.6973 0.235633 70 7 90 255 
15.6661 16.4924 -0.0039701 71 14 97 255 
16.4544 17.2854 -0.229094 71 17 100 255 
16.0352 16.816 -0.438038 72 29 111 255 
13.6048 14.2369 -0.55693 72 26 108 255 
10.9968 11.5647 -0.579593 72 35 116 255 
9.97698 10.4736 -0.659381 72 33 115 255 
9.29303 9.74212 -0.740948 72 33 115 255 
8.73198 9.13454 -0.814967 72 40 120 255 
8.01657 8.42761 -0.843954 71 44 122 255 
7.35411 7.71475 -0.87253 70 51 127 255 
6.81695 7.13889 -0.901796 70 52 128 255 
6.33403 6.62604 -0.924632 68 59 132 255 
5.92029 6.21733 -0.935679 60 79 138 255 
5.59217 5.86436 -0.960519 59 82 139 255 
5.30023 5.54861 -0.982972 53 95 141 255 
4.99006 5.21647 -0.993999 55 91 141 255 
4.72995 4.96207 -1.0013 58 84 140 255 
4.50706 4.72313 -1.01534 56 89 140 255 
4.30868 4.50902 -1.02912 55 91 141 255 
4.12567 4.31286 -1.0438 55 90 140 255 
3.95528 4.1436 -1.05134 50 100 142 255 
3.77303 3.94977 -1.05384 58 83 139 255 
3.61553 3.78364 -1.06188 57 86 140 255 
3.48113 3.64034 -1.07338 59 82 139 255 
3.34866 3.50443 -1.07547 57 85 140 255 
3.21577 3.36405 -1.07784 58 83 139 255 
3.10356 3.24559 -1.08557 61 77 138 255 
2.97495 3.11318 -1.0864 63 71 136 255 
2.87003 2.9983 -1.085 64 69 136 255 
2.78828 2.91278 -1.09402 66 64 134 255 
2.71318 2.83636 -1.10625 64 69 136 255 
2.61857 2.74216 -1.1109 66 64 134 255 
9.49653 9.87879 4.11634 67 62 133 255 
9.52288 9.92323 3.97752 71 16 99 255 
9.50978 9.91668 3.82841 63 72 137 255 
9.33265 9.73158 3.62043 71 19 101 255 
18.229 18.9826 6.8308 71 13 96 255 
18.1821 18.9398 6.53627 71 19 101 255 
9.79031 10.195 3.37516 71 46 124 255 
12.1277 12.6241 4.00935 72 26 108 255 
9.75302 10.1598 3.10675 68 59 132 255 
11.2413 11.7058 3.41119 72 37 118 255 
9.95836 10.3591 2.87911 70 50 126 255 
7.53401 7.83143 2.073 60 80 139 255 
7.4681 7.77956 1.96756 50 100 142 255 
7.58539 7.896 1.88929 60 80 139 255 
7.6879 7.99168 1.80401 53 95 141 255 
8.11895 8.42477 1.79456 70 52 128 255 
11.5514 12.0289 2.42105 70 51 127 255 
8.92497 9.2872 1.7438 66 64 134 255 
8.99585 9.34152 1.63144 58 83 139 255 
15.7764 16.3592 2.64971 72 20 103 255 
18.6592 19.4306 2.92176 71 16 99 255 
18.3345 19.0586 2.61634 72 24 106 255 
15.5183 16.109 2.0002 72 24 106 255 
15.6874 16.25 1.80934 72 24 106 255 
15.7306 16.3753 1.6396 71 46 124 255 
16.0258 16.6529 1.45001 72 37 118 255 
0 0 0 69 4 87 255 
44.9309 46.5097 2.83477 69 5 89 255 
0 0 0 68 2 86 255 
44.9577 46.6844 1.71981 69 4 87 255 
22.5248 23.3495 0.554971 71 13 96 255 
20.1265 20.8192 0.227433 69 5 89 255 
16.0249 16.6641 -0.00403503 71 13 96 255 
15.8607 16.4584 -0.219418 71 19 101 255 
16.0027 16.577 -0.434362 72 23 105 255 
13.6919 14.1532 -0.55693 72 26 108 255 
11.2568 11.6936 -0.589501 72 41 121 255 
10.0196 10.3899 -0.657969 72 37 118 255 
9.37413 9.70718 -0.742652 72 33 115 255 
8.8184 9.11235 -0.817799 72 40 120 255 
8.05706 8.36677 -0.842796 70 50 126 255 
7.39646 7.66446 -0.871959 70 52 128 255 
6.85647 7.09263 -0.90125 69 56 130 255 
6.36834 6.58062 -0.923729 68 58 131 255 
5.95625 6.17874 -0.935354 61 78 138 255 
5.60873 5.80993 -0.957224 60 80 139 255 
5.32521 5.50671 -0.98132 58 84 140 255 
5.03231 5.19643 -0.996045 54 92 141 255 
4.76443 4.93723 -1.00216 55 90 140 255 
4.53458 4.69397 -1.01503 57 86 140 255 
4.33489 4.48108 -1.02879 54 92 141 255 
4.15274 4.28817 -1.04397 58 83 139 255 
3.97038 4.10864 -1.04864 58 84 140 255 
3.80743 3.93713 -1.05669 57 85 140 255 
3.63732 3.75997 -1.06149 61 77 138 255 
3.49183 3.60697 -1.06984 62 74 137 255 
3.37078 3.48452 -1.07569 59 81 139 255 
3.23025 3.33796 -1.07581 57 85 140 255 
3.10516 3.20763 -1.07923 62 73 137 255 
2.98388 3.08442 -1.08273 66 63 133 255 
2.90857 3.00148 -1.09259 62 73 137 255 
2.80207 2.89146 -1.09245 64 69 136 255 
2.7225 2.81136 -1.10299 65 66 135 255 
2.61466 2.70465 -1.10218 67 62 133 255 
8.95047 9.19713 3.85511 70 51 127 255 
9.37608 9.65102 3.89139 72 37 118 255 
9.54965 9.83671 3.82009 70 50 126 255 
9.44062 9.72403 3.6391 65 68 135 255 
9.60235 9.8773 3.57543 68 59 132 255 
9.75696 10.0396 3.48532 72 31 112 255 
9.86556 10.1479 3.37957 69 53 129 255 
9.85831 10.1366 3.23847 72 35 116 255 
9.85124 10.1368 3.11816 59 82 139 255 
7.76709 7.98926 2.34201 71 42 122 255 
9.88907 10.1615 2.841 63 71 136 255 
7.48734 7.68795 2.04714 67 62 133 255 
7.42931 7.6447 1.94494 48 105 142 255 
7.66186 7.87827 1.89626 58 84 140 255 
7.68445 7.89062 1.7918 50 101 142 255 
11.6528 11.9442 2.55941 72 41 121 255 
11.6574 11.9912 2.4278 72 36 117 255 
9.00667 9.25783 1.74863 69 56 130 255 
9.05023 9.28331 1.63094 53 95 141 255 
10.6468 10.9054 1.7769 72 24 106 255 
11.2875 11.6107 1.75627 71 17 100 255 
18.7017 19.2031 2.65189 72 26 108 255 
15.6808 16.079 2.0084 72 23 105 255 
15.635 15.998 1.79194 72 29 111 255 
15.826 16.2734 1.6391 72 38 119 255 
15.8971 16.3176 1.42928 72 27 109 255 
15.9095 16.2965 1.2135 72 40 120 255 
45.3789 46.4002 2.84502 69 5 89 255 
37.5492 38.5839 1.93656 69 5 89 255 
0 0 0 69 4 87 255 
22.0305 22.5585 0.539373 71 16 99 255 
19.8076 20.2393 0.222422 70 7 90 255 
16.7365 17.1917 -0.00418757 72 38 119 255 
19.765 20.2595 -0.271704 72 27 109 255 
16.3787 16.7595 -0.44177 72 26 108 255 
13.7945 14.0853 -0.55758 72 35 116 255 
11.299 11.5942 -0.587977 72 41 121 255 
