ply
format ascii 1.0
comment VTK generated PLY File
obj_info vtkPolyData points and polygons: vtk4.0
element vertex 1220
property float x
property float y
property float z
property uchar red
property uchar green
property uchar blue
property uchar alpha
element face 0
property list uchar int vertex_indices
end_header
16.4213 17.2507 -0.228633 71 16 99 255 
15.9669 16.7444 -0.436172 72 24 106 255 
13.6151 14.2478 -0.557354 72 27 109 255 
10.9989 11.5669 -0.579702 72 29 111 255 
9.98387 10.4808 -0.659836 72 32 113 255 
9.31026 9.76018 -0.742322 72 31 112 255 
8.72991 9.13238 -0.814774 71 42 122 255 
8.01313 8.424 -0.843592 72 40 120 255 
7.35067 7.71115 -0.872122 69 55 129 255 
6.81557 7.13745 -0.901614 68 57 131 255 
6.35191 6.64474 -0.927242 69 56 130 255 
5.94839 6.24685 -0.940121 60 80 139 255 
5.57709 5.84855 -0.95793 59 81 139 255 
5.3064 5.55506 -0.984115 53 94 141 255 
4.99143 5.21791 -0.994272 57 85 140 255 
4.73268 4.96494 -1.00187 56 89 140 255 
4.51047 4.72671 -1.0161 54 93 141 255 
4.29505 4.49475 -1.02586 55 90 140 255 
4.10865 4.29507 -1.03949 57 85 140 255 
3.92064 4.10731 -1.04214 52 97 141 255 
3.77167 3.94835 -1.05347 59 81 139 255 
3.61621 3.78435 -1.06208 58 84 140 255 
3.48451 3.64388 -1.07442 60 79 138 255 
3.35136 3.50726 -1.07634 57 85 140 255 
3.22452 3.37321 -1.08077 59 82 139 255 
3.1002 3.24208 -1.0844 60 79 138 255 
2.97428 3.11248 -1.08616 62 73 137 255 
2.88676 3.01577 -1.09132 62 73 137 255 
2.80497 2.93021 -1.10057 64 69 136 255 
2.69189 2.8141 -1.09757 66 64 134 255 
2.59073 2.71301 -1.09909 68 59 132 255 
9.48857 9.87051 4.11289 65 66 135 255 
9.5149 9.91492 3.97418 71 14 97 255 
9.51512 9.92224 3.83056 63 71 136 255 
9.31995 9.71834 3.61551 71 16 99 255 
9.42692 9.81664 3.53247 70 11 94 255 
18.1451 18.9013 6.52299 71 14 97 255 
9.8213 10.2272 3.38585 70 48 126 255 
11.9893 12.48 3.96358 72 24 106 255 
9.77195 10.1795 3.11278 68 59 132 255 
11.2922 11.7587 3.42662 72 35 116 255 
9.96651 10.3676 2.88147 70 51 127 255 
7.54082 7.83851 2.07487 57 85 140 255 
7.47424 7.78595 1.96917 49 103 142 255 
7.61338 7.92514 1.89626 59 81 139 255 
7.65848 7.96109 1.7971 54 92 141 255 
8.10386 8.40911 1.79122 70 52 128 255 
11.5527 12.0303 2.42134 70 48 126 255 
8.93527 9.29792 1.74581 65 66 135 255 
8.9931 9.33867 1.63094 59 81 139 255 
15.826 16.4107 2.65805 72 23 105 255 
18.7445 19.5195 2.93513 71 17 100 255 
18.3621 19.0873 2.62028 72 23 105 255 
15.5052 16.0953 1.99851 72 28 110 255 
15.6694 16.2313 1.80727 72 24 106 255 
15.7148 16.3587 1.63794 71 46 124 255 
16.0161 16.6428 1.44913 71 45 123 255 
40.1126 41.5958 3.07901 69 5 89 255 
45.0552 46.6383 2.84261 70 7 90 255 
0 0 0 68 2 86 255 
0 0 0 68 2 86 255 
22.5331 23.3581 0.555176 71 13 96 255 
20.0389 20.7286 0.226444 69 4 87 255 
16.0588 16.6994 -0.00404358 71 16 99 255 
15.774 16.3684 -0.218218 71 16 99 255 
15.8999 16.4706 -0.431573 72 23 105 255 
13.687 14.1482 -0.556732 72 26 108 255 
11.2298 11.6655 -0.588086 71 47 125 255 
10.0057 10.3755 -0.657058 72 36 117 255 
9.3776 9.71077 -0.742926 72 38 119 255 
8.84547 9.14031 -0.820309 71 42 122 255 
8.08335 8.39407 -0.845546 71 45 123 255 
7.38885 7.65657 -0.871061 70 50 126 255 
6.85301 7.08905 -0.900795 69 53 129 255 
6.38564 6.59849 -0.926238 66 63 133 255 
5.99282 6.21667 -0.941097 60 80 139 255 
5.5977 5.7985 -0.95534 62 74 137 255 
5.32383 5.50528 -0.981066 57 86 140 255 
5.02198 5.18576 -0.993999 55 90 140 255 
4.76099 4.93367 -1.00144 54 92 141 255 
4.54145 4.70107 -1.01656 56 88 140 255 
4.32323 4.46902 -1.02602 53 94 141 255 
4.1267 4.26129 -1.03743 60 79 138 255 
3.97585 4.1143 -1.05008 55 91 141 255 
3.81289 3.94278 -1.0582 55 90 140 255 
3.63868 3.76138 -1.06188 60 79 138 255 
3.49251 3.60767 -1.07005 62 76 138 255 
3.36807 3.48171 -1.07482 59 82 139 255 
3.25328 3.36176 -1.08348 58 84 140 255 
3.11733 3.2202 -1.08346 62 73 137 255 
3.00208 3.10323 -1.08934 65 66 135 255 
2.91396 3.00704 -1.09461 64 69 136 255 
2.81618 2.90601 -1.09795 67 61 132 255 
2.73522 2.8245 -1.10815 67 62 133 255 
2.63267 2.72328 -1.10977 66 63 133 255 
8.96651 9.2136 3.86202 70 51 127 255 
9.38278 9.65791 3.89417 72 35 116 255 
9.55636 9.84363 3.82277 69 55 129 255 
9.45408 9.73788 3.64429 65 66 135 255 
9.63271 9.90853 3.58674 66 63 133 255 
9.74546 10.0277 3.48121 72 32 113 255 
9.8859 10.1689 3.38654 68 57 131 255 
9.85831 10.1366 3.23847 72 37 118 255 
9.8458 10.1312 3.11644 57 85 140 255 
9.9043 10.1876 2.98644 71 44 122 255 
9.89044 10.1629 2.84139 63 71 136 255 
7.52641 7.72806 2.05782 67 62 133 255 
7.46428 7.68068 1.9541 46 109 142 255 
7.67285 7.88958 1.89898 59 82 139 255 
7.69685 7.90335 1.79469 50 100 142 255 
11.6563 11.9477 2.56017 72 37 118 255 
11.6263 11.9592 2.42134 72 37 118 255 
9.03292 9.28482 1.75373 69 56 130 255 
9.05508 9.28828 1.63181 51 99 141 255 
10.6301 10.8883 1.77412 72 26 108 255 
11.2979 11.6214 1.75788 71 19 101 255 
18.6219 19.1212 2.64056 72 23 105 255 
15.5835 15.9792 1.99593 72 23 105 255 
15.6893 16.0536 1.79816 72 36 117 255 
15.8148 16.262 1.63794 72 33 115 255 
15.872 16.2919 1.42703 72 24 106 255 
15.8858 16.2722 1.21169 72 35 116 255 
45.3663 46.3874 2.84423 70 7 90 255 
0 0 0 68 2 86 255 
0 0 0 68 2 86 255 
22.0305 22.5585 0.539373 71 14 97 255 
19.7489 20.1793 0.221763 70 8 92 255 
16.7344 17.1895 -0.00418704 72 40 120 255 
19.774 20.2688 -0.271829 72 26 108 255 
16.3515 16.7316 -0.441035 72 31 112 255 
13.8288 14.1203 -0.558966 72 31 112 255 
11.32 11.6157 -0.589066 71 47 125 255 
10.0629 10.3075 -0.656648 72 38 119 255 
9.45655 9.67304 -0.744465 72 35 116 255 
8.88881 9.07304 -0.81915 71 44 122 255 
8.13749 8.34717 -0.845835 72 41 121 255 
7.44405 7.61965 -0.87204 71 47 125 255 
6.92075 7.07178 -0.903979 68 57 131 255 
6.41696 6.54995 -0.924934 67 61 132 255 
6.00655 6.15488 -0.937304 63 71 136 255 
5.63595 5.76688 -0.955811 63 71 136 255 
5.35543 5.47039 -0.980685 56 88 140 255 
5.05509 5.15626 -0.994272 56 89 140 255 
4.79602 4.90932 -1.00245 55 91 141 255 
4.57021 4.67312 -1.01656 55 91 141 255 
4.35402 4.44593 -1.02684 57 86 140 255 
4.15691 4.2401 -1.03846 59 82 139 255 
3.99964 4.08842 -1.04972 53 94 141 255 
3.82121 3.90317 -1.05384 58 84 140 255 
3.66923 3.74669 -1.06407 57 85 140 255 
3.51322 3.58478 -1.06963 62 73 137 255 
3.38322 3.4547 -1.07287 60 80 139 255 
3.26294 3.3306 -1.07987 59 81 139 255 
3.13703 3.20101 -1.08346 62 74 137 255 
3.01225 3.07575 -1.08616 64 69 136 255 
2.92355 2.98012 -1.09132 64 69 136 255 
2.83193 2.88661 -1.09716 66 63 133 255 
2.74442 2.79941 -1.10489 66 65 134 255 
2.65001 2.70776 -1.11006 67 61 132 255 
8.91062 9.04447 3.81397 64 70 136 255 
9.52673 9.68645 3.92918 64 69 136 255 
9.56256 9.72984 3.8013 69 53 129 255 
9.51026 9.67625 3.64299 71 45 123 255 
9.73339 9.88994 3.60156 68 57 131 255 
9.83607 9.99748 3.4916 70 48 126 255 
9.94743 10.1073 3.38631 68 58 131 255 
9.96614 10.1224 3.25342 72 35 116 255 
9.93654 10.0999 3.12549 60 79 138 255 
9.56985 9.72351 2.86755 68 57 131 255 
9.78539 9.93227 2.79365 64 69 136 255 
7.43644 7.54254 2.02053 67 62 133 255 
7.42916 7.55128 1.93274 48 106 142 255 
7.73287 7.85429 1.90187 47 108 142 255 
7.74728 7.85808 1.79518 62 74 137 255 
7.84249 7.94052 1.71178 62 76 138 255 
9.2463 9.39502 1.91362 66 64 134 255 
9.11128 9.25111 1.75789 63 72 137 255 
9.08542 9.20571 1.62707 66 64 134 255 
10.6569 10.7826 1.76752 72 41 121 255 
11.3857 11.5688 1.76047 72 36 117 255 
18.5432 18.8081 2.613 72 27 109 255 
18.7091 18.9502 2.38133 71 17 100 255 
15.7139 15.8826 1.78978 72 32 113 255 
16.0634 16.316 1.65328 72 37 118 255 
15.9759 16.1985 1.4274 71 45 123 255 
16.2261 16.418 1.22994 72 31 112 255 
45.8188 46.2785 2.85474 69 5 89 255 
0 0 0 68 2 86 255 
0 0 0 68 2 86 255 
21.4684 21.7147 0.522338 72 20 103 255 
19.8977 20.0833 0.222045 69 5 89 255 
16.8438 17.0908 -0.00418809 72 35 116 255 
16.8653 17.0764 -0.230399 72 22 104 255 
16.4152 16.5919 -0.439998 72 23 105 255 
13.9004 14.0203 -0.558372 72 28 110 255 
11.398 11.5531 -0.589429 69 55 129 255 
10.4862 10.61 -0.680009 71 44 122 255 
9.52064 9.6198 -0.74485 72 41 121 255 
8.99772 9.07217 -0.824042 71 46 124 255 
8.18435 8.29282 -0.845401 71 46 124 255 
7.49977 7.58304 -0.873101 69 56 130 255 
6.96612 7.0313 -0.904252 68 59 132 255 
6.45632 6.50975 -0.924833 67 61 132 255 
6.04001 6.11367 -0.936654 62 73 137 255 
5.68589 5.74702 -0.958283 62 74 137 255 
5.38261 5.43108 -0.979541 63 71 136 255 
5.09361 5.13218 -0.995636 52 97 141 255 
4.81909 4.87276 -1.00101 60 80 139 255 
4.60714 4.65341 -1.01841 58 83 139 255 
4.38956 4.42754 -1.02879 58 83 139 255 
4.18424 4.21592 -1.03881 60 79 138 255 
4.01496 4.05402 -1.04719 54 92 141 255 
3.84855 3.88314 -1.05479 58 84 140 255 
3.68594 3.71784 -1.06228 55 90 140 255 
3.53515 3.56315 -1.06963 61 78 138 255 
3.39611 3.42556 -1.07027 59 81 139 255 
3.28606 3.31328 -1.08077 59 81 139 255 
3.14018 3.16514 -1.07782 63 72 137 255 
3.02355 3.04963 -1.08347 65 66 135 255 
2.95132 2.97174 -1.09486 60 80 139 255 
2.85503 2.87466 -1.09926 65 68 135 255 
2.76629 2.7873 -1.10679 66 64 134 255 
2.66522 2.69008 -1.10949 67 61 132 255 
9.03561 9.05947 3.8436 63 71 136 255 
9.75001 9.79256 3.99641 67 61 132 255 
9.59762 9.6464 3.79164 69 55 129 255 
9.36646 9.41369 3.56572 64 70 136 255 
9.93804 9.97471 3.65457 70 48 126 255 
17.0765 17.1451 6.02436 72 28 110 255 
10.0051 10.042 3.38492 65 66 135 255 
10.1051 10.1384 3.27843 68 57 131 255 
10.1871 10.2283 3.18451 69 53 129 255 
9.59756 9.63271 2.85809 72 36 117 255 
10.0248 10.0512 2.84434 68 59 132 255 
7.48536 7.49955 2.02128 51 99 141 255 
7.46008 7.49022 1.92879 65 68 135 255 
7.77396 7.79971 1.90017 54 93 141 255 
7.77513 7.79014 1.79052 50 102 142 255 
7.84214 7.84332 1.70117 71 45 123 255 
9.16478 9.1986 1.88503 52 96 141 255 
9.20146 9.22871 1.76433 50 102 142 255 
9.48886 9.49723 1.68885 71 46 124 255 
14.5405 14.5326 2.3968 72 36 117 255 
11.6586 11.7016 1.79153 72 20 103 255 
18.6555 18.6912 2.6126 72 31 112 255 
18.6448 18.6547 2.35852 72 22 104 255 
15.5754 15.5507 1.76311 72 37 118 255 
15.6612 15.7135 1.60193 71 44 122 255 
13.8135 13.8351 1.22659 72 35 116 255 
16.3781 16.3697 1.23383 71 19 101 255 
16.2862 16.249 1.00848 70 10 93 255 
45.945 46.0664 2.34023 69 5 89 255 
0 0 0 68 2 86 255 
20.9561 20.938 0.506739 70 10 93 255 
20.2245 20.1642 0.224307 69 4 87 255 
19.9656 20.0114 -0.0049337 70 8 92 255 
19.8898 19.8931 -0.270044 71 16 99 255 
16.6808 16.6548 -0.444371 72 29 111 255 
13.9295 13.8783 -0.55611 72 29 111 255 
11.4306 11.4448 -0.587469 70 51 127 255 
10.5638 10.5582 -0.680829 72 41 121 255 
9.59433 9.57602 -0.746004 72 40 120 255 
9.03342 8.99708 -0.82224 68 57 131 255 
8.20124 8.20858 -0.841928 71 42 122 255 
7.54686 7.53759 -0.873183 70 51 127 255 
6.99855 6.97788 -0.902888 67 61 132 255 
6.47288 6.44684 -0.921521 68 59 132 255 
6.08374 6.08282 -0.93763 63 71 136 255 
5.73089 5.72184 -0.959931 60 80 139 255 
5.40249 5.38465 -0.977127 67 62 133 255 
5.10956 5.08545 -0.992635 56 89 140 255 
4.8482 4.8424 -1.00086 62 73 137 255 
4.6426 4.63204 -1.01995 58 83 139 255 
4.41664 4.40053 -1.02879 61 78 138 255 
4.21421 4.19433 -1.03984 59 81 139 255 
4.04394 4.03348 -1.04827 55 90 140 255 
3.87995 3.86707 -1.05688 59 81 139 255 
3.70522 3.69169 -1.06129 56 89 140 255 
3.56457 3.54899 -1.07192 62 76 138 255 
3.41499 3.40259 -1.06962 58 84 140 255 
3.31185 3.29856 -1.08258 60 79 138 255 
3.16988 3.1561 -1.08134 59 82 139 255 
3.06488 3.05361 -1.09154 66 63 133 255 
2.9647 2.9488 -1.09309 59 81 139 255 
2.87124 2.85573 -1.09873 66 64 134 255 
2.77993 2.76688 -1.10544 63 71 136 255 
2.68032 2.67232 -1.10893 67 62 133 255 
9.3462 9.25659 3.95149 66 65 134 255 
9.40279 9.32863 3.83055 68 58 131 255 
9.45838 9.3905 3.7138 64 70 136 255 
9.44324 9.3751 3.57298 53 95 141 255 
9.99905 9.91354 3.65457 62 73 137 255 
11.2699 11.1771 3.95158 71 16 99 255 
10.4078 10.3187 3.49965 71 47 125 255 
10.1748 10.0838 3.28088 71 19 101 255 
7.71346 7.65016 2.39652 70 50 126 255 
7.67446 7.60862 2.27145 69 53 129 255 
9.68709 9.5941 2.73177 59 81 139 255 
7.52774 7.45002 2.02035 59 81 139 255 
7.62464 7.56208 1.9593 54 93 141 255 
7.77968 7.71024 1.88997 55 91 141 255 
7.80524 7.72492 1.78651 47 107 142 255 
9.30135 9.18929 2.00544 62 73 137 255 
8.0671 7.99811 1.64913 49 104 142 255 
9.40574 9.31854 1.7925 64 69 136 255 
10.4381 10.3199 1.84649 64 70 136 255 
11.7872 11.6371 1.93115 72 33 115 255 
15.1359 15.0064 2.31168 71 13 96 255 
11.4952 11.3767 1.60003 72 40 120 255 
18.8099 18.5904 2.36494 72 23 105 255 
14.6053 14.4042 1.64325 72 24 106 255 
14.7109 14.5801 1.49556 72 29 111 255 
13.9138 13.7655 1.22797 66 63 133 255 
16.324 16.1166 1.22228 71 17 100 255 
16.3678 16.1312 1.00739 72 24 106 255 
46.4107 45.9657 2.34954 69 4 87 255 
34.7655 34.3711 1.29725 69 5 89 255 
34.5597 34.1087 0.830609 70 7 90 255 
20.164 19.8587 0.222281 70 7 90 255 
20.0681 19.8688 -0.00492881 70 7 90 255 
20.1132 19.8711 -0.271416 72 20 103 255 
16.6175 16.3892 -0.439998 72 24 106 255 
14.0629 13.8403 -0.558033 72 31 112 255 
11.4203 11.295 -0.583368 68 58 131 255 
10.585 10.4503 -0.678051 71 45 123 255 
9.68633 9.54991 -0.748586 66 64 134 255 
9.08632 8.93938 -0.822047 71 44 122 255 
8.24932 8.156 -0.84171 70 48 126 255 
7.57736 7.47574 -0.871388 69 53 129 255 
7.02846 6.92223 -0.90125 69 55 129 255 
6.55345 6.44747 -0.927342 66 64 134 255 
6.12731 6.05166 -0.938605 61 78 138 255 
5.75387 5.67472 -0.95793 59 82 139 255 
5.42412 5.34027 -0.975094 65 66 135 255 
5.16398 5.07692 -0.997137 56 88 140 255 
4.88698 4.8216 -1.00274 59 81 139 255 
4.6836 4.61595 -1.02271 52 97 141 255 
4.44356 4.37334 -1.02879 59 82 139 255 
4.22512 4.15389 -1.03622 58 84 140 255 
4.0616 4.00168 -1.04647 55 90 140 255 
3.89241 3.83217 -1.05384 58 84 140 255 
3.70894 3.65033 -1.05592 60 80 139 255 
3.5807 3.52156 -1.07026 61 78 138 255 
3.46293 3.40828 -1.07807 54 93 141 255 
3.32994 3.27612 -1.0819 59 82 139 255 
3.19334 3.14068 -1.08275 60 80 139 255 
3.07388 3.02522 -1.08812 63 72 137 255 
2.98757 2.9353 -1.09486 60 79 138 255 
2.87632 2.82588 -1.09402 65 66 135 255 
2.79342 2.7464 -1.10408 66 65 134 255 
2.69324 2.65246 -1.10753 68 57 131 255 
9.34463 9.14214 3.92703 70 52 128 255 
10.9638 10.7446 4.43953 70 50 126 255 
9.52958 9.34578 3.71916 63 72 137 255 
9.52127 9.33726 3.58076 63 71 136 255 
9.59844 9.40027 3.487 62 76 138 255 
9.75155 9.55329 3.39859 67 62 133 255 
10.2492 10.0375 3.42556 71 44 122 255 
10.2378 10.0225 3.28133 70 50 126 255 
7.78118 7.62319 2.40298 62 73 137 255 
7.75386 7.59357 2.28112 56 89 140 255 
9.78643 9.57425 2.74317 69 55 129 255 
10.2909 10.0604 2.74532 72 31 112 255 
7.81004 7.65146 1.99484 60 80 139 255 
7.99725 7.82919 1.93112 65 66 135 255 
7.83626 7.66102 1.78281 50 102 142 255 
7.97246 7.78032 1.7086 62 73 137 255 
8.12168 7.954 1.65028 50 101 142 255 
10.5407 10.3156 1.99669 63 72 137 255 
10.5942 10.3464 1.86285 66 63 133 255 
10.5898 10.3274 1.72455 68 58 131 255 
15.2014 14.8875 2.30769 72 36 117 255 
11.5605 11.3018 1.59944 68 59 132 255 
19.069 18.6166 2.38311 71 17 100 255 
14.632 14.2545 1.63639 71 42 122 255 
14.3148 14.0143 1.44652 72 28 110 255 
14.1429 13.8215 1.24068 72 29 111 255 
16.8344 16.4177 1.25293 72 35 116 255 
46.8225 45.5827 2.86451 69 5 89 255 
46.7662 45.7528 2.35328 69 4 87 255 
0 0 0 68 2 86 255 
30.2236 29.4653 0.722037 69 5 89 255 
20.3263 19.7743 0.222729 69 5 89 255 
20.2547 19.8089 -0.00494469 69 5 89 255 
20.1002 19.6161 -0.269612 72 20 103 255 
16.7636 16.3316 -0.441204 72 22 104 255 
14.0085 13.6185 -0.552548 72 31 112 255 
11.4758 11.2115 -0.582678 71 47 125 255 
10.5731 10.3113 -0.673224 70 48 126 255 
9.75762 9.50284 -0.749575 67 61 132 255 
9.15603 8.89806 -0.823398 71 44 122 255 
8.31848 8.12405 -0.843664 69 55 129 255 
7.62952 7.43536 -0.872122 69 53 129 255 
7.05296 6.86161 -0.898975 68 57 131 255 
6.58932 6.40367 -0.92684 67 61 132 255 
6.16789 6.01742 -0.939146 64 69 136 255 
5.76937 5.6206 -0.954752 62 74 137 255 
5.44825 5.29859 -0.973569 62 74 137 255 
5.20356 5.05342 -0.998774 59 82 139 255 
4.93773 4.81224 -1.00708 55 90 140 255 
4.70475 4.58023 -1.02118 50 101 142 255 
4.46182 4.33774 -1.02684 59 81 139 255 
4.24275 4.12034 -1.03433 61 78 138 255 
4.08326 3.97394 -1.04575 57 86 140 255 
3.91374 3.80616 -1.05328 57 85 140 255 
3.73267 3.62887 -1.05632 59 82 139 255 
3.58821 3.48589 -1.06609 61 78 138 255 
3.47888 3.38221 -1.07655 57 86 140 255 
3.33811 3.24409 -1.07807 57 85 140 255 
3.21116 3.11968 -1.08228 62 76 138 255 
3.09447 3.00833 -1.08885 62 76 138 255 
2.99164 2.90343 -1.08981 62 74 137 255 
2.88945 2.80415 -1.09245 64 69 136 255 
2.81643 2.73524 -1.10652 67 62 133 255 
2.7074 2.63388 -1.10668 68 59 132 255 
11.291 10.9115 4.71676 72 29 111 255 
11.1441 10.7881 4.48564 68 58 131 255 
9.65455 9.35282 3.74547 69 56 130 255 
9.67342 9.37073 3.61628 62 74 137 255 
9.74429 9.42667 3.51891 72 33 115 255 
9.82254 9.50543 3.40294 61 77 138 255 
10.1254 9.79523 3.36401 64 70 136 255 
10.6502 10.299 3.39318 72 35 116 255 
7.80255 7.55085 2.39522 69 56 130 255 
11.3762 11.0051 3.32686 72 26 108 255 
7.7495 7.48898 2.15929 64 69 136 255 
8.03338 7.75762 2.13034 72 33 115 255 
7.97278 7.71559 2.02428 61 77 138 255 
7.88363 7.62379 1.89235 44 113 142 255 
7.91365 7.64227 1.78972 50 100 142 255 
8.07769 7.78683 1.72088 49 104 142 255 
8.20874 7.94117 1.65804 42 120 142 255 
10.7705 10.4119 2.02808 70 52 128 255 
10.8067 10.4252 1.88893 69 56 130 255 
10.6558 10.2649 1.72502 62 76 138 255 
10.6237 10.2774 1.60315 70 48 126 255 
11.4134 11.0218 1.56971 72 40 120 255 
11.1451 10.7479 1.38456 72 28 110 255 
14.5489 14.0006 1.61746 72 36 117 255 
14.1087 13.6441 1.4172 72 32 113 255 
16.2394 15.6767 1.41613 72 29 111 255 
0 0 0 68 1 84 255 
47.1417 45.3333 2.86696 69 5 89 255 
0 0 0 69 4 87 255 
0 0 0 69 4 87 255 
29.1377 28.06 0.691969 69 5 89 255 
0 0 0 68 2 86 255 
20.3888 19.6967 -0.00494783 69 5 89 255 
20.1878 19.4611 -0.26918 72 23 105 255 
16.986 16.3463 -0.444409 72 23 105 255 
14.2735 13.7068 -0.559672 72 22 104 255 
11.5027 11.1006 -0.580573 72 41 121 255 
10.7679 10.373 -0.681557 72 37 118 255 
9.85172 9.4774 -0.752323 72 41 121 255 
9.23637 8.86659 -0.825715 69 55 129 255 
8.37894 8.08324 -0.84475 70 52 128 255 
7.68505 7.39809 -0.873264 68 57 131 255 
7.09565 6.8189 -0.899066 69 56 130 255 
6.60768 6.34314 -0.92393 68 57 131 255 
6.20756 5.98222 -0.93958 63 71 136 255 
5.82021 5.60093 -0.957459 62 73 137 255 
5.48781 5.27193 -0.97484 64 69 136 255 
5.22446 5.0118 -0.996864 56 89 140 255 
4.97999 4.7942 -1.00968 52 97 141 255 
4.7228 4.54169 -1.01902 50 102 142 255 
4.48195 4.30413 -1.02537 57 85 140 255 
4.27151 4.09764 -1.03519 58 83 139 255 
4.10686 3.94813 -1.04557 58 83 139 255 
3.92923 3.77459 -1.05119 54 92 141 255 
3.74497 3.59639 -1.05353 60 79 138 255 
3.60388 3.45839 -1.06442 58 84 140 255 
3.49394 3.35539 -1.07482 58 84 140 255 
3.37411 3.23906 -1.08326 57 85 140 255 
3.22673 3.09655 -1.08111 60 79 138 255 
3.11637 2.99265 -1.09007 62 74 137 255 
3.008 2.88368 -1.0893 65 68 135 255 
2.92123 2.80039 -1.09795 67 62 133 255 
2.82344 2.70858 -1.10272 67 61 132 255 
2.70345 2.59793 -1.09853 68 58 131 255 
16.2216 15.4851 6.73666 72 27 109 255 
9.81244 9.38303 3.9264 72 35 116 255 
9.72846 9.30939 3.75191 66 63 133 255 
9.72515 9.30585 3.61421 67 61 132 255 
9.80195 9.3667 3.51891 64 70 136 255 
9.89891 9.46241 3.40922 60 80 139 255 
10.3906 9.92914 3.43183 67 61 132 255 
10.3269 9.86447 3.27084 71 44 122 255 
7.92073 7.57166 2.4172 63 71 136 255 
7.91863 7.5668 2.3021 69 55 129 255 
7.8024 7.44806 2.16125 61 78 138 255 
8.03534 7.66479 2.11835 70 52 128 255 
7.93037 7.58088 2.00166 55 91 141 255 
7.97087 7.61407 1.90204 54 93 141 255 
8.12466 7.75027 1.82665 68 57 131 255 
8.08953 7.70303 1.7133 62 76 138 255 
8.23799 7.87219 1.65416 66 65 134 255 
10.7582 10.273 2.01386 71 46 124 255 
10.9409 10.4258 1.90116 70 50 126 255 
10.7351 10.2151 1.72768 66 64 134 255 
10.8224 10.3418 1.62353 68 57 131 255 
11.1539 10.6398 1.52501 69 56 130 255 
11.1914 10.6607 1.38216 69 56 130 255 
11.348 10.787 1.25422 72 40 120 255 
11.5669 11.0494 1.15505 72 23 105 255 
11.6108 11.0717 1.00656 72 26 108 255 
11.6279 11.065 0.855256 72 23 105 255 
11.6807 11.0955 0.706218 72 24 106 255 
0 0 0 68 2 86 255 
0 0 0 68 2 86 255 
29.1789 27.7567 0.68889 70 8 92 255 
11.6454 11.0542 0.12611 71 14 97 255 
19.8531 18.9451 -0.00478953 69 4 87 255 
11.6365 11.0807 -0.154249 70 8 92 255 
17.0932 16.2487 -0.444597 71 16 99 255 
14.147 13.4195 -0.551474 71 17 100 255 
11.5518 11.0119 -0.579629 72 41 121 255 
10.8342 10.3095 -0.68174 71 45 123 255 
9.93864 9.44429 -0.754521 71 42 122 255 
9.29929 8.81799 -0.826487 70 52 128 255 
8.42404 8.02755 -0.844316 68 58 131 255 
7.72596 7.34667 -0.872775 69 53 129 255 
7.16408 6.8006 -0.902433 68 59 132 255 
6.64936 6.30521 -0.924331 67 61 132 255 
6.24127 5.94128 -0.939146 66 63 133 255 
5.85951 5.5699 -0.958283 62 74 137 255 
5.52869 5.24635 -0.976364 65 68 135 255 
5.22347 4.94967 -0.990862 56 88 140 255 
5.00502 4.75947 -1.00881 55 90 140 255 
4.74413 4.5065 -1.01764 52 96 141 255 
4.49968 4.2684 -1.02342 56 88 140 255 
4.29943 4.07406 -1.03588 61 78 138 255 
4.12958 3.9215 -1.04521 57 85 140 255 
3.95659 3.75447 -1.05233 56 88 140 255 
3.7691 3.57537 -1.05413 59 81 139 255 
3.63355 3.44429 -1.06692 59 81 139 255 
3.50596 3.32582 -1.07222 59 81 139 255 
3.38756 3.21226 -1.08122 56 88 140 255 
3.25061 3.08137 -1.08275 60 80 139 255 
3.13889 2.97747 -1.09154 62 73 137 255 
3.03266 2.87182 -1.09183 66 64 134 255 
2.93836 2.78241 -1.09795 64 69 136 255 
2.83162 2.68326 -1.09947 66 63 133 255 
2.71864 2.58063 -1.09825 66 64 134 255 
11.7327 11.0632 4.84421 70 48 126 255 
9.7958 9.25272 3.89695 72 27 109 255 
11.4977 10.8681 4.40846 72 36 117 255 
9.92665 9.38267 3.66763 68 59 132 255 
10.0704 9.50571 3.59427 63 72 137 255 
11.5916 10.9451 3.96897 72 31 112 255 
10.5171 9.92729 3.45343 66 64 134 255 
10.6184 10.019 3.34362 68 57 131 255 
7.97982 7.53499 2.42107 59 81 139 255 
7.93359 7.48852 2.29305 68 59 132 255 
7.9143 7.4626 2.17952 49 103 142 255 
7.94852 7.48937 2.08331 56 88 140 255 
7.97888 7.5341 2.0022 65 66 135 255 
7.99092 7.53999 1.89575 46 109 142 255 
8.0406 7.5764 1.79726 65 68 135 255 
8.13736 7.65393 1.71345 53 94 141 255 
8.18035 7.72164 1.63304 50 100 142 255 
9.48166 8.94348 1.7646 54 92 141 255 
11.6108 10.929 2.00588 70 50 126 255 
10.9937 10.3334 1.75906 64 70 136 255 
11.6628 11.0088 1.73945 71 46 124 255 
11.676 11.0017 1.58713 71 47 125 255 
11.5714 10.8881 1.42081 72 40 120 255 
11.5797 10.8727 1.27243 72 41 121 255 
11.6439 10.9872 1.15599 67 62 133 255 
11.6836 11.005 1.007 63 71 136 255 
11.6912 10.9893 0.854937 67 61 132 255 
11.7143 10.9915 0.70416 69 53 129 255 
11.6923 11.0251 0.578048 70 51 127 255 
11.7172 11.029 0.426987 71 46 124 255 
11.6912 10.9855 0.274424 69 53 129 255 
11.7167 10.986 0.126149 70 50 126 255 
11.6982 11.0268 -0.00280579 70 48 126 255 
11.6926 10.9981 -0.154095 70 52 128 255 
11.6969 10.9831 -0.30248 71 46 124 255 
11.7103 10.9724 -0.453856 71 47 125 255 
11.6257 10.947 -0.579956 71 44 122 255 
10.8958 10.2415 -0.681648 71 42 122 255 
10.0088 9.39474 -0.755455 70 48 126 255 
9.35905 8.76623 -0.827002 71 44 122 255 
8.46733 7.97024 -0.843737 71 44 122 255 
7.77671 7.30459 -0.873428 70 50 126 255 
7.22238 6.77218 -0.904525 69 56 130 255 
6.70608 6.2813 -0.92684 66 63 133 255 
6.27398 5.89947 -0.938605 65 66 135 255 
5.89212 5.53248 -0.958048 62 74 137 255 
5.58249 5.23268 -0.980176 61 78 138 255 
5.26604 4.92903 -0.993181 58 83 139 255 
5.02042 4.71579 -1.00607 55 91 141 255 
4.77025 4.47595 -1.01733 54 92 141 255 
4.52795 4.24274 -1.02391 56 88 140 255 
4.3301 4.05299 -1.03726 59 82 139 255 
4.14783 3.89071 -1.04376 55 91 141 255 
3.986 3.73616 -1.05403 56 88 140 255 
3.78954 3.55084 -1.05373 62 73 137 255 
3.65462 3.42193 -1.06692 59 82 139 255 
3.53485 3.31226 -1.07482 59 82 139 255 
3.4001 3.18476 -1.07897 59 82 139 255 
3.27726 3.06868 -1.08534 61 78 138 255 
3.15427 2.9555 -1.09056 64 69 136 255 
3.04528 2.84854 -1.09006 66 64 134 255 
2.95537 2.76433 -1.09795 65 68 135 255 
2.84452 2.66255 -1.09811 66 64 134 255 
2.75193 2.58031 -1.10528 66 64 134 255 
11.6147 10.818 4.76797 71 46 124 255 
11.569 10.7941 4.57593 72 32 113 255 
11.6297 10.8585 4.43342 72 37 118 255 
11.6938 10.9179 4.29571 72 32 113 255 
10.2418 9.54935 3.63447 72 36 117 255 
10.4039 9.70359 3.54185 72 40 120 255 
10.5309 9.81879 3.4381 71 47 125 255 
10.6005 9.87989 3.31884 72 31 112 255 
10.5746 9.86306 3.1899 70 50 126 255 
7.98154 7.4417 2.29367 70 52 128 255 
7.90899 7.36645 2.16557 65 66 135 255 
7.99577 7.4418 2.08368 51 99 141 255 
7.94295 7.40851 1.98174 55 91 141 255 
8.0702 7.52173 1.90357 50 102 142 255 
8.11295 7.55113 1.80304 58 83 139 255 
8.19069 7.60991 1.71481 59 81 139 255 
8.20586 7.65106 1.62873 58 84 140 255 
9.54071 8.88918 1.7654 51 99 141 255 
11.6675 10.8481 2.00413 72 29 111 255 
11.038 10.2482 1.75605 72 28 110 255 
14.4853 13.5059 2.148 72 28 110 255 
14.6571 13.6419 1.98094 72 38 119 255 
14.7678 13.7259 1.80292 72 36 117 255 
11.7682 10.9147 1.28576 72 36 117 255 
11.7155 10.9196 1.15642 71 47 125 255 
11.7407 10.9236 1.00612 69 53 129 255 
11.7592 10.9181 0.85499 70 50 126 255 
11.7684 10.9072 0.703371 71 42 122 255 
11.7568 10.9505 0.577904 68 57 131 255 
11.7751 10.948 0.426642 70 48 126 255 
11.779 10.9326 0.274903 70 48 126 255 
11.7926 10.922 0.126244 72 40 120 255 
11.7503 10.9405 -0.00280213 70 48 126 255 
11.7357 10.9037 -0.153779 72 41 121 255 
11.7479 10.8962 -0.302065 71 46 124 255 
11.7532 10.8779 -0.452923 71 42 122 255 
11.6963 10.8788 -0.580137 71 44 122 255 
10.9614 10.1771 -0.681831 68 58 131 255 
10.0889 9.3542 -0.757159 71 47 125 255 
9.39289 8.69034 -0.825264 71 44 122 255 
8.47883 7.8835 -0.840046 72 35 116 255 
7.83453 7.26893 -0.874896 69 55 129 255 
7.25284 6.71759 -0.903161 69 55 129 255 
6.74741 6.24273 -0.927242 68 57 131 255 
6.30569 5.8568 -0.937955 64 70 136 255 
5.92742 5.49757 -0.958283 64 70 136 255 
5.5861 5.17204 -0.975221 65 68 135 255 
5.29473 4.89528 -0.992908 54 92 141 255 
5.04419 4.68019 -1.00505 51 98 141 255 
4.80052 4.44929 -1.01795 51 98 141 255 
4.56041 4.2209 -1.02537 58 84 140 255 
4.35706 4.02835 -1.03777 56 89 140 255 
4.16657 3.86051 -1.0425 55 90 140 255 
4.00741 3.7103 -1.05366 54 93 141 255 
3.83787 3.55215 -1.06109 59 82 139 255 
3.68632 3.4094 -1.07005 60 79 138 255 
3.55439 3.28984 -1.0746 58 83 139 255 
3.40527 3.1506 -1.07446 62 74 137 255 
3.29317 3.04587 -1.0844 61 77 138 255 
3.15242 2.91765 -1.08371 64 69 136 255 
3.06767 2.83439 -1.09183 62 74 137 255 
2.95739 2.73239 -1.09245 65 66 135 255 
2.85939 2.64374 -1.09757 66 65 134 255 
2.77404 2.56925 -1.10781 66 63 133 255 
10.1274 9.31742 4.13389 72 29 111 255 
12.1387 11.1871 4.77402 72 40 120 255 
10.2225 9.42785 3.87485 72 36 117 255 
11.7237 10.8119 4.28223 72 32 113 255 
10.2717 9.4601 3.62442 60 79 138 255 
10.4597 9.63628 3.54064 69 53 129 255 
15.665 14.427 5.08527 72 20 103 255 
10.4551 9.62518 3.25476 72 31 112 255 
12.6939 11.695 3.8075 72 37 118 255 
12.8306 11.8165 3.66625 72 26 108 255 
11.8254 10.8794 3.21958 72 31 112 255 
8.05212 7.40257 2.08649 56 89 140 255 
8.00273 7.37296 1.98533 58 84 140 255 
8.41344 7.74572 1.97329 48 105 142 255 
9.5891 8.81587 2.11905 62 76 138 255 
8.22485 7.54815 1.71224 63 72 137 255 
8.21116 7.56235 1.62055 62 76 138 255 
11.655 10.7262 2.1444 72 38 119 255 
14.6174 13.4246 2.49665 70 51 127 255 
14.7799 13.5544 2.33808 70 52 128 255 
14.5591 13.4087 2.1467 69 55 129 255 
14.6951 13.5099 1.97484 69 55 129 255 
12.1231 11.1299 1.47167 72 37 118 255 
11.9143 10.915 1.29438 71 42 122 255 
14.5009 13.3504 1.42325 70 51 127 255 
14.5947 13.4129 1.24362 72 23 105 255 
23.8785 21.8993 1.72637 70 11 94 255 
0 0 0 68 2 86 255 
11.854 10.9059 0.579378 72 24 106 255 
11.8531 10.8857 0.42704 72 32 113 255 
11.851 10.8649 0.275023 72 36 117 255 
11.8602 10.8502 0.126251 72 40 120 255 
11.8304 10.8804 -0.00280527 71 42 122 255 
11.8635 10.8876 -0.154575 71 44 122 255 
11.85 10.8563 -0.30297 70 48 126 255 
11.7954 10.7833 -0.45199 72 40 120 255 
11.7613 10.8055 -0.580065 70 51 127 255 
11.07 10.1522 -0.684699 72 31 112 255 
10.1476 9.29347 -0.757268 70 52 128 255 
9.38857 8.58003 -0.820244 72 40 120 255 
8.51969 7.82458 -0.839322 72 40 120 255 
7.87164 7.21399 -0.87408 71 46 124 255 
7.28804 6.66758 -0.902433 69 56 130 255 
6.77751 6.19383 -0.926138 70 51 127 255 
6.33931 5.81599 -0.93763 62 73 137 255 
5.97861 5.4772 -0.961108 62 74 137 255 
5.64628 5.16378 -0.980176 63 72 137 255 
5.31809 4.85669 -0.99168 59 81 139 255 
5.08083 4.65651 -1.00664 50 101 142 255 
4.83429 4.42575 -1.01933 54 92 141 255 
4.60516 4.21015 -1.02961 56 89 140 255 
4.37661 3.99689 -1.03657 57 86 140 255 
4.18655 3.83155 -1.0416 56 88 140 255 
4.02068 3.67703 -1.05119 54 93 141 255 
3.86031 3.52919 -1.06129 56 88 140 255 
3.71367 3.39266 -1.07192 60 80 139 255 
3.56298 3.25743 -1.07114 59 82 139 255 
3.43533 3.13951 -1.07784 60 79 138 255 
3.28812 3.00397 -1.07664 64 70 136 255 
3.18315 2.91003 -1.08812 65 68 135 255 
3.07143 2.80312 -1.08702 63 72 137 255 
2.97696 2.7168 -1.0935 64 69 136 255 
2.88693 2.63653 -1.10191 67 62 133 255 
2.78268 2.5457 -1.105 69 56 130 255 
10.1072 9.1849 4.10253 68 59 132 255 
10.2784 9.35667 4.01974 66 63 133 255 
10.288 9.37209 3.8778 59 82 139 255 
12.054 10.9804 4.37818 71 19 101 255 
10.3403 9.40667 3.62819 62 74 137 255 
10.5509 9.60131 3.55151 71 47 125 255 
10.5556 9.60242 3.40745 71 44 122 255 
10.483 9.53265 3.24516 72 32 113 255 
10.6818 9.72072 3.18602 72 33 115 255 
12.9181 11.7513 3.67057 72 35 116 255 
12.6241 11.472 3.41781 71 45 123 255 
11.7719 10.6898 3.03333 72 35 116 255 
10.964 9.9775 2.70472 65 66 135 255 
8.47977 7.71119 1.97771 51 98 141 255 
9.54656 8.66928 2.09785 71 44 122 255 
9.73861 8.8279 2.01605 72 32 113 255 
8.25887 7.51315 1.62083 72 40 120 255 
14.5671 13.2421 2.66521 72 22 104 255 
14.7502 13.3806 2.50526 71 47 125 255 
12.0846 10.9468 1.90104 71 42 122 255 
14.8566 13.5151 2.1783 70 50 126 255 
11.9708 10.8706 1.59974 72 23 105 255 
12.0428 10.9208 1.45377 72 41 121 255 
14.6124 13.2227 1.57865 72 28 110 255 
14.5995 13.2767 1.42491 71 46 124 255 
23.9797 21.7681 2.0319 70 10 93 255 
14.5595 13.1891 1.04675 71 19 101 255 
51.2081 46.3057 3.02641 71 14 97 255 
51.2053 46.5329 2.48872 69 4 87 255 
37.5435 34.057 1.34505 70 7 90 255 
35.859 32.4725 0.827531 69 5 89 255 
19.6062 17.7168 0.207547 69 5 89 255 
11.9458 10.852 -0.00281679 71 17 100 255 
11.9486 10.8314 -0.154815 72 31 112 255 
11.9341 10.7995 -0.303422 72 35 116 255 
11.9222 10.7657 -0.454308 72 37 118 255 
11.8163 10.7231 -0.57952 72 41 121 255 
11.1254 10.0781 -0.68429 72 38 119 255 
10.1933 9.22098 -0.756444 69 55 129 255 
9.44327 8.52427 -0.820438 72 37 118 255 
8.57862 7.7822 -0.840408 71 44 122 255 
7.91354 7.16355 -0.873835 71 45 123 255 
7.32364 6.61806 -0.901796 68 59 132 255 
6.80653 6.14413 -0.924934 69 55 129 255 
6.37635 5.77831 -0.937846 66 65 134 255 
6.00916 5.43775 -0.960637 64 69 136 255 
5.68301 5.13369 -0.981066 64 70 136 255 
5.34484 4.82131 -0.991135 60 80 139 255 
5.11077 4.62657 -1.00693 52 97 141 255 
4.85256 4.38805 -1.01749 55 91 141 255 
4.62651 4.17785 -1.02863 55 91 141 255 
4.38349 3.95413 -1.03243 58 83 139 255 
4.23187 3.82557 -1.04701 55 90 140 255 
4.04025 3.64966 -1.05043 59 81 139 255 
3.87753 3.5015 -1.0601 56 89 140 255 
3.72643 3.3626 -1.06963 57 86 140 255 
3.5829 3.23551 -1.07114 60 80 139 255 
3.46465 3.12751 -1.081 57 85 140 255 
3.30793 2.98504 -1.07711 62 73 137 255 
3.20238 2.89175 -1.08861 65 66 135 255 
3.09288 2.78811 -1.08854 62 74 137 255 
2.99644 2.70106 -1.09454 64 69 136 255 
2.88947 2.60652 -1.09675 65 66 135 255 
2.80394 2.53373 -1.10724 68 58 131 255 
9.34227 8.38573 3.7711 59 82 139 255 
10.3178 9.27737 4.0128 62 74 137 255 
10.3396 9.30363 3.87565 58 83 139 255 
10.449 9.40173 3.77421 68 58 131 255 
10.4648 9.40321 3.65155 67 62 133 255 
10.5179 9.45401 3.52083 71 44 122 255 
15.6932 14.1011 5.03789 71 44 122 255 
10.6733 9.58669 3.2858 72 24 106 255 
10.7739 9.68437 3.19571 72 40 120 255 
16.1499 14.5112 4.56348 72 36 117 255 
11.9412 10.7184 3.21506 72 23 105 255 
10.7748 9.66436 2.76106 64 70 136 255 
11.1216 9.99685 2.72841 71 42 122 255 
8.53425 7.6656 1.97941 60 80 139 255 
9.72081 8.71928 2.12435 66 63 133 255 
11.8273 10.5898 2.43494 70 48 126 255 
15.8345 14.2282 3.09039 72 36 117 255 
14.2883 12.8294 2.59974 72 31 112 255 
14.8675 13.3216 2.51125 71 42 122 255 
12.1353 10.8579 1.89849 71 45 123 255 
15.1196 13.5858 2.20461 72 38 119 255 
15.0472 13.4967 1.99974 72 31 112 255 
12.1556 10.8879 1.45929 71 47 125 255 
14.6843 13.1248 1.5777 71 47 125 255 
14.3513 12.8909 1.39293 70 51 127 255 
14.4365 12.9443 1.21651 67 61 132 255 
14.7599 13.2067 1.05532 69 56 130 255 
15.107 13.4932 0.887918 71 14 97 255 
51.4839 46.2125 2.48844 70 8 92 255 
37.4018 33.5124 1.33258 70 7 90 255 
27.8838 24.9408 0.639941 70 10 93 255 
14.0686 12.5569 0.148109 71 19 101 255 
19.6553 17.6366 -0.00460907 70 7 90 255 
13.7521 12.3134 -0.177201 72 24 106 255 
13.6543 12.2046 -0.345247 72 36 117 255 
14.1909 12.6572 -0.537791 71 19 101 255 
11.9533 10.7144 -0.583005 70 50 126 255 
11.1811 10.0043 -0.683925 71 46 124 255 
10.2616 9.1689 -0.757323 70 51 127 255 
9.51327 8.4821 -0.821982 72 35 116 255 
8.62844 7.73142 -0.840625 71 46 124 255 
7.92539 7.08629 -0.870327 71 46 124 255 
7.36634 6.57499 -0.902069 69 55 129 255 
6.8545 6.11152 -0.926339 69 55 129 255 
6.41465 5.74173 -0.93828 66 65 134 255 
6.02834 5.3882 -0.958401 62 74 137 255 
5.70774 5.09278 -0.979922 65 66 135 255 
5.36915 4.78381 -0.99018 64 70 136 255 
5.13464 4.59117 -1.00607 51 99 141 255 
4.86981 4.34964 -1.01549 58 84 140 255 
4.64617 4.14413 -1.02733 57 86 140 255 
4.40547 3.92519 -1.03192 60 79 138 255 
4.23766 3.78381 -1.04268 54 92 141 255 
4.04792 3.61172 -1.04665 60 80 139 255 
3.89236 3.47177 -1.05831 57 86 140 255 
3.74553 3.33837 -1.06921 58 84 140 255 
3.61434 3.22386 -1.0746 59 82 139 255 
3.47214 3.09582 -1.07739 60 80 139 255 
3.32836 2.96663 -1.07782 64 69 136 255 
3.21355 2.86623 -1.0864 65 68 135 255 
3.12077 2.77873 -1.09233 61 78 138 255 
2.99638 2.66787 -1.08852 65 68 135 255 
2.89751 2.58169 -1.09377 65 66 135 255 
2.82659 2.52287 -1.11006 69 53 129 255 
9.96327 8.83335 3.99982 72 29 111 255 
10.3386 9.18199 3.99891 66 63 133 255 
12.221 10.8616 4.55582 72 38 119 255 
10.4921 9.32461 3.76903 64 70 136 255 
10.3601 9.1949 3.59528 67 61 132 255 
10.6396 9.44599 3.54209 69 56 130 255 
15.7118 13.9445 5.01629 72 36 117 255 
16.4376 14.583 5.03273 71 19 101 255 
11.6021 10.3008 3.42255 71 45 123 255 
11.6963 10.3805 3.28696 71 42 122 255 
11.7514 10.4186 3.14669 66 64 134 255 
10.8339 9.59807 2.76106 72 37 118 255 
11.0378 9.79975 2.69305 68 58 131 255 
8.60988 7.63859 1.98604 62 73 137 255 
9.7926 8.67584 2.12836 57 85 140 255 
11.992 10.6054 2.45541 71 42 122 255 
11.5501 10.2511 2.2419 62 74 137 255 
15.7153 13.9375 2.84377 72 38 119 255 
11.7645 10.4119 1.9763 72 41 121 255 
12.1979 10.78 1.89791 69 56 130 255 
15.2786 13.5601 2.21561 71 42 122 255 
12.2367 10.841 1.61736 69 56 130 255 
15.0994 13.3587 1.80283 71 45 123 255 
14.988 13.2317 1.60157 71 47 125 255 
14.5547 12.9131 1.40496 70 48 126 255 
14.5321 12.8701 1.21789 70 48 126 255 
14.8804 13.151 1.05814 72 35 116 255 
0 0 0 68 2 86 255 
52.4806 46.5289 2.52276 69 5 89 255 
36.6276 32.4158 1.29789 69 4 87 255 
27.308 24.1258 0.623316 71 14 97 255 
13.9391 12.2885 0.145949 70 11 94 255 
14.1533 12.5438 -0.00330077 71 14 97 255 
13.8184 12.2208 -0.177085 72 32 113 255 
17.8993 15.8024 -0.45012 70 11 94 255 
12.0676 10.6311 -0.454845 72 20 103 255 
12.1266 10.7362 -0.588231 69 55 129 255 
11.1973 9.89582 -0.681193 71 44 122 255 
10.3267 9.1137 -0.757983 70 51 127 255 
9.57337 8.43082 -0.82269 72 37 118 255 
8.70485 7.70411 -0.843447 70 52 128 255 
7.97396 7.04215 -0.870898 70 48 126 255 
7.41551 6.53757 -0.903161 70 52 128 255 
6.90083 6.07724 -0.927543 67 61 132 255 
6.44306 5.69634 -0.937304 64 70 136 255 
6.0665 5.35571 -0.959225 63 71 136 255 
5.73218 5.05176 -0.978779 64 69 136 255 
5.3984 4.75078 -0.99018 61 78 138 255 
5.16346 4.56023 -1.00621 50 101 142 255 
4.89271 4.31641 -1.01472 56 88 140 255 
4.66411 4.10902 -1.0257 58 83 139 255 
4.43982 3.9072 -1.03433 58 84 140 255 
4.25858 3.75579 -1.04214 56 89 140 255 
4.06926 3.58617 -1.04646 55 90 140 255 
3.92389 3.45689 -1.06109 56 89 140 255 
3.75346 3.30434 -1.06567 61 78 138 255 
3.63699 3.2042 -1.07547 56 88 140 255 
3.49619 3.07896 -1.07897 57 85 140 255 
3.33191 2.93331 -1.07312 63 72 137 255 
3.24636 2.85992 -1.09154 61 78 138 255 
3.1334 2.7557 -1.09082 62 73 137 255 
3.01341 2.65007 -1.08878 65 66 135 255 
2.90029 2.55242 -1.08889 67 62 133 255 
2.82906 2.49405 -1.105 69 55 129 255 
10.1859 8.91969 4.06714 72 41 121 255 
10.3767 9.10254 3.99196 68 59 132 255 
10.4327 9.15825 3.86814 70 51 127 255 
10.4881 9.20654 3.74724 70 50 126 255 
10.42 9.13435 3.59653 67 61 132 255 
15.9198 13.9601 5.27135 72 33 115 255 
10.6626 9.34687 3.38585 63 71 136 255 
21.7525 19.061 6.62405 70 8 92 255 
11.729 10.2854 3.44129 64 69 136 255 
11.7207 10.2743 3.27605 67 62 133 255 
11.6816 10.2294 3.11113 62 73 137 255 
11.7989 10.3245 2.99079 71 47 125 255 
11.8536 10.3947 2.87649 69 55 129 255 
8.66325 7.59146 1.98757 71 45 123 255 
9.87536 8.64159 2.13478 66 63 133 255 
9.84585 8.60033 2.00514 62 76 138 255 
11.627 10.1924 2.24463 68 59 132 255 
15.9235 13.9486 2.86591 72 29 111 255 
11.6533 10.1867 1.94709 63 72 137 255 
12.2773 10.7167 1.9 72 29 111 255 
12.2844 10.7687 1.77179 70 52 128 255 
12.3119 10.7736 1.61854 72 26 108 255 
15.0544 13.155 1.78778 70 51 127 255 
14.9337 13.0216 1.5872 68 57 131 255 
14.6344 12.8242 1.40503 71 45 123 255 
14.7362 12.8904 1.22834 71 19 101 255 
15.2775 13.3359 1.08054 71 17 100 255 
38.1007 33.199 2.21526 69 5 89 255 
0 0 0 68 2 86 255 
37.2518 32.5628 1.3129 69 4 87 255 
26.678 23.2793 0.605665 71 13 96 255 
14.009 12.1981 0.145894 70 11 94 255 
17.1886 15.0466 -0.00398703 72 24 106 255 
13.866 12.1121 -0.17674 71 19 101 255 
17.4172 15.1876 -0.435644 72 40 120 255 
15.0208 13.07 -0.563121 71 19 101 255 
12.2848 10.7425 -0.592695 71 45 123 255 
11.3391 9.89787 -0.686111 72 36 117 255 
10.399 9.0646 -0.759192 69 53 129 255 
9.63622 8.38175 -0.823655 72 37 118 255 
8.74745 7.64661 -0.843013 71 47 125 255 
8.05457 7.02585 -0.874978 71 47 125 255 
7.43145 6.47102 -0.900249 70 48 126 255 
6.92898 6.02694 -0.926339 68 57 131 255 
6.46067 5.64166 -0.934812 66 63 133 255 
6.10599 5.32426 -0.960284 64 70 136 255 
5.76382 5.01714 -0.978906 64 70 136 255 
5.43268 4.72212 -0.991135 56 88 140 255 
5.19656 4.53302 -1.00722 54 92 141 255 
4.92357 4.2902 -1.01564 58 83 139 255 
4.69221 4.08291 -1.02635 54 92 141 255 
4.48453 3.89797 -1.03915 56 88 140 255 
4.28822 3.7354 -1.04376 56 89 140 255 
4.08897 3.5592 -1.04589 59 81 139 255 
3.93541 3.42439 -1.0585 57 86 140 255 
3.76924 3.27739 -1.06442 62 76 138 255 
3.65216 3.17798 -1.07417 59 82 139 255 
3.50914 3.05234 -1.07716 59 82 139 255 
3.35571 2.91791 -1.075 61 77 138 255 
3.23971 2.81894 -1.08347 62 76 138 255 
3.16194 2.74657 -1.09486 63 72 137 255 
3.04565 2.64545 -1.09454 65 68 135 255 
2.92679 2.54405 -1.09296 66 64 134 255 
2.84359 2.47602 -1.10471 66 63 133 255 
10.2672 8.88021 4.07779 62 73 137 255 
10.5115 9.10727 4.02224 70 50 126 255 
10.3897 9.00824 3.83163 68 57 131 255 
10.5831 9.17554 3.76099 70 50 126 255 
17.2461 14.9321 5.92087 71 13 96 255 
16.0081 13.8647 5.27231 72 29 111 255 
10.7447 9.30292 3.39374 66 64 134 255 
11.6078 10.0463 3.51597 70 8 92 255 
9.57151 8.29015 2.79331 71 17 100 255 
11.8013 10.2176 3.28099 69 55 129 255 
11.739 10.153 3.10976 72 36 117 255 
11.787 10.187 2.97187 72 38 119 255 
11.6487 10.0893 2.8117 71 45 123 255 
11.7252 10.1481 2.67571 67 61 132 255 
12.1005 10.4584 2.60188 70 51 127 255 
9.90068 8.54169 2.00559 71 46 124 255 
11.6624 10.0975 2.23946 68 57 131 255 
11.7095 10.1309 2.09624 63 71 136 255 
11.7171 10.1163 1.94734 66 65 134 255 
11.8659 10.2299 1.82658 72 41 121 255 
12.5479 10.8643 1.80015 70 48 126 255 
15.4557 13.358 2.02101 71 47 125 255 
15.1755 13.0975 1.79259 72 40 120 255 
14.9732 12.8952 1.58297 72 40 120 255 
14.7339 12.7525 1.40705 71 42 122 255 
15.9554 13.785 1.3229 72 26 108 255 
49.3927 42.5843 3.47487 69 5 89 255 
49.8325 42.8864 2.88202 69 4 87 255 
38.2389 33.0731 1.81851 69 5 89 255 
0 0 0 69 4 87 255 
26.0387 22.4416 0.588015 69 5 89 255 
14.0775 12.1067 0.145831 70 8 92 255 
17.2375 14.9036 -0.00397708 72 32 113 255 
13.7909 11.8981 -0.174849 71 16 99 255 
13.8252 11.9068 -0.343965 72 23 105 255 
13.84 11.8941 -0.516107 72 27 109 255 
12.3936 10.7042 -0.594764 71 45 123 255 
11.4012 9.82942 -0.686202 71 45 123 255 
10.4559 9.00192 -0.759302 69 55 129 255 
9.69201 8.32637 -0.824042 71 45 123 255 
8.79043 7.58954 -0.842651 71 44 122 255 
8.09677 6.97564 -0.874896 70 51 127 255 
7.47026 6.42465 -0.900158 71 46 124 255 
6.9696 5.98756 -0.92684 70 52 128 255 
6.48086 5.58957 -0.932754 66 65 134 255 
6.14381 5.29123 -0.961108 59 82 139 255 
5.79901 4.98556 -0.979668 64 70 136 255 
5.46456 4.69127 -0.99168 53 94 141 255 
5.20853 4.48748 -1.00419 59 82 139 255 
4.94156 4.25282 -1.01395 58 83 139 255 
4.71044 4.04826 -1.02488 58 84 140 255 
4.50014 3.86333 -1.03726 58 84 140 255 
4.30435 3.70325 -1.04214 55 90 140 255 
4.11297 3.53596 -1.04646 58 83 139 255 
3.96007 3.40337 -1.0595 59 82 139 255 
3.79595 3.25994 -1.0663 60 80 139 255 
3.6479 3.13515 -1.06724 58 84 140 255 
3.51302 3.01805 -1.07265 62 74 137 255 
3.39273 2.91373 -1.08111 62 73 137 255 
3.26577 2.8066 -1.0864 62 76 138 255 
3.17139 2.72082 -1.09233 61 78 138 255 
3.05816 2.62357 -1.09323 66 65 134 255 
2.94381 2.5273 -1.0935 63 71 136 255 
2.86455 2.46353 -1.10696 66 64 134 255 
10.3157 8.81207 4.07549 66 64 134 255 
10.4263 8.92206 3.96863 71 46 124 255 
12.6567 10.8385 4.64305 72 27 109 255 
12.9214 11.0647 4.56775 72 41 121 255 
13.5165 11.5586 4.616 72 24 106 255 
15.8982 13.5997 5.20853 72 41 121 255 
15.9769 13.6624 5.01978 72 36 117 255 
13.5913 11.6178 4.09508 72 26 108 255 
11.8113 10.1039 3.42879 66 63 133 255 
11.7336 10.0337 3.24499 71 44 122 255 
12.0694 10.3101 3.18048 72 32 113 255 
12.0428 10.2797 3.0204 67 61 132 255 
13.9583 11.9406 3.35142 72 24 106 255 
11.6344 9.94529 2.64102 71 45 123 255 
11.5376 9.84882 2.4678 72 26 108 255 
12.4477 10.6066 2.50832 72 28 110 255 
11.9362 10.2072 2.27997 72 37 118 255 
12.4524 10.6408 2.21752 70 50 126 255 
12.201 10.4041 2.01711 72 33 115 255 
15.5048 13.2022 2.37421 68 59 132 255 
15.6782 13.4071 2.23739 71 42 122 255 
15.1272 12.9127 1.96765 72 38 119 255 
15.0509 12.8297 1.76854 70 48 126 255 
16.0893 13.6853 1.69204 72 23 105 255 
14.8468 12.6917 1.41036 72 22 104 255 
15.2258 12.9923 1.25577 71 46 124 255 
16.052 13.6686 1.12337 72 28 110 255 
15.2441 12.9573 0.877014 71 13 96 255 
0 0 0 68 2 86 255 
37.8966 32.3146 1.32155 70 7 90 255 
36.5824 31.1395 0.821784 69 4 87 255 
12.1379 10.3098 0.125081 72 32 113 255 
17.7294 15.1398 -0.00406906 72 28 110 255 
22.5579 19.2217 -0.2845 70 11 94 255 
18.9441 16.1141 -0.468855 71 17 100 255 
15.1222 12.8355 -0.560973 72 29 111 255 
12.2225 10.4262 -0.583476 72 36 117 255 
11.4681 9.7651 -0.686612 71 45 123 255 
10.5011 8.92919 -0.758587 70 52 128 255 
9.74368 8.26739 -0.824106 72 41 121 255 
8.8467 7.54387 -0.843592 71 47 125 255 
8.13259 6.92002 -0.874162 69 53 129 255 
7.53459 6.39997 -0.903161 70 50 126 255 
7.00621 5.94468 -0.92684 69 53 129 255 
6.52941 5.56195 -0.934812 66 64 134 255 
6.15801 5.23799 -0.958283 63 71 136 255 
5.81664 4.93897 -0.977508 66 65 134 255 
5.49853 4.66214 -0.992635 55 91 141 255 
5.22542 4.44646 -1.00216 54 93 141 255 
4.95853 4.21474 -1.01211 59 81 139 255 
4.73143 4.01609 -1.02407 57 86 140 255 
4.52601 3.83755 -1.03777 58 84 140 255 
4.32325 3.67358 -1.04123 57 86 140 255 
4.13458 3.51066 -1.04646 55 91 141 255 
3.97564 3.37457 -1.05811 59 82 139 255 
3.80917 3.23089 -1.06442 62 76 138 255 
3.67079 3.11587 -1.06832 59 82 139 255 
3.52553 2.9914 -1.07085 60 79 138 255 
3.40906 2.8916 -1.08064 62 74 137 255 
3.29623 2.7978 -1.09081 60 79 138 255 
3.1836 2.69756 -1.09082 60 80 139 255 
3.06536 2.59727 -1.09009 65 66 135 255 
2.9644 2.51354 -1.0954 66 65 134 255 
2.86937 2.43721 -1.10303 67 62 133 255 
10.2415 8.64053 4.02514 69 55 129 255 
10.4904 8.86598 3.97224 67 62 133 255 
12.4839 10.5584 4.55582 72 41 121 255 
10.4604 8.84666 3.67852 66 65 134 255 
11.0885 9.36507 3.76712 72 38 119 255 
13.679 11.5568 4.45818 72 29 111 255 
16.0582 13.5623 5.01908 72 33 115 255 
11.766 9.93327 3.52668 72 40 120 255 
11.7969 9.96694 3.40682 70 51 127 255 
11.718 9.89643 3.22381 70 52 128 255 
12.1287 10.2326 3.1795 71 46 124 255 
12.044 10.1536 3.00503 71 46 124 255 
12.2346 10.3367 2.92226 68 58 131 255 
20.9862 17.7176 4.73912 70 11 94 255 
12.0008 10.1176 2.55355 72 31 112 255 
11.7525 9.89038 2.35596 71 45 123 255 
12.5679 10.6146 2.38815 72 38 119 255 
12.5296 10.5744 2.21966 69 55 129 255 
15.5446 13.0913 2.55656 72 37 118 255 
15.5969 13.1164 2.37595 72 32 113 255 
15.5634 13.1445 2.20946 72 38 119 255 
12.7235 10.7266 1.6464 72 35 116 255 
15.3366 12.9116 1.79276 71 42 122 255 
15.2777 12.8343 1.59838 72 23 105 255 
14.8954 12.5759 1.40762 72 32 113 255 
15.4411 13.0131 1.26692 71 19 101 255 
15.4715 13.0113 1.07713 71 47 125 255 
15.3149 12.8564 0.876532 72 26 108 255 
55.2412 46.606 2.59969 69 4 87 255 
37.9619 31.9701 1.31696 70 10 93 255 
0 0 0 68 2 86 255 
12.145 10.1882 0.124508 72 24 106 255 
12.2156 10.3024 -0.00278904 72 37 118 255 
17.4331 14.6711 -0.218727 72 23 105 255 
18.8344 15.8227 -0.463728 71 16 99 255 
15.2037 12.745 -0.561086 71 16 99 255 
12.7441 10.7367 -0.605217 72 35 116 255 
11.5714 9.7312 -0.689208 71 47 125 255 
10.5564 8.86523 -0.758642 69 55 129 255 
9.77892 8.19462 -0.822819 71 47 125 255 
8.89587 7.49202 -0.843881 71 45 123 255 
8.18787 6.88089 -0.875549 70 50 126 255 
7.58135 6.36002 -0.90407 71 47 125 255 
7.04789 5.90605 -0.927543 70 50 126 255 
6.58395 5.53906 -0.937738 68 59 132 255 
6.17102 5.18414 -0.95534 65 66 135 255 
5.85823 4.91275 -0.979414 64 70 136 255 
5.52704 4.62831 -0.992635 57 85 140 255 
5.26169 4.42195 -1.0039 48 106 142 255 
4.98733 4.18677 -1.01272 61 78 138 255 
4.75371 3.98508 -1.02358 55 91 141 255 
4.55023 3.81034 -1.03794 60 80 139 255 
4.34495 3.64635 -1.04105 55 90 140 255 
4.16508 3.49279 -1.04873 57 86 140 255 
4.00378 3.35641 -1.0601 56 89 140 255 
3.83117 3.20934 -1.06505 61 77 138 255 
3.70106 3.10269 -1.07157 60 79 138 255 
3.55352 2.97784 -1.07378 58 84 140 255 
3.42525 2.86938 -1.08017 61 77 138 255 
3.30888 2.77378 -1.08934 64 70 136 255 
3.19712 2.67549 -1.08981 64 70 136 255 
3.09975 2.5939 -1.09664 64 69 136 255 
2.96205 2.48048 -1.08889 68 58 131 255 
2.88942 2.42387 -1.105 68 58 131 255 
10.2737 8.56036 4.01708 66 65 134 255 
10.2673 8.56999 3.86778 62 74 137 255 
12.8227 10.7107 4.6554 72 27 109 255 
10.5189 8.78602 3.68008 69 55 129 255 
11.2743 9.40411 3.81058 68 57 131 255 
11.3602 9.47886 3.68342 71 44 122 255 
13.7614 11.4785 4.27911 72 27 109 255 
11.6889 9.74603 3.4856 71 14 97 255 
11.9156 9.94254 3.42341 69 55 129 255 
11.7311 9.78486 3.21085 64 70 136 255 
20.879 17.3968 5.44527 71 19 101 255 
12.0812 10.0588 2.99885 72 27 109 255 
21.0386 17.5549 4.99931 72 22 104 255 
11.6466 9.7109 2.61654 66 65 134 255 
12.4495 10.3658 2.63544 71 19 101 255 
11.9506 9.93244 2.3834 72 38 119 255 
12.6161 10.5233 2.38499 69 56 130 255 
12.9056 10.7569 2.27453 67 62 133 255 
15.5514 12.9348 2.54458 68 57 131 255 
12.7063 10.553 1.9257 72 40 120 255 
15.3987 12.8444 2.17485 72 37 118 255 
15.5017 12.9069 1.99561 70 52 128 255 
15.4003 12.8045 1.79098 72 37 118 255 
15.3906 12.7689 1.60197 71 44 122 255 
14.9447 12.4612 1.40503 71 13 96 255 
21.7487 18.1019 1.7753 70 10 93 255 
15.6662 13.0118 1.08511 71 42 122 255 
0 0 0 68 2 86 255 
0 0 0 68 1 84 255 
40.224 33.4555 1.38829 69 4 87 255 
29.3383 24.3587 0.652289 71 16 99 255 
12.0287 9.96551 0.122686 72 29 111 255 
12.1495 10.1197 -0.00275971 72 20 103 255 
12.2043 10.1434 -0.152339 72 22 104 255 
12.4484 10.3282 -0.30493 72 36 117 255 
12.4758 10.3286 -0.458068 72 26 108 255 
12.9134 10.7446 -0.610117 72 36 117 255 
