ply
format ascii 1.0
comment VTK generated PLY File
obj_info vtkPolyData points and polygons: vtk4.0
element vertex 1168
property float x
property float y
property float z
property uchar red
property uchar green
property uchar blue
property uchar alpha
element face 0
property list uchar int vertex_indices
end_header
-8.06152 2.94273 0.457264 48 106 142 255 
-8.12733 2.97493 0.379385 49 103 142 255 
-8.12497 2.95139 0.310933 61 77 138 255 
-7.89086 2.87427 0.222844 49 104 142 255 
-7.93414 2.8978 0.144489 45 112 142 255 
-7.90569 2.89692 0.0661298 39 126 142 255 
-7.9643 2.89459 -0.00147899 40 124 142 255 
-7.96555 2.90463 -0.0813913 40 125 142 255 
-7.9742 2.91559 -0.160061 41 121 142 255 
-7.97121 2.92408 -0.24013 58 84 140 255 
-7.9904 2.90881 -0.308833 49 104 142 255 
-7.70515 2.81272 -0.373907 60 79 138 255 
-7.68362 2.81086 -0.450262 57 86 140 255 
-7.69036 2.82258 -0.528316 61 77 138 255 
-7.68275 2.79833 -0.593272 64 70 136 255 
-7.67803 2.80586 -0.669206 59 81 139 255 
-7.65812 2.80608 -0.745128 67 61 132 255 
-7.0958 2.60436 -0.762448 68 58 131 255 
-6.85205 2.49982 -0.794937 53 95 141 255 
-6.84199 2.50169 -0.863526 53 94 141 255 
-6.83002 2.504 -0.931892 57 85 140 255 
-6.81039 2.5023 -0.999046 53 95 141 255 
-6.8552 2.50503 -1.06605 52 96 141 255 
-6.84707 2.50626 -1.13397 48 106 142 255 
-6.83613 2.5076 -1.20153 50 101 142 255 
-6.82457 2.50751 -1.27155 56 89 140 255 
-6.64522 2.43355 -1.29884 59 81 139 255 
-6.29188 2.30677 -1.29292 57 86 140 255 
-5.96489 2.18801 -1.28918 59 81 139 255 
-5.67197 2.08289 -1.28764 66 64 134 255 
-5.46811 2.00572 -1.2923 61 78 138 255 
-5.23311 1.92067 -1.29106 64 69 136 255 
-4.96361 1.82269 -1.27825 68 59 132 255 
-4.7718 1.75044 -1.28235 68 57 131 255 
-4.5619 1.67783 -1.27064 69 55 129 255 
-4.41568 1.62415 -1.27653 70 51 127 255 
-4.23991 1.55778 -1.27308 69 53 129 255 
-4.12509 1.51158 -1.28719 64 69 136 255 
-17.3262 6.41434 5.54992 55 90 140 255 
-17.3429 6.40362 5.3466 57 86 140 255 
-17.3275 6.39085 5.14606 59 82 139 255 
-17.315 6.38664 4.95544 58 83 139 255 
-17.3245 6.4034 4.79387 59 82 139 255 
-17.3284 6.4017 4.59902 62 76 138 255 
-17.2959 6.39294 4.40313 63 72 137 255 
-17.302 6.39897 4.22501 64 69 136 255 
-17.288 6.38648 4.06557 62 76 138 255 
-17.2899 6.39089 3.87441 61 78 138 255 
-17.2842 6.3989 3.69285 57 85 140 255 
-17.2855 6.40659 3.51659 56 89 140 255 
-17.2722 6.38064 3.3595 55 91 141 255 
-17.2651 6.38514 3.1763 54 92 141 255 
-17.2644 6.39843 2.99528 54 93 141 255 
-17.2511 6.41092 2.82275 55 90 140 255 
-17.2626 6.38055 2.67174 53 94 141 255 
-17.2641 6.38819 2.49214 53 94 141 255 
-17.2582 6.4064 2.31579 54 92 141 255 
-17.2372 6.41262 2.14423 60 80 139 255 
-17.2393 6.37193 1.99338 59 82 139 255 
-17.2253 6.38411 1.81741 59 81 139 255 
-17.2269 6.39819 1.64331 60 80 139 255 
-11.3891 4.24377 0.973623 55 90 140 255 
-11.3914 4.21269 0.876984 61 78 138 255 
-8.06822 2.99187 0.539878 42 118 142 255 
-8.05454 2.99632 0.457903 49 104 142 255 
-8.07148 3.01077 0.377634 50 100 142 255 
-8.09265 2.99598 0.310394 47 107 142 255 
-7.86745 2.92055 0.222685 48 105 142 255 
-7.8956 2.93876 0.144113 49 104 142 255 
-7.8887 2.94572 0.0661377 40 124 142 255 
-7.94357 2.94237 -0.00147847 38 129 142 255 
-7.93539 2.94892 -0.0812665 40 125 142 255 
-7.95709 2.96481 -0.16008 40 124 142 255 
-7.9503 2.97189 -0.240045 58 83 139 255 
-7.96584 2.95535 -0.308579 49 103 142 255 
-7.68962 2.86064 -0.373998 59 82 139 255 
-7.6681 2.85865 -0.450372 53 94 141 255 
-7.66542 2.86692 -0.527801 55 90 140 255 
-7.62896 2.83188 -0.590449 64 70 136 255 
-7.64292 2.84631 -0.667656 62 74 137 255 
-7.62956 2.84884 -0.744036 67 61 132 255 
-7.048 2.636 -0.759036 68 59 132 255 
-6.83565 2.54147 -0.794829 53 95 141 255 
-6.81069 2.53773 -0.861525 52 97 141 255 
-6.81731 2.5469 -0.932273 52 97 141 255 
-6.79119 2.54265 -0.998501 51 99 141 255 
-6.81281 2.53703 -1.06185 46 111 142 255 
-6.82509 2.5458 -1.1329 47 108 142 255 
-6.82986 2.55295 -1.20316 47 107 142 255 
-6.80629 2.5483 -1.27103 55 91 141 255 
-6.63569 2.47634 -1.29992 58 84 140 255 
-6.27761 2.34534 -1.29292 57 85 140 255 
-5.97155 2.23212 -1.29355 56 89 140 255 
-5.69938 2.13274 -1.29681 66 63 133 255 
-5.42186 2.02659 -1.28428 61 77 138 255 
-5.22488 1.95411 -1.29196 64 69 136 255 
-4.96508 1.85788 -1.28154 66 63 133 255 
-4.76824 1.7824 -1.28431 68 57 131 255 
-4.55514 1.70715 -1.27165 69 53 129 255 
-4.40744 1.65189 -1.27705 70 48 126 255 
-4.2519 1.59187 -1.27959 68 59 132 255 
-4.08877 1.52679 -1.27876 68 59 132 255 
-17.3071 6.5283 5.55654 60 80 139 255 
-17.3348 6.52175 5.35632 57 86 140 255 
-17.3195 6.50891 5.15546 57 86 140 255 
-17.3089 6.50533 4.96503 60 79 138 255 
-17.2939 6.513 4.79638 59 82 139 255 
-17.3043 6.51371 4.60313 62 74 137 255 
-17.2891 6.51129 4.41149 60 79 138 255 
-17.2843 6.51326 4.23037 65 68 135 255 
-17.2731 6.50173 4.07138 61 78 138 255 
-17.2732 6.50548 3.87955 59 81 139 255 
-17.2621 6.51141 3.69658 56 88 140 255 
-17.2542 6.51566 3.51827 59 81 139 255 
-17.2575 6.49586 3.36434 55 90 140 255 
-17.233 6.49374 3.17766 55 90 140 255 
-17.2405 6.51017 2.99801 55 90 140 255 
-17.2364 6.5261 2.82684 55 91 141 255 
-17.251 6.49681 2.67605 52 96 141 255 
-17.2514 6.50414 2.49603 49 103 142 255 
-17.2362 6.51885 2.31817 52 97 141 255 
-17.2477 6.53728 2.15048 61 78 138 255 
-17.2269 6.48774 1.9965 59 82 139 255 
-17.2473 6.51288 1.82391 57 85 140 255 
-17.205 6.51047 1.645 60 80 139 255 
-11.375 4.31817 0.974661 54 92 141 255 
-11.3793 4.28778 0.878064 60 80 139 255 
-8.04317 3.03885 0.53944 44 113 142 255 
-8.01826 3.03896 0.456892 47 108 142 255 
-8.05379 3.0606 0.377677 46 109 142 255 
-8.11526 3.0611 0.311976 44 114 142 255 
-7.85126 2.96947 0.222738 49 103 142 255 
-7.87835 2.9875 0.14413 49 104 142 255 
-7.87608 2.99621 0.0661848 41 121 142 255 
-7.93472 2.99458 -0.00148021 39 128 142 255 
-7.93772 3.00534 -0.0814777 40 124 142 255 
-7.94343 3.01535 -0.160174 42 118 142 255 
-7.93099 3.02026 -0.240017 64 70 136 255 
-7.9485 3.00453 -0.308615 52 96 141 255 
-7.65884 2.90281 -0.373361 51 99 141 255 
-7.64948 2.90529 -0.450317 53 95 141 255 
-7.63649 2.90963 -0.527029 60 80 139 255 
-7.60398 2.87582 -0.58987 65 66 135 255 
-7.62252 2.89209 -0.667411 61 77 138 255 
-7.62311 2.89985 -0.745128 60 79 138 255 
-7.00659 2.66963 -0.756326 66 64 134 255 
-6.8004 2.57597 -0.792554 52 96 141 255 
-6.78663 2.5763 -0.860465 49 104 142 255 
-6.79414 2.58586 -0.931257 49 104 142 255 
-6.78935 2.58957 -1.00055 53 95 141 255 
-6.78601 2.57457 -1.06012 56 88 140 255 
-6.79363 2.58167 -1.13028 47 107 142 255 
-6.80484 2.5913 -1.20153 50 102 142 255 
-6.78408 2.58756 -1.26982 54 93 141 255 
-6.60658 2.51177 -1.29721 59 82 139 255 
-6.23557 2.37333 -1.28723 61 77 138 255 
-5.94034 2.26209 -1.28977 60 79 138 255 
-5.66243 2.15861 -1.29139 65 66 135 255 
-5.40203 2.05704 -1.28255 62 74 137 255 
-5.19094 1.97781 -1.28655 61 77 138 255 
-4.96267 1.89178 -1.28389 66 63 133 255 
-4.77443 1.81818 -1.28896 69 53 129 255 
-4.54729 1.7361 -1.27241 69 53 129 255 
-4.38279 1.6734 -1.27286 69 55 129 255 
-4.24565 1.6193 -1.28068 68 59 132 255 
-4.06407 1.54605 -1.27398 68 58 131 255 
-17.2954 6.64537 5.56574 62 76 138 255 
-17.3142 6.63555 5.36244 60 79 138 255 
-17.2855 6.61747 5.15733 59 82 139 255 
-17.2831 6.61694 4.96918 60 80 139 255 
-17.2862 6.63147 4.80543 61 78 138 255 
-17.2785 6.62533 4.60699 63 72 137 255 
-17.2597 6.62143 4.41428 63 72 137 255 
-17.2795 6.63282 4.23907 64 69 136 255 
-17.2785 6.62507 4.08215 58 83 139 255 
-17.2558 6.62011 3.8847 61 78 138 255 
-17.2474 6.62705 3.70208 56 89 140 255 
-17.2377 6.63057 3.52314 60 79 138 255 
-17.2385 6.60972 3.36847 56 88 140 255 
-17.2406 6.61772 3.1865 54 93 141 255 
-17.2454 6.63319 3.00588 57 85 140 255 
-17.2209 6.64134 2.83094 55 90 140 255 
-17.2302 6.60998 2.67907 51 98 141 255 
-17.2362 6.61946 2.49965 53 95 141 255 
-17.2042 6.62769 2.31929 55 91 141 255 
-17.2184 6.64728 2.15187 63 71 136 255 
-17.2239 6.60757 2.00082 60 80 139 255 
-17.2153 6.6218 1.8248 57 85 140 255 
-17.2028 6.6306 1.64865 61 78 138 255 
-11.3687 4.39579 0.976418 58 83 139 255 
-11.3612 4.36074 0.878712 59 82 139 255 
-8.03462 3.09209 0.540128 41 122 142 255 
-8.02741 3.09889 0.458488 45 113 142 255 
-8.04604 3.11428 0.378203 48 106 142 255 
-8.10285 3.11334 0.312227 50 101 142 255 
-7.86274 3.02909 0.223587 46 110 142 255 
-7.87946 3.04335 0.144489 45 112 142 255 
-7.88086 3.05351 0.0663812 42 118 142 255 
-7.93767 3.05146 -0.00148423 38 130 142 255 
-7.93779 3.06119 -0.0816697 41 121 142 255 
-7.94343 3.07124 -0.160551 42 118 142 255 
-7.9151 3.06995 -0.240102 55 90 140 255 
-7.93084 3.0536 -0.308652 53 94 141 255 
-7.63809 2.94867 -0.373224 57 86 140 255 
-7.62685 2.95037 -0.450042 64 70 136 255 
-7.59617 2.94777 -0.525484 68 59 132 255 
-7.61318 2.93282 -0.591969 62 74 137 255 
-7.60835 2.94024 -0.667738 60 79 138 255 
-7.61074 2.94872 -0.745674 66 64 134 255 
-6.96782 2.70393 -0.753917 66 65 134 255 
-6.77427 2.61371 -0.791362 49 104 142 255 
-6.77626 2.62004 -0.861172 46 109 142 255 
-6.77259 2.62535 -0.930494 48 105 142 255 
-6.77887 2.63333 -1.00137 51 99 141 255 
-6.77193 2.61688 -1.06041 56 88 140 255 
-6.76937 2.62009 -1.1289 46 109 142 255 
-6.77686 2.62836 -1.19942 47 108 142 255 
-6.76257 2.627 -1.26879 55 91 141 255 
-6.57361 2.54551 -1.29378 59 81 139 255 
-6.2273 2.41403 -1.28856 57 86 140 255 
-5.92178 2.29673 -1.28878 57 86 140 255 
-5.63176 2.18659 -1.28743 66 65 134 255 
-5.40114 2.09474 -1.28536 63 72 137 255 
-5.16145 2.00293 -1.28226 62 73 137 255 
-4.95822 1.92501 -1.28577 68 59 132 255 
-4.74148 1.83903 -1.28309 70 52 128 255 
-4.56541 1.77519 -1.2805 68 59 132 255 
-4.38953 1.70691 -1.27784 69 53 129 255 
-4.22846 1.64253 -1.27851 68 58 131 255 
-4.06256 1.57408 -1.27651 68 58 131 255 
-17.2935 6.76672 5.5784 58 83 139 255 
-17.2866 6.74691 5.3666 59 82 139 255 
-17.2715 6.73391 5.16539 59 82 139 255 
-17.2548 6.72778 4.97281 59 81 139 255 
-17.2884 6.75432 4.81749 59 81 139 255 
-17.2619 6.74075 4.61351 62 73 137 255 
-17.2641 6.7449 4.42589 62 73 137 255 
-17.2611 6.74759 4.24465 64 69 136 255 
-17.2575 6.73878 4.08689 59 82 139 255 
-17.2413 6.73619 3.89066 59 82 139 255 
-17.2274 6.74097 3.7066 58 84 140 255 
-17.2232 6.74661 3.52858 59 82 139 255 
-17.2178 6.72325 3.37242 56 88 140 255 
-17.2272 6.73415 3.1916 55 91 141 255 
-17.2356 6.75112 3.01134 55 91 141 255 
-17.224 6.76423 2.83821 56 88 140 255 
-17.2142 6.7253 2.68295 53 94 141 255 
-17.2229 6.73592 2.50368 52 96 141 255 
-17.1928 6.74473 2.32328 57 86 140 255 
-17.2032 6.76298 2.15511 62 74 137 255 
-17.2099 6.72362 2.00394 62 74 137 255 
-17.2189 6.74473 1.82952 59 81 139 255 
-17.1943 6.74877 1.65177 60 80 139 255 
-17.1904 6.76832 1.47996 64 70 136 255 
-11.3658 4.44271 0.881161 55 90 140 255 
-8.04337 3.15226 0.542007 40 125 142 255 
-8.02219 3.15357 0.459286 42 118 142 255 
-8.03514 3.16689 0.378597 49 104 142 255 
-8.07615 3.16009 0.31194 61 77 138 255 
-7.84959 3.07947 0.223746 54 93 141 255 
-7.86994 3.0953 0.144661 50 102 142 255 
-7.88058 3.10915 0.0665383 47 107 142 255 
-7.95139 3.11287 -0.00149034 42 120 142 255 
-7.94306 3.11934 -0.0819193 43 116 142 255 
-7.94955 3.12982 -0.16106 48 105 142 255 
-7.93237 3.13278 -0.241204 55 91 141 255 
-7.89614 3.096 -0.308035 59 82 139 255 
-7.61149 2.99219 -0.372814 56 89 140 255 
-7.59838 2.99309 -0.449438 58 83 139 255 
-7.57979 2.99506 -0.525613 61 77 138 255 
-7.59783 2.98057 -0.592186 61 78 138 255 
-7.59016 2.98687 -0.667738 58 83 139 255 
-7.58695 2.99318 -0.745128 68 59 132 255 
-6.9511 2.74664 -0.753917 66 63 133 255 
-6.74977 2.65195 -0.790387 49 103 142 255 
-6.75913 2.6612 -0.861054 49 103 142 255 
-6.74436 2.66212 -0.928842 56 89 140 255 
-6.76259 2.67488 -1.00137 52 96 141 255 
-6.76403 2.66164 -1.06171 47 107 142 255 
-6.74489 2.65832 -1.12752 49 103 142 255 
-6.74592 2.6641 -1.19681 47 107 142 255 
-6.73258 2.66301 -1.26621 59 81 139 255 
-6.55147 2.58327 -1.29252 61 78 138 255 
-6.20506 2.44931 -1.28704 59 82 139 255 
-5.90302 2.33122 -1.28778 57 86 140 255 
-5.61641 2.22039 -1.28702 63 71 136 255 
-5.3673 2.11959 -1.28038 62 74 137 255 
-5.15178 2.03563 -1.28294 62 76 138 255 
-4.9192 1.94467 -1.27872 66 64 134 255 
-4.70486 1.85812 -1.27624 68 57 131 255 
-4.51125 1.78608 -1.26836 69 55 129 255 
-4.35385 1.72386 -1.27051 69 53 129 255 
-4.21562 1.66738 -1.27769 68 59 132 255 
-4.05283 1.59897 -1.27651 67 62 133 255 
-17.2783 6.88333 5.58703 60 80 139 255 
-17.3055 6.87697 5.3855 58 84 140 255 
-17.2836 6.86108 5.18149 58 84 140 255 
-17.2554 6.85027 4.985 58 84 140 255 
-17.2701 6.86957 4.82402 59 82 139 255 
-17.2599 6.86232 4.62414 61 78 138 255 
-17.2423 6.85862 4.431 63 72 137 255 
-17.2348 6.8595 4.24845 63 71 136 255 
-17.2249 6.84815 4.08905 59 82 139 255 
-17.2397 6.85777 3.89971 58 84 140 255 
-17.2358 6.86651 3.71741 56 89 140 255 
-17.2235 6.8689 3.5372 60 79 138 255 
-17.2228 6.8473 3.38157 53 94 141 255 
-17.2176 6.85248 3.19756 56 89 140 255 
-17.214 6.86479 3.01487 55 90 140 255 
-17.2014 6.87749 2.8414 55 91 141 255 
-17.1882 6.83702 2.68539 52 97 141 255 
-17.2015 6.84954 2.50663 55 91 141 255 
-17.1962 6.86812 2.3294 55 91 141 255 
-17.1918 6.88059 2.15893 61 77 138 255 
-17.1784 6.83313 2.00513 61 78 138 255 
-17.1901 6.85542 1.8309 58 83 139 255 
-17.1831 6.86634 1.65471 58 84 140 255 
-17.1633 6.8796 1.48124 61 77 138 255 
-17.2025 6.84619 1.3369 59 82 139 255 
-8.04891 3.21154 0.543698 42 118 142 255 
-8.00918 3.20533 0.459659 44 115 142 255 
-8.01649 3.21651 0.378641 50 100 142 255 
-17.1539 6.83378 0.664175 71 44 122 255 
-7.89089 3.15168 0.22547 52 97 141 255 
-7.90463 3.16509 0.145652 51 98 141 255 
-7.90311 3.17421 0.0668917 50 100 142 255 
-7.96837 3.17604 -0.00149714 44 115 142 255 
-8.00083 3.19883 -0.082716 46 109 142 255 
-9.02251 3.61635 -0.183245 71 46 124 255 
-7.94454 3.19407 -0.242166 60 80 139 255 
-7.85658 3.13625 -0.307236 61 77 138 255 
-7.57815 3.0329 -0.372086 53 95 141 255 
-7.58173 3.0404 -0.449547 52 97 141 255 
-7.55109 3.03741 -0.524905 62 73 137 255 
-7.5794 3.02713 -0.592186 59 81 139 255 
-7.55874 3.0282 -0.666595 60 80 139 255 
-7.56844 3.03967 -0.745128 65 66 135 255 
-6.91288 2.7807 -0.751609 67 61 132 255 
-6.71399 2.68557 -0.788112 54 93 141 255 
-6.74359 2.703 -0.861172 49 104 142 255 
-6.71686 2.69902 -0.927318 57 86 140 255 
-6.72583 2.70818 -0.998364 54 92 141 255 
-6.74206 2.70089 -1.06084 52 97 141 255 
-6.73121 2.70076 -1.12798 50 101 142 255 
-6.70564 2.69587 -1.19258 52 97 141 255 
-6.6887 2.69323 -1.26104 58 84 140 255 
-6.52636 2.61976 -1.29071 60 79 138 255 
-6.18354 2.48478 -1.28572 57 86 140 255 
-5.90133 2.37251 -1.29057 59 82 139 255 
-5.58907 2.24933 -1.28389 65 66 135 255 
-5.356 2.15321 -1.28082 63 72 137 255 
-5.13558 2.06575 -1.28204 61 78 138 255 
-4.89996 1.97192 -1.27684 67 61 132 255 
-4.69067 1.88587 -1.2755 67 61 132 255 
-4.51546 1.81987 -1.27266 67 61 132 255 
-4.36289 1.75848 -1.27627 69 56 130 255 
-4.19995 1.69106 -1.27607 66 64 134 255 
-4.0278 1.61773 -1.27173 68 58 131 255 
-17.2651 7.0011 5.59653 59 82 139 255 
-17.2871 6.99275 5.393 58 83 139 255 
-17.2572 6.9735 5.18632 60 80 139 255 
-17.2461 6.96941 4.9946 59 81 139 255 
-17.2536 6.98594 4.8313 59 82 139 255 
-17.2615 6.98593 4.63598 61 78 138 255 
-17.2242 6.97414 4.43727 60 80 139 255 
-17.2168 6.97501 4.25448 63 71 136 255 
-17.2224 6.96983 4.09853 60 79 138 255 
-17.2136 6.97003 3.90341 60 79 138 255 
-17.2079 6.97803 3.72055 56 89 140 255 
-17.1937 6.97962 3.53982 60 80 139 255 
-17.2215 6.96946 3.38965 55 90 140 255 
-17.2136 6.97353 3.2047 53 95 141 255 
-17.2018 6.98254 3.02017 56 89 140 255 
-17.1827 6.99259 2.84534 55 90 140 255 
-17.1881 6.95944 2.692 53 95 141 255 
-17.1996 6.97134 2.51253 49 103 142 255 
-17.1731 6.98136 2.33202 55 91 141 255 
-17.1686 6.99381 2.16137 61 78 138 255 
-17.174 6.95371 2.00955 59 82 139 255 
-17.1514 6.96226 1.83129 60 80 139 255 
-17.1646 6.9814 1.65702 61 78 138 255 
-17.1577 6.99985 1.48443 63 72 137 255 
-17.175 6.9576 1.33805 59 81 139 255 
-7.99669 3.24772 0.541506 70 48 126 255 
-7.99861 3.25818 0.460191 47 108 142 255 
-7.9966 3.26563 0.378641 68 58 131 255 
-17.0959 6.93252 0.663564 70 50 126 255 
-7.90937 3.21547 0.226558 63 71 136 255 
-7.94895 3.23957 0.146833 56 88 140 255 
-8.22041 3.36038 0.0697505 70 48 126 255 
-8.81421 3.57601 -0.00166016 71 46 124 255 
-9.12491 3.71335 -0.094571 68 58 131 255 
-9.07329 3.70148 -0.184734 70 48 126 255 
-8.97575 3.6728 -0.274281 72 40 120 255 
-7.76312 3.1543 -0.304333 65 66 135 255 
-7.55199 3.07633 -0.371721 57 86 140 255 
-7.55554 3.08385 -0.449108 56 89 140 255 
-7.5203 3.07877 -0.524068 67 62 133 255 
-7.55421 3.07095 -0.59168 57 85 140 255 
-7.5391 3.07414 -0.666514 51 99 141 255 
-7.52752 3.07701 -0.742944 59 82 139 255 
-6.89385 2.82231 -0.751408 68 58 131 255 
-6.73422 2.74171 -0.792445 50 101 142 255 
-6.70114 2.73382 -0.857876 53 94 141 255 
-6.69466 2.73793 -0.926555 54 92 141 255 
-6.71275 2.7509 -0.99891 53 95 141 255 
-6.71803 2.73921 -1.05969 48 106 142 255 
-6.70994 2.74014 -1.12721 50 102 142 255 
-6.68806 2.73659 -1.19242 52 96 141 255 
-6.67387 2.73497 -1.26138 60 79 138 255 
-6.49651 2.65417 -1.288 62 74 137 255 
-6.16454 2.52119 -1.28496 58 84 140 255 
-5.88031 2.40608 -1.28918 59 82 139 255 
-5.56069 2.27765 -1.28056 64 70 136 255 
-5.3454 2.18714 -1.28146 62 73 137 255 
-5.10748 2.09095 -1.2782 55 91 141 255 
-4.90306 2.00821 -1.28083 66 64 134 255 
-4.66914 1.91057 -1.27281 69 53 129 255 
-4.48542 1.83983 -1.26735 68 57 131 255 
-4.34398 1.78192 -1.27391 66 63 133 255 
-4.19751 1.72008 -1.27851 67 62 133 255 
-4.00359 1.6366 -1.26723 67 62 133 255 
-17.2501 7.1186 5.60573 62 74 137 255 
-17.2607 7.10564 5.39828 62 76 138 255 
-17.2604 7.09831 5.20028 61 77 138 255 
-17.2361 7.08869 5.00419 62 73 137 255 
-17.2256 7.09795 4.83557 62 76 138 255 
-17.2309 7.09689 4.63936 63 72 137 255 
-17.2242 7.09748 4.44842 63 72 137 255 
-17.207 7.09426 4.26274 66 65 134 255 
-17.2209 7.09248 4.10844 59 82 139 255 
-17.2158 7.09416 3.9137 61 78 138 255 
-17.1929 7.09508 3.72664 57 86 140 255 
-17.1978 7.10449 3.54956 60 79 138 255 
-17.1866 7.07837 3.39127 56 88 140 255 
-17.1897 7.08691 3.20827 56 89 140 255 
-17.1677 7.09172 3.02177 57 85 140 255 
-17.176 7.11302 2.8514 55 90 140 255 
-17.1726 7.07608 2.69631 50 102 142 255 
-17.1711 7.08279 2.51468 50 101 142 255 
-17.1528 7.09608 2.33514 54 93 141 255 
-17.1327 7.10207 2.16229 60 80 139 255 
-17.1687 7.07448 2.01397 59 81 139 255 
-17.1755 7.09511 1.83848 59 82 139 255 
-17.1555 7.10068 1.66032 58 84 140 255 
-17.1467 7.11837 1.48722 62 76 138 255 
-17.1375 7.06514 1.33849 60 79 138 255 
-16.5777 6.85153 1.1254 68 59 132 255 
-16.1709 6.7031 0.932726 72 35 116 255 
-16.2628 6.75809 0.771996 72 36 117 255 
-16.4415 6.78492 0.639768 71 44 122 255 
-17.1683 7.10264 0.49301 66 63 133 255 
-11.9132 4.94066 0.220617 72 36 117 255 
-8.83855 3.67652 0.0751854 62 74 137 255 
-8.93352 3.68841 -0.00168686 64 69 136 255 
-8.90702 3.68854 -0.0925455 67 61 132 255 
-8.85279 3.67505 -0.1807 66 63 133 255 
-8.85523 3.68708 -0.271284 68 57 131 255 
-7.70021 3.18393 -0.302627 65 66 135 255 
-7.53482 3.12337 -0.371812 55 91 141 255 
-7.53186 3.12823 -0.448833 61 78 138 255 
-7.49943 3.12409 -0.52394 65 68 135 255 
-7.52878 3.11458 -0.591173 54 92 141 255 
-7.52469 3.12225 -0.666922 50 102 142 255 
-7.5085 3.12314 -0.742944 55 91 141 255 
-6.8516 2.85422 -0.748698 68 59 132 255 
-6.72186 2.78488 -0.792987 50 100 142 255 
-6.70166 2.78212 -0.860112 47 107 142 255 
-6.67499 2.77781 -0.926174 51 98 141 255 
-6.69941 2.79356 -0.999456 53 95 141 255 
-6.69653 2.77849 -1.05896 50 102 142 255 
-6.68387 2.77747 -1.12567 50 101 142 255 
-6.66295 2.77416 -1.19095 48 106 142 255 
-6.64787 2.77207 -1.25966 58 84 140 255 
-6.46103 2.68606 -1.28421 61 78 138 255 
-6.14624 2.55783 -1.28439 62 76 138 255 
-5.84101 2.43194 -1.28381 58 84 140 255 
-5.53848 2.30834 -1.27868 62 73 137 255 
-5.30664 2.2094 -1.2754 63 72 137 255 
-5.10265 2.12562 -1.28023 57 85 140 255 
-4.87898 2.03339 -1.27778 63 71 136 255 
-4.66001 1.9403 -1.27355 68 59 132 255 
-4.49101 1.8744 -1.27216 68 57 131 255 
-4.32406 1.80482 -1.27129 67 61 132 255 
-4.19487 1.74914 -1.28095 68 59 132 255 
-3.98727 1.65856 -1.26526 69 55 129 255 
-17.2255 7.23246 5.61206 61 78 138 255 
-17.2434 7.22255 5.40661 60 80 139 255 
-17.2228 7.20669 5.20216 59 81 139 255 
-17.2368 7.21296 5.01716 62 76 138 255 
-17.1987 7.21062 4.84035 59 82 139 255 
-17.2076 7.2111 4.64492 63 71 136 255 
-17.1992 7.21093 4.4533 62 74 137 255 
-17.1739 7.20424 4.26542 66 65 134 255 
-17.2023 7.20858 4.11447 61 77 138 255 
-17.2035 7.21291 3.9209 57 85 140 255 
-17.1761 7.21183 3.73254 57 85 140 255 
-17.1856 7.2232 3.55612 62 76 138 255 
-17.1592 7.19053 3.3945 61 78 138 255 
-17.1786 7.20598 3.21439 56 89 140 255 
-17.1512 7.2084 3.02659 57 86 140 255 
-17.1594 7.22979 2.85595 55 90 140 255 
-17.1754 7.20083 2.70364 55 90 140 255 
-17.1511 7.19798 2.51817 55 91 141 255 
-17.1455 7.21659 2.34013 55 90 140 255 
-17.2206 7.26264 2.17897 71 42 122 255 
-17.1809 7.20314 2.02055 65 66 135 255 
-17.172 7.21733 1.84281 61 78 138 255 
-17.1547 7.22398 1.66451 65 66 135 255 
-17.0604 7.20561 1.48355 68 58 131 255 
-16.7177 7.01237 1.30903 71 45 123 255 
-9.01148 3.78934 0.613327 70 52 128 255 
-8.98854 3.79068 0.519783 72 40 120 255 
-16.2477 6.86903 0.773266 72 38 119 255 
-17.122 7.18899 0.667949 67 61 132 255 
-17.1142 7.20358 0.492718 69 55 129 255 
-11.6165 4.90133 0.215674 69 55 129 255 
-8.63072 3.65235 0.0736068 62 73 137 255 
-8.71988 3.66299 -0.00165073 63 72 137 255 
-8.71005 3.66975 -0.0907313 63 71 136 255 
-8.69192 3.67095 -0.177873 65 68 135 255 
-8.66584 3.67077 -0.266167 66 65 134 255 
-7.66119 3.22298 -0.301864 65 66 135 255 
-7.50907 3.16683 -0.371494 54 93 141 255 
-7.48861 3.16428 -0.447404 59 82 139 255 
-7.49941 3.17823 -0.525291 66 64 134 255 
-7.50585 3.15917 -0.590883 53 94 141 255 
-7.50356 3.16759 -0.666758 51 99 141 255 
-7.49928 3.17342 -0.743945 55 91 141 255 
-6.8303 2.89466 -0.748297 66 64 134 255 
-6.68816 2.81912 -0.791037 50 102 142 255 
-6.6744 2.81894 -0.858817 45 113 142 255 
-6.66147 2.82026 -0.926682 48 105 142 255 
-6.68214 2.83462 -0.999456 50 100 142 255 
-6.67115 2.81606 -1.05766 49 104 142 255 
-6.66306 2.81689 -1.12506 50 102 142 255 
-6.66306 2.82231 -1.19404 46 111 142 255 
-6.63074 2.81281 -1.25966 56 88 140 255 
-6.44986 2.72795 -1.2853 62 76 138 255 
-6.10963 2.58669 -1.28003 58 84 140 255 
-5.81425 2.46277 -1.28122 57 85 140 255 
-5.54582 2.35144 -1.28368 61 77 138 255 
-5.26602 2.23049 -1.2689 65 66 135 255 
-5.06439 2.14624 -1.27391 61 78 138 255 
-4.85209 2.05722 -1.27402 65 68 135 255 
-4.65338 1.97113 -1.27501 67 61 132 255 
-4.48565 1.90457 -1.27393 69 55 129 255 
-4.2978 1.82491 -1.26684 70 52 128 255 
-4.1814 1.77372 -1.28013 66 65 134 255 
-4.01413 1.6987 -1.27707 67 61 132 255 
-17.2231 7.35608 5.62587 61 78 138 255 
-17.2182 7.3365 5.41272 60 80 139 255 
-17.1951 7.3194 5.20726 59 81 139 255 
-17.2056 7.32426 5.02105 59 81 139 255 
-17.1933 7.33272 4.8514 60 79 138 255 
-17.2023 7.3333 4.65555 62 73 137 255 
-17.1842 7.32892 4.46096 60 79 138 255 
-17.1447 7.31598 4.26921 64 69 136 255 
-17.1676 7.31821 4.11684 62 73 137 255 
-17.1841 7.32908 3.92666 61 77 138 255 
-17.146 7.32325 3.73568 62 74 137 255 
-17.1608 7.33701 3.56025 59 81 139 255 
-17.1754 7.32153 3.40652 55 91 141 255 
-17.1567 7.32091 3.21864 55 90 140 255 
-17.1529 7.33329 3.03478 55 91 141 255 
-17.1419 7.34662 2.8605 58 84 140 255 
-17.1636 7.32006 2.70881 53 95 141 255 
-17.1486 7.32098 2.52434 51 99 141 255 
-17.111 7.32595 2.34151 56 88 140 255 
-17.1711 7.36621 2.17839 68 58 131 255 
-17.1473 7.31311 2.02184 69 56 130 255 
-17.143 7.32921 1.84449 67 62 133 255 
-16.6248 7.12125 1.6173 71 45 123 255 
-17.0085 7.307 1.48291 68 57 131 255 
-8.93896 3.81419 0.70176 69 56 130 255 
-8.9486 3.82768 0.610634 48 106 142 255 
-8.96512 3.84576 0.519783 46 110 142 255 
-8.98875 3.86535 0.428916 59 82 139 255 
-16.0198 6.84212 0.626575 71 45 123 255 
-16.2252 6.94687 0.468341 72 32 113 255 
-11.3464 4.8696 0.21121 68 57 131 255 
-8.46486 3.64356 0.0723815 58 83 139 255 
-8.57126 3.66259 -0.00162682 58 84 140 255 
-8.5109 3.64749 -0.0888883 60 79 138 255 
-8.47632 3.64134 -0.173915 61 77 138 255 
-8.45129 3.64121 -0.260259 63 71 136 255 
-7.61187 3.25734 -0.300703 65 68 135 255 
-7.48399 3.21048 -0.37122 53 95 141 255 
-7.47181 3.21136 -0.447569 58 84 140 255 
-7.48527 3.22655 -0.525677 63 72 137 255 
-7.47899 3.20202 -0.590305 57 86 140 255 
-7.48215 3.21279 -0.666595 52 96 141 255 
-7.45772 3.20993 -0.741762 64 69 136 255 
-6.80601 2.93375 -0.747594 65 68 135 255 
-6.6552 2.85345 -0.789195 51 98 141 255 
-6.65698 2.85984 -0.858817 50 102 142 255 
-6.64587 2.86187 -0.926936 53 95 141 255 
-6.64916 2.86889 -0.997137 51 98 141 255 
-6.65738 2.8585 -1.05824 45 112 142 255 
-6.6511 2.86006 -1.12598 48 105 142 255 
-6.65378 2.86665 -1.19551 48 106 142 255 
-6.61697 2.855 -1.26035 54 92 141 255 
-6.42939 2.76592 -1.28457 61 78 138 255 
-6.07741 2.61714 -1.27662 60 80 139 255 
-5.79813 2.49801 -1.28102 58 84 140 255 
-5.5277 2.38388 -1.28285 60 79 138 255 
-5.27555 2.2728 -1.27453 62 73 137 255 
-5.04308 2.17381 -1.27188 62 76 138 255 
-4.84206 2.08811 -1.27473 67 62 133 255 
-4.64832 2.00271 -1.27697 66 64 134 255 
-4.47566 1.93282 -1.27443 69 53 129 255 
-4.28386 1.8501 -1.26606 70 50 126 255 
-4.15188 1.79134 -1.27444 64 69 136 255 
-4.00363 1.7233 -1.27707 66 64 134 255 
-17.2014 7.47192 5.63364 61 78 138 255 
-17.1861 7.44774 5.41689 59 81 139 255 
-17.179 7.4374 5.21612 59 81 139 255 
-17.1674 7.43276 5.02312 60 80 139 255 
-17.1924 7.45734 4.86396 60 80 139 255 
-17.2122 7.46264 4.67053 63 71 136 255 
-17.1656 7.44583 4.46793 62 73 137 255 
-17.1799 7.45597 4.2893 66 65 134 255 
-17.1734 7.44555 4.12912 62 76 138 255 
-17.1738 7.44957 3.93468 60 80 139 255 
-17.1457 7.44785 3.7455 63 72 137 255 
-17.1461 7.45549 3.56662 60 80 139 255 
-17.159 7.4393 3.41227 56 88 140 255 
-17.1386 7.43782 3.22374 54 92 141 255 
-17.1411 7.45296 3.04072 58 83 139 255 
-17.1119 7.45838 2.86308 59 82 139 255 
-17.1474 7.43784 2.71341 55 91 141 255 
-17.1215 7.43396 2.52702 56 88 140 255 
-17.1066 7.44863 2.34712 54 92 141 255 
-17.132 7.47421 2.1792 68 59 132 255 
-17.1423 7.43559 2.02659 66 63 133 255 
-17.1351 7.45052 1.84852 63 71 136 255 
-16.8694 7.34883 1.64544 68 57 131 255 
-16.5377 7.22526 1.4457 72 41 121 255 
-8.88245 3.85467 0.699167 49 104 142 255 
-8.89017 3.86739 0.608255 46 111 142 255 
-8.88369 3.87554 0.516431 41 123 142 255 
-8.91452 3.89841 0.426507 47 108 142 255 
-8.97547 3.89876 0.351984 46 110 142 255 
-8.96182 3.90228 0.25937 72 33 115 255 
-8.33074 3.63605 0.155487 69 56 130 255 
-8.32784 3.64531 0.0713998 58 83 139 255 
-8.35236 3.62982 -0.00158947 57 86 140 255 
-8.3307 3.63093 -0.0872372 57 85 140 255 
-8.29348 3.62323 -0.170616 61 77 138 255 
-8.27772 3.62681 -0.255594 67 62 133 255 
-7.57066 3.29481 -0.299868 63 71 136 255 
-7.4495 3.24995 -0.370492 58 84 140 255 
-7.45105 3.25674 -0.447514 63 72 137 255 
-7.46259 3.27122 -0.525484 63 72 137 255 
-7.46011 3.24825 -0.590377 56 89 140 255 
-7.45316 3.25465 -0.665779 54 92 141 255 
-7.42785 3.25123 -0.740761 62 74 137 255 
-6.79426 2.97826 -0.748297 63 71 136 255 
-6.63665 2.89383 -0.789087 52 96 141 255 
-6.6384 2.90023 -0.8587 47 108 142 255 
-6.62727 2.90219 -0.926809 48 105 142 255 
-6.61873 2.90406 -0.995227 46 109 142 255 
-6.63791 2.89851 -1.05795 46 111 142 255 
-6.62528 2.89726 -1.1246 48 105 142 255 
-6.64148 2.9098 -1.19649 47 108 142 255 
-6.59572 2.89397 -1.25966 59 82 139 255 
-6.40328 2.80137 -1.28277 60 80 139 255 
-6.04685 2.64808 -1.27359 62 74 137 255 
-5.78 2.53236 -1.28043 59 82 139 255 
-5.49864 2.41146 -1.27951 62 76 138 255 
-5.25166 2.30082 -1.27215 64 70 136 255 
-5.04035 2.2094 -1.27459 63 71 136 255 
-4.8069 2.10802 -1.26885 68 59 132 255 
-4.61019 2.01991 -1.26988 68 59 132 255 
-4.43803 1.94897 -1.2671 70 51 127 255 
-4.27243 1.87635 -1.26606 69 53 129 255 
-4.14346 1.81794 -1.27525 64 69 136 255 
-3.9965 1.74937 -1.2782 65 66 135 255 
-17.1727 7.58506 5.63939 64 70 136 255 
-17.1972 7.57823 5.43495 60 80 139 255 
-17.1657 7.55702 5.22605 62 74 137 255 
-17.1701 7.55936 5.03738 60 80 139 255 
-17.1693 7.57284 4.87049 59 81 139 255 
-17.1821 7.57516 4.67488 62 76 138 255 
-17.1561 7.56711 4.47745 63 71 136 255 
-17.1535 7.5699 4.29422 62 74 137 255 
-17.1614 7.56575 4.1373 61 78 138 255 
-17.1448 7.56231 3.93859 60 80 139 255 
-17.14 7.57074 3.75434 61 77 138 255 
-17.1539 7.58439 3.57786 55 90 140 255 
-17.1265 7.5504 3.41496 56 88 140 255 
-17.1133 7.55199 3.22765 56 88 140 255 
-17.1185 7.56838 3.04489 57 86 140 255 
-17.102 7.57925 2.86914 60 79 138 255 
-17.1232 7.5525 2.71686 55 90 140 255 
-17.1254 7.56089 2.5344 55 91 141 255 
-17.1096 7.57514 2.35386 55 90 140 255 
-17.1085 7.58926 2.18209 67 62 133 255 
-17.13 7.55548 2.03058 68 59 132 255 
-8.98139 3.97092 0.971518 66 65 134 255 
-16.3777 7.25454 1.6018 70 51 127 255 
-16.4175 7.29301 1.43907 63 72 137 255 
-8.82487 3.8942 0.696502 44 114 142 255 
-8.83889 3.90976 0.606377 41 122 142 255 
-8.81592 3.91055 0.513877 40 125 142 255 
-8.84844 3.93437 0.424493 43 117 142 255 
-8.90293 3.93236 0.350078 42 118 142 255 
-8.91668 3.94789 0.25876 54 93 141 255 
-8.30279 3.68466 0.155384 59 81 139 255 
-8.28522 3.68739 0.071227 54 92 141 255 
-8.27779 3.65796 -0.00157952 57 86 140 255 
-8.27809 3.66861 -0.0869204 61 77 138 255 
-8.2583 3.66837 -0.170352 60 79 138 255 
-8.25896 3.67916 -0.255707 66 64 134 255 
-7.53111 3.33271 -0.299106 63 71 136 255 
-7.43124 3.29641 -0.370583 58 83 139 255 
-7.42271 3.29875 -0.44702 61 77 138 255 
-7.436 3.3141 -0.525034 62 73 137 255 
-7.42363 3.28669 -0.589074 60 79 138 255 
-7.42941 3.2987 -0.665453 57 86 140 255 
-7.40776 3.29675 -0.740761 59 82 139 255 
-6.77131 3.01786 -0.747795 64 70 136 255 
-6.62695 2.93812 -0.790062 50 101 142 255 
-6.61775 2.9397 -0.858347 45 113 142 255 
-6.59665 2.93716 -0.92503 48 106 142 255 
-6.59264 2.94099 -0.993999 46 110 142 255 
-6.61909 2.93878 -1.05781 42 120 142 255 
-6.61189 2.93986 -1.12537 45 113 142 255 
-6.6199 2.94889 -1.19583 47 108 142 255 
-6.59853 2.94361 -1.26362 55 90 140 255 
-6.35901 2.82862 -1.27735 61 77 138 255 
-6.02869 2.68433 -1.27321 58 83 139 255 
-5.73481 2.55462 -1.27386 60 80 139 255 
-5.48463 2.44556 -1.27972 57 85 140 255 
-5.23566 2.33221 -1.27172 63 71 136 255 
-5.0009 2.22879 -1.26805 64 69 136 255 
-4.79742 2.13906 -1.26979 66 63 133 255 
-4.62162 2.05882 -1.27648 68 59 132 255 
-4.40125 1.96512 -1.26002 70 52 128 255 
-4.26084 1.90253 -1.26606 64 69 136 255 
-4.11377 1.83509 -1.26956 67 61 132 255 
-3.96991 1.76684 -1.27313 67 62 133 255 
-17.1556 7.70363 5.64918 63 72 137 255 
-17.1731 7.69382 5.44217 60 80 139 255 
-17.1533 7.67756 5.23652 61 77 138 255 
-17.1586 7.68036 5.04776 59 82 139 255 
-17.1773 7.7026 4.88607 58 83 139 255 
-17.1778 7.6995 4.68647 64 70 136 255 
-17.1378 7.68498 4.48489 65 68 135 255 
-17.1316 7.68618 4.30047 65 68 135 255 
-17.1485 7.68609 4.14549 61 78 138 255 
-17.149 7.69019 3.95031 60 79 138 255 
-17.1219 7.68862 3.76063 65 68 135 255 
-17.1295 7.69957 3.58254 58 84 140 255 
-17.1014 7.665 3.41927 56 88 140 255 
-17.1179 7.67984 3.23734 56 88 140 255 
-17.0772 7.6757 3.04586 57 86 140 255 
-17.1002 7.70435 2.87672 57 86 140 255 
-17.1145 7.67443 2.72289 55 91 141 255 
-17.1076 7.67881 2.53869 55 91 141 255 
-17.0936 7.69383 2.35811 56 89 140 255 
-17.0869 7.70553 2.18534 68 57 131 255 
-8.95802 4.01693 1.06478 49 104 142 255 
-8.90603 4.0031 0.966005 44 114 142 255 
-8.88665 4.00176 0.871532 69 55 129 255 
-16.3388 7.37843 1.43612 70 52 128 255 
-8.76623 3.93276 0.693766 43 116 142 255 
-8.78834 3.95205 0.604561 40 124 142 255 
-8.78357 3.96087 0.513398 37 131 142 255 
-8.80683 3.98077 0.423661 41 123 142 255 
-8.84581 3.97217 0.348784 39 127 142 255 
-8.85674 3.98652 0.257726 49 104 142 255 
-8.28094 3.73595 0.155401 57 85 140 255 
-8.25241 3.73363 0.0711406 50 101 142 255 
-8.24607 3.70459 -0.00157778 52 96 141 255 
-8.23628 3.7107 -0.0867188 60 80 139 255 
-8.23017 3.7165 -0.170239 60 80 139 255 
-8.23714 3.73018 -0.255736 61 77 138 255 
-7.46769 3.35959 -0.2974 66 65 134 255 
-7.40359 3.33866 -0.370219 54 92 141 255 
-7.40324 3.34464 -0.447075 60 80 139 255 
-7.41098 3.35761 -0.524712 63 72 137 255 
-7.4106 3.33546 -0.589653 62 76 138 255 
-7.39813 3.3393 -0.664474 62 76 138 255 
-7.37922 3.33845 -0.739942 56 88 140 255 
-6.73726 3.05238 -0.746089 64 70 136 255 
-6.59883 2.97424 -0.78887 50 100 142 255 
-6.59959 2.98025 -0.858347 50 102 142 255 
-6.57941 2.97798 -0.925157 52 97 141 255 
-6.57447 2.98138 -0.993999 53 95 141 255 
-6.5847 2.97201 -1.05521 45 112 142 255 
-6.58922 2.97834 -1.1246 46 109 142 255 
-6.57561 2.97765 -1.19111 50 100 142 255 
-6.57676 2.98242 -1.26293 53 94 141 255 
-6.34243 2.86799 -1.27753 62 76 138 255 
-6.01747 2.7237 -1.27435 60 79 138 255 
-5.72349 2.59178 -1.27486 56 89 140 255 
-5.48021 2.48401 -1.28222 57 85 140 255 
-5.21325 2.36067 -1.26977 62 73 137 255 
-5.00044 2.26546 -1.27143 65 68 135 255 
-4.77801 2.16565 -1.26815 66 65 134 255 
-4.58682 2.07714 -1.27037 68 59 132 255 
-4.39704 1.99569 -1.26229 70 52 128 255 
-4.24381 1.92624 -1.26448 65 68 135 255 
-4.09804 1.85831 -1.2682 68 59 132 255 
-3.95812 1.79077 -1.27285 66 63 133 255 
-17.1576 7.83142 5.66557 62 76 138 255 
-17.1693 7.81896 5.45606 60 80 139 255 
-17.1716 7.81258 5.25665 60 79 138 255 
-17.1507 7.80349 5.05943 59 82 139 255 
-17.1438 7.81428 4.89009 61 78 138 255 
-17.1576 7.81722 4.69396 63 72 137 255 
-17.146 7.8154 4.49952 62 76 138 255 
-17.1435 7.81825 4.31542 64 69 136 255 
-17.1481 7.81262 4.1569 61 78 138 255 
-17.1291 7.80785 3.95669 61 78 138 255 
-17.1252 7.81674 3.77183 60 79 138 255 
-17.1266 7.82493 3.59191 58 83 139 255 
-17.0881 7.78529 3.42609 56 88 140 255 
-17.1108 7.80313 3.245 55 90 140 255 
-17.0809 7.80372 3.05501 57 86 140 255 
-17.0814 7.8223 2.88157 59 81 139 255 
-17.0995 7.79407 2.72806 56 88 140 255 
-17.0899 7.79721 2.54312 54 92 141 255 
-17.0659 7.80765 2.36085 54 92 141 255 
-17.0177 7.80029 2.18256 70 50 126 255 
-8.88254 4.04873 1.05874 45 112 142 255 
-8.84238 4.03989 0.961771 47 108 142 255 
-8.8891 4.06865 0.874204 55 90 140 255 
-8.83558 4.0555 0.778787 72 28 110 255 
-8.73739 3.98441 0.693406 42 120 142 255 
-8.75666 4.00258 0.60406 37 133 142 255 
-8.7473 4.00928 0.512707 38 130 142 255 
-8.77952 4.03348 0.423529 38 130 142 255 
-8.80309 4.01808 0.348065 38 130 142 255 
-8.81393 4.03247 0.257195 48 105 142 255 
-8.24786 3.78211 0.155213 55 90 140 255 
-8.20936 3.775 0.0709678 57 86 140 255 
-8.21045 3.7493 -0.00157533 56 89 140 255 
-8.21063 3.75992 -0.08669 56 89 140 255 
-8.20993 3.76818 -0.170296 58 84 140 255 
-8.21773 3.78232 -0.255849 58 84 140 255 
-7.43784 3.40119 -0.297037 60 79 138 255 
-7.38842 3.38652 -0.370492 57 86 140 255 
-7.37169 3.38501 -0.446415 62 73 137 255 
-7.37845 3.39759 -0.523875 62 73 137 255 
-7.38908 3.38045 -0.589581 56 88 140 255 
-7.38384 3.38754 -0.665045 52 97 141 255 
-7.34865 3.37909 -0.738941 66 65 134 255 
-6.68768 3.07951 -0.742677 68 59 132 255 
-6.57232 3.01094 -0.787895 53 95 141 255 
-6.57035 3.01572 -0.856934 56 89 140 255 
-6.552 3.01415 -0.923887 60 80 139 255 
-6.56145 3.02416 -0.994818 61 77 138 255 
-6.56095 3.00988 -1.05434 51 99 141 255 
-6.55826 3.01294 -1.12245 51 98 141 255 
-6.54378 3.01175 -1.18867 53 94 141 255 
-6.54939 3.01859 -1.26121 60 80 139 255 
-6.32651 2.90767 -1.27789 60 79 138 255 
-5.99619 2.75852 -1.2734 56 88 140 255 
-5.70748 2.62685 -1.27486 56 88 140 255 
-5.42756 2.5004 -1.27347 57 86 140 255 
-5.18803 2.38771 -1.26717 62 74 137 255 
-4.99175 2.29855 -1.27279 61 77 138 255 
-4.77258 2.19858 -1.27026 66 65 134 255 
-4.57399 2.10524 -1.27037 68 59 132 255 
-4.41107 2.03479 -1.26988 69 56 130 255 
-4.23717 1.95467 -1.26606 64 70 136 255 
-4.09094 1.88544 -1.26956 64 70 136 255 
-3.95229 1.81743 -1.27454 68 57 131 255 
-17.1753 7.96718 5.68744 61 78 138 255 
-17.1507 7.93788 5.46551 61 78 138 255 
-17.1505 7.93033 5.26497 61 78 138 255 
-17.1376 7.9248 5.0698 57 86 140 255 
-17.1447 7.94211 4.90416 57 85 140 255 
-17.1428 7.93785 4.70314 62 73 137 255 
-17.1287 7.93477 4.50765 62 73 137 255 
-17.1138 7.9319 4.32011 66 63 133 255 
-17.1255 7.92959 4.16315 63 71 136 255 
-17.1111 7.92679 3.96368 59 82 139 255 
-17.0912 7.92827 3.77497 66 65 134 255 
-17.1041 7.94187 3.59735 60 80 139 255 
-17.0864 7.91148 3.43542 56 89 140 255 
-17.0841 7.91792 3.24908 56 89 140 255 
-17.0909 7.9354 3.06545 59 82 139 255 
-17.0716 7.94489 2.88809 56 88 140 255 
-17.0801 7.91216 2.73266 55 91 141 255 
-17.049 7.90526 2.54419 57 86 140 255 
-17.0698 7.93648 2.36809 54 93 141 255 
-16.9578 7.89911 2.18105 69 56 130 255 
-8.82957 4.0902 1.0554 48 106 142 255 
-8.80659 4.08904 0.96059 45 113 142 255 
-8.83326 4.10883 0.871175 50 101 142 255 
-8.86202 4.13366 0.783338 64 69 136 255 
-8.7164 4.03962 0.693694 42 119 142 255 
-8.75004 4.06464 0.605312 38 130 142 255 
-8.71801 4.06077 0.512441 39 127 142 255 
-8.75279 4.08643 0.423442 39 127 142 255 
-8.77827 4.07201 0.348065 37 133 142 255 
-8.7709 4.07805 0.256665 47 108 142 255 
-8.20456 3.82335 0.154837 56 89 140 255 
-8.18333 3.82403 0.0709443 61 77 138 255 
-8.20361 3.80718 -0.00157848 56 88 140 255 
-8.20191 3.81698 -0.0868436 52 96 141 255 
-8.18756 3.81891 -0.170315 53 95 141 255 
-8.18079 3.82632 -0.255425 63 72 137 255 
-7.42137 3.44887 -0.297219 59 82 139 255 
-7.37836 3.43686 -0.371038 53 95 141 255 
-7.35621 3.43271 -0.446745 60 79 138 255 
-7.35475 3.44153 -0.523682 61 77 138 255 
-7.36911 3.42615 -0.589653 55 91 141 255 
-7.35478 3.429 -0.664311 54 92 141 255 
-7.33139 3.4258 -0.739305 65 68 135 255 
-6.63081 3.10277 -0.738461 67 62 133 255 
-6.55372 3.05121 -0.787895 56 89 140 255 
-6.52922 3.04548 -0.853991 56 88 140 255 
-6.53788 3.0564 -0.924522 56 88 140 255 
-6.53111 3.0589 -0.993044 56 88 140 255 
-6.53787 3.04799 -1.05362 47 107 142 255 
-6.53696 3.05187 -1.12199 49 103 142 255 
-6.53143 3.05477 -1.18981 53 94 141 255 
-6.52717 3.05705 -1.26052 60 80 139 255 
-6.28448 2.9352 -1.27302 59 82 139 255 
-5.95513 2.78404 -1.26829 54 92 141 255 
-5.67794 2.65559 -1.27188 54 92 141 255 
-5.40857 2.532 -1.27264 60 79 138 255 
-5.18212 2.42364 -1.26933 61 77 138 255 
-4.97932 2.32996 -1.27324 60 80 139 255 
-4.7546 2.22577 -1.26909 65 66 135 255 
-4.59085 2.14723 -1.27868 66 63 133 255 
-4.38711 2.05647 -1.26659 69 55 129 255 
-4.23034 1.98309 -1.26763 66 65 134 255 
-4.09585 1.91826 -1.27471 67 61 132 255 
-3.91585 1.82986 -1.26639 68 58 131 255 
-17.146 8.0818 5.69406 61 78 138 255 
-17.1651 8.07281 5.48579 61 77 138 255 
-17.1381 8.05262 5.27624 60 79 138 255 
-17.1245 8.04664 5.08043 61 78 138 255 
-17.1316 8.06406 4.91446 61 78 138 255 
-17.1087 8.04991 4.70725 62 76 138 255 
-17.1008 8.04966 4.51322 63 72 137 255 
-17.1054 8.05587 4.33038 65 66 135 255 
-17.1004 8.04575 4.16897 59 81 139 255 
-17.0957 8.04747 3.9715 61 78 138 255 
-17.0715 8.04679 3.78145 64 70 136 255 
-17.0781 8.05757 3.60222 61 78 138 255 
-17.0723 8.03251 3.44242 53 95 141 255 
-17.0592 8.03393 3.25367 56 88 140 255 
-17.0713 8.05401 3.07075 54 93 141 255 
-17.0502 8.06259 2.89279 56 88 140 255 
-17.0518 8.0265 2.73596 54 93 141 255 
-17.036 8.02662 2.54956 57 85 140 255 
-17.045 8.05251 2.37146 55 91 141 255 
-16.268 7.69962 2.09837 71 47 125 255 
-8.79621 4.14049 1.05443 46 110 142 255 
-8.75164 4.12899 0.957341 44 115 142 255 
-8.86282 4.18891 0.876609 50 100 142 255 
-15.7823 7.47984 1.39907 72 29 111 255 
-8.70769 4.10068 0.69499 40 125 142 255 
-8.74028 4.12549 0.606377 38 130 142 255 
-8.70827 4.12145 0.513345 39 128 142 255 
-8.74019 4.14605 0.424055 37 131 142 255 
-8.77391 4.1356 0.348892 36 135 142 255 
-8.73486 4.12667 0.256346 48 105 142 255 
-8.17733 3.87191 0.154769 61 77 138 255 
-8.16513 3.87675 0.0709914 59 82 139 255 
-8.19457 3.86427 -0.00158127 53 95 141 255 
-8.15574 3.85655 -0.0866037 61 77 138 255 
-8.15765 3.86608 -0.170183 57 86 140 255 
-8.14993 3.87301 -0.255198 62 73 137 255 
-7.38109 3.48538 -0.296457 59 82 139 255 
-7.35533 3.48121 -0.370947 54 92 141 255 
-7.35125 3.48548 -0.447734 53 95 141 255 
-7.3371 3.48831 -0.52394 59 82 139 255 
-7.35516 3.47471 -0.590232 52 96 141 255 
-7.33631 3.47534 -0.664556 53 95 141 255 
-7.30033 3.46602 -0.738304 66 63 133 255 
-6.62423 3.14938 -0.739867 64 69 136 255 
-6.53308 3.09052 -0.787678 55 91 141 255 
-6.50952 3.08506 -0.853874 57 85 140 255 
-6.51363 3.0939 -0.92376 60 79 138 255 
-6.51222 3.09891 -0.993044 58 84 140 255 
-6.51189 3.08466 -1.05246 52 97 141 255 
-6.5199 3.09277 -1.12229 52 96 141 255 
-6.50009 3.08886 -1.18753 57 85 140 255 
-6.50207 3.09408 -1.25932 61 78 138 255 
-6.24325 2.96274 -1.26833 62 74 137 255 
-5.91843 2.81125 -1.26412 56 88 140 255 
-5.65268 2.68618 -1.26989 56 89 140 255 
-5.39117 2.5643 -1.27222 62 76 138 255 
-5.16451 2.45413 -1.26868 61 78 138 255 
-4.96757 2.36172 -1.27391 60 80 139 255 
-4.73646 2.25281 -1.26791 66 64 134 255 
-4.5373 2.15622 -1.26743 68 58 131 255 
-4.38052 2.08627 -1.26836 68 57 131 255 
-4.20938 2.00486 -1.26501 65 68 135 255 
-4.07097 1.93715 -1.27064 68 57 131 255 
-3.89588 1.84974 -1.26357 64 69 136 255 
-17.1186 8.19761 5.70154 62 74 137 255 
-17.1395 8.18957 5.49357 61 78 138 255 
-17.1144 8.17008 5.2843 60 80 139 255 
-17.0948 8.16113 5.0864 60 79 138 255 
-17.0957 8.1757 4.91848 59 82 139 255 
-17.0966 8.17273 4.71764 65 66 135 255 
-17.1011 8.17836 4.52646 62 73 137 255 
-17.0864 8.1754 4.3382 65 66 135 255 
-17.0833 8.16611 4.17694 63 72 137 255 
-17.0911 8.17375 3.98199 59 81 139 255 
-17.0757 8.17722 3.79344 61 77 138 255 
-17.0611 8.17792 3.60915 59 81 139 255 
-17.0688 8.15917 3.45175 55 91 141 255 
-17.055 8.16015 3.26234 56 89 140 255 
-17.0358 8.16543 3.07332 57 86 140 255 
-17.0495 8.1906 2.90113 58 84 140 255 
-17.0397 8.14891 2.742 52 96 141 255 
-17.0123 8.1434 2.55345 59 81 139 255 
-17.0016 8.15995 2.37233 66 65 134 255 
-16.1945 7.78681 2.09501 70 51 127 255 
-8.77333 4.19567 1.05475 46 109 142 255 
-8.73242 4.18562 0.95803 46 109 142 255 
-8.85131 4.25011 0.878034 57 85 140 255 
-15.7415 7.57913 1.39955 69 55 129 255 
-8.70306 4.16393 0.696647 44 115 142 255 
-8.731 4.18681 0.607504 40 125 142 255 
-8.70802 4.18692 0.514835 43 117 142 255 
-8.75689 4.21999 0.426113 38 130 142 255 
-8.7709 4.20015 0.349791 39 127 142 255 
-8.76345 4.20614 0.257938 50 100 142 255 
-8.14441 3.91768 0.154598 63 71 136 255 
-8.13939 3.9259 0.0709757 60 80 139 255 
-8.15087 3.90498 -0.00157743 53 94 141 255 
-8.12651 3.90392 -0.0865461 63 72 137 255 
-8.12297 3.91086 -0.169956 61 77 138 255 
-8.11611 3.91817 -0.254887 62 74 137 255 
-7.33974 3.5211 -0.295658 58 83 139 255 
-7.32663 3.52281 -0.370583 53 94 141 255 
-7.29914 3.51579 -0.445866 59 82 139 255 
-7.32005 3.53543 -0.524261 49 103 142 255 
-7.32921 3.51761 -0.58987 59 82 139 255 
-7.30317 3.51467 -0.663495 52 96 141 255 
-7.26816 3.50556 -0.737213 68 59 132 255 
-6.58238 3.17915 -0.737357 66 64 134 255 
-6.51758 3.13227 -0.788112 53 95 141 255 
-6.49762 3.12839 -0.854815 59 82 139 255 
-6.52132 3.14674 -0.927572 59 82 139 255 
-6.50111 3.14269 -0.994272 55 91 141 255 
-6.50176 3.12885 -1.0539 49 103 142 255 
-6.5097 3.13701 -1.12383 54 93 141 255 
-6.47657 3.12654 -1.18672 55 90 140 255 
-6.48207 3.13349 -1.25914 61 77 138 255 
-6.22053 2.99886 -1.26742 61 78 138 255 
-5.89753 2.84581 -1.26336 54 92 141 255 
-5.62197 2.71399 -1.26671 55 91 141 255 
-5.38061 2.59988 -1.27347 58 83 139 255 
-5.13177 2.47728 -1.26435 62 74 137 255 
-4.93719 2.38453 -1.26985 57 85 140 255 
-4.70767 2.27464 -1.26392 66 65 134 255 
-4.52224 2.18317 -1.26694 67 61 132 255 
-4.35719 2.10805 -1.26533 65 66 135 255 
-4.20221 2.03317 -1.26658 65 68 135 255 
-4.05381 1.95958 -1.26901 67 62 133 255 
-3.87322 1.86819 -1.25992 66 64 134 255 
-17.1179 8.32679 5.71822 60 80 139 255 
-17.1131 8.30633 5.50135 62 74 137 255 
-17.0961 8.29049 5.29423 62 74 137 255 
-17.0896 8.28779 5.09988 61 77 138 255 
-17.0766 8.29568 4.92752 59 81 139 255 
-17.1002 8.30376 4.73261 64 70 136 255 
-17.0794 8.29716 4.53413 64 69 136 255 
-17.057 8.29031 4.34355 63 72 137 255 
-17.0689 8.28826 4.18577 62 76 138 255 
-17.0679 8.29173 3.98836 60 79 138 255 
-17.0482 8.29299 3.79855 63 72 137 255 
-17.0512 8.30223 3.61777 59 81 139 255 
-17.0476 8.27793 3.45768 56 89 140 255 
-17.04 8.28187 3.26914 56 89 140 255 
-17.0138 8.28364 3.07845 55 90 140 255 
-17.0149 8.30286 2.90386 57 86 140 255 
-17.0295 8.27277 2.74846 54 92 141 255 
-17.0048 8.26844 2.55989 57 85 140 255 
-16.7006 8.14194 2.33726 69 56 130 255 
-16.0919 7.85944 2.08795 72 40 120 255 
-8.80018 4.27506 1.06111 46 111 142 255 
-8.79157 4.28051 0.967383 48 106 142 255 
-8.84387 4.31351 0.879904 47 107 142 255 
-13.8079 6.75286 1.2313 68 58 131 255 
-8.70336 4.2299 0.698735 47 108 142 255 
-8.74552 4.25998 0.610321 41 123 142 255 
-8.72972 4.2635 0.517655 41 123 142 255 
-8.75326 4.28462 0.427208 43 116 142 255 
-8.78181 4.27181 0.351265 41 123 142 255 
-8.78061 4.28086 0.259211 58 83 139 255 
-8.11752 3.96626 0.154546 56 88 140 255 
-8.12233 3.97929 0.0710385 56 89 140 255 
-8.12226 3.95273 -0.00157656 55 91 141 255 
-8.11319 3.95897 -0.0866612 62 76 138 255 
-8.09702 3.95975 -0.169919 59 82 139 255 
-8.08025 3.96217 -0.25452 66 65 134 255 
-7.30183 3.55819 -0.295005 58 83 139 255 
-7.30039 3.56551 -0.370355 60 80 139 255 
-7.28909 3.56621 -0.44658 62 76 138 255 
-7.30181 3.58204 -0.524519 55 91 141 255 
-7.31107 3.56427 -0.59016 52 96 141 255 
-7.27162 3.5546 -0.662597 52 97 141 255 
-7.24026 3.54702 -0.736576 66 64 134 255 
-6.55024 3.21334 -0.735952 66 64 134 255 
-6.49734 3.17177 -0.788003 53 95 141 255 
-6.49436 3.17606 -0.856934 57 85 140 255 
-6.48408 3.17797 -0.92503 55 90 140 255 
-6.49593 3.18951 -0.996455 53 95 141 255 
-6.48866 3.17173 -1.05492 48 105 142 255 
-6.48766 3.17559 -1.12337 47 107 142 255 
-6.46967 3.17231 -1.189 52 96 141 255 
-6.46449 3.17407 -1.25949 57 85 140 255 
-6.19406 3.03308 -1.2658 62 76 138 255 
-5.89935 2.89145 -1.26753 56 88 140 255 
-5.61842 2.75491 -1.26969 53 95 141 255 
-5.347 2.62423 -1.2693 60 80 139 255 
-5.11822 2.50958 -1.26479 62 73 137 255 
-4.9041 2.40577 -1.26511 59 81 139 255 
-4.68839 2.30091 -1.26251 66 65 134 255 
-4.5253 2.21899 -1.27159 68 58 131 255 
-4.34157 2.13346 -1.26457 65 66 135 255 
-4.19658 2.06232 -1.26867 66 64 134 255 
-4.01579 1.97169 -1.26087 66 65 134 255 
-3.84703 1.88474 -1.25514 67 62 133 255 
-17.0862 8.44143 5.72484 61 78 138 255 
-17.0937 8.42689 5.51162 61 78 138 255 
-17.0933 8.41907 5.30926 62 74 137 255 
-17.0731 8.40956 5.11025 61 78 138 255 
-17.0801 8.42728 4.94335 57 86 140 255 
-17.0855 8.42655 4.74276 62 74 137 255 
-17.0692 8.42203 4.54504 64 70 136 255 
-17.06 8.42157 4.3574 67 61 132 255 
-17.0414 8.4045 4.19159 61 77 138 255 
-17.0474 8.41145 3.99556 61 78 138 255 
-17.0347 8.41612 3.80699 62 76 138 255 
-17.0396 8.42629 3.6262 61 77 138 255 
-17.0424 8.40501 3.46701 56 88 140 255 
-17.0304 8.40677 3.27713 58 84 140 255 
-17.0184 8.41544 3.08857 58 84 140 255 
-16.9946 8.42247 2.90916 56 88 140 255 
-17.0085 8.392 2.75335 55 91 141 255 
-17.0302 8.41036 2.57143 56 89 140 255 
-16.7917 8.31426 2.35711 68 58 131 255 
-16.1715 8.02159 2.10462 72 38 119 255 
-16.3279 8.05618 1.97472 72 40 120 255 
-8.79636 4.34981 0.970829 48 106 142 255 
-15.6709 7.76273 1.56386 72 38 119 255 
-13.8064 6.85741 1.2349 52 97 141 255 
-8.74611 4.31722 0.704281 50 101 142 255 
-8.78094 4.34409 0.614642 48 106 142 255 
-8.77318 4.35159 0.521805 45 112 142 255 
-9.41117 4.67846 0.46071 58 83 139 255 
-9.20342 4.54694 0.369238 63 72 137 255 
-9.32214 4.61588 0.276028 60 79 138 255 
-8.09393 4.01644 0.154563 56 89 140 255 
-8.07985 4.02015 0.0708815 57 85 140 255 
-8.10592 4.00648 -0.00157813 55 90 140 255 
-8.09501 4.01179 -0.0867284 54 92 141 255 
-8.07974 4.01291 -0.170069 57 85 140 255 
-8.04147 4.00455 -0.254068 68 57 131 255 
-7.28254 3.60425 -0.295114 54 93 141 255 
-7.28195 3.61201 -0.370537 51 99 141 255 
-7.2617 3.60821 -0.44625 61 78 138 255 
-7.2654 3.61965 -0.523489 51 99 141 255 
-7.27834 3.60375 -0.589291 49 104 142 255 
-7.26306 3.6058 -0.663821 51 98 141 255 
