ply
format ascii 1.0
comment VTK generated PLY File
obj_info vtkPolyData points and polygons: vtk4.0
element vertex 1205
property float x
property float y
property float z
property uchar red
property uchar green
property uchar blue
property uchar alpha
element face 0
property list uchar int vertex_indices
end_header
-1.61389 7.20714 -1.07876 51 98 141 255 
-1.52353 6.8209 -1.08695 54 93 141 255 
-1.43874 6.46225 -1.09245 51 98 141 255 
-1.36652 6.15342 -1.10237 55 91 141 255 
-1.30826 5.86146 -1.10225 51 99 141 255 
-1.24751 5.59892 -1.1067 52 97 141 255 
-1.18948 5.34265 -1.1106 58 83 139 255 
-1.13781 5.11932 -1.11757 55 90 140 255 
-1.1003 4.94187 -1.12334 54 92 141 255 
-1.05727 4.75294 -1.1277 58 84 140 255 
-1.01296 4.55731 -1.12857 59 82 139 255 
-0.974495 4.37731 -1.13142 60 80 139 255 
-0.94017 4.24007 -1.13533 58 83 139 255 
-0.908526 4.09775 -1.1388 58 83 139 255 
-0.884998 3.98488 -1.15047 60 79 138 255 
-0.850912 3.81593 -1.14548 61 78 138 255 
-2.18968 9.97565 3.06798 70 48 126 255 
-2.21837 10.0651 2.98071 62 74 137 255 
-2.26428 10.2559 2.92653 68 57 131 255 
-2.25056 10.1947 2.8033 62 76 138 255 
-2.24201 10.1886 2.7077 59 82 139 255 
-2.2558 10.2434 2.61127 72 29 111 255 
-2.26273 10.283 2.51418 61 77 138 255 
-0 0 0 68 2 86 255 
-3.13974 14.2564 3.22027 69 5 89 255 
-3.14 14.2704 3.07118 69 5 89 255 
-3.15175 14.359 2.94552 70 7 90 255 
-3.13831 14.3228 2.79704 69 4 87 255 
-3.16407 14.3669 2.68408 69 5 89 255 
-3.16234 14.3838 2.54121 70 7 90 255 
-3.14926 14.3716 2.39346 69 5 89 255 
-3.13593 14.3718 2.2562 70 8 92 255 
-3.22189 14.6416 2.17639 69 5 89 255 
-3.13735 14.2821 1.97965 70 7 90 255 
-3.12467 14.2952 1.84075 70 7 90 255 
-3.11684 14.3083 1.7073 70 8 92 255 
-3.20784 14.5777 1.6189 70 7 90 255 
-3.13052 14.2866 1.44694 70 7 90 255 
-3.13045 14.3336 1.31197 70 11 94 255 
-3.14815 14.4884 1.1877 70 8 92 255 
-3.36843 15.3202 1.13265 72 27 109 255 
-3.24748 14.8328 0.952645 72 23 105 255 
-3.17263 14.5633 0.794174 71 13 96 255 
-3.12833 14.4214 0.646878 71 17 100 255 
-2.99236 13.6324 0.502022 71 45 123 255 
-2.97751 13.6225 0.37001 70 48 126 255 
-2.96827 13.6366 0.238729 70 52 128 255 
-2.96387 13.6863 0.109986 72 37 118 255 
-2.68642 12.2489 -0.00218864 70 51 127 255 
-2.68182 12.2902 -0.120757 68 59 132 255 
-2.66533 12.2655 -0.236623 65 66 135 255 
-2.61097 12.077 -0.349452 66 64 134 255 
-2.54925 11.6525 -0.433216 59 82 139 255 
-2.37677 10.9105 -0.509016 68 57 131 255 
-2.36707 10.9021 -0.613958 70 48 126 255 
-2.35818 10.917 -0.720296 68 59 132 255 
-2.34691 10.7366 -0.797421 63 71 136 255 
-2.27898 10.4792 -0.877915 60 79 138 255 
-2.23224 10.3071 -0.96348 53 95 141 255 
-2.14003 9.90707 -1.02238 68 59 132 255 
-2.0041 9.19134 -1.02528 57 86 140 255 
-1.87415 8.62494 -1.04621 52 96 141 255 
-1.7502 8.08818 -1.0601 53 94 141 255 
-1.63659 7.58929 -1.06902 53 95 141 255 
-1.57006 7.21884 -1.07905 47 107 142 255 
-1.48332 6.83785 -1.08818 53 95 141 255 
-1.39656 6.45938 -1.0905 52 97 141 255 
-1.32874 6.16169 -1.10237 53 94 141 255 
-1.27144 5.86553 -1.10153 53 95 141 255 
-1.21313 5.60647 -1.1067 49 104 142 255 
-1.15605 5.34698 -1.11001 57 86 140 255 
-1.107 5.12908 -1.11819 55 90 140 255 
-1.06645 4.9323 -1.11966 53 94 141 255 
-1.02809 4.75934 -1.1277 52 97 141 255 
-0.979442 4.53778 -1.12223 60 80 139 255 
-0.942495 4.35952 -1.1253 60 80 139 255 
-0.918005 4.26373 -1.14014 55 90 140 255 
-0.888849 4.12872 -1.14587 55 90 140 255 
-0.854037 3.96013 -1.14179 61 77 138 255 
-0.82606 3.81451 -1.14352 63 71 136 255 
-2.21166 10.3795 3.18795 59 81 139 255 
-2.15958 10.0926 2.98487 67 61 132 255 
-2.14518 10.0078 2.85191 68 59 132 255 
-2.16732 10.112 2.77685 57 85 140 255 
-2.175 10.1813 2.70217 66 64 134 255 
-2.19635 10.2732 2.61538 47 108 142 255 
-0 0 0 68 1 84 255 
-0 0 0 68 1 84 255 
-0 0 0 68 1 84 255 
-0 0 0 68 2 86 255 
-6.76593 31.7539 6.50517 71 19 101 255 
-6.71952 31.5929 6.16147 71 16 99 255 
-6.66819 31.1876 5.81886 71 17 100 255 
-6.67317 31.2664 5.51653 71 16 99 255 
-6.85557 32.2298 5.36048 71 16 99 255 
-6.76852 31.9601 5.01073 71 19 101 255 
-3.29987 15.4469 2.29304 58 84 140 255 
-6.87579 32.2433 4.46334 70 10 93 255 
-6.88863 32.4687 4.17539 72 28 110 255 
-6.88348 32.5589 3.8799 70 10 93 255 
-6.96317 32.5951 3.61497 70 10 93 255 
-6.9421 32.638 3.30117 69 5 89 255 
-20.7589 97.9285 8.9517 69 4 87 255 
-3.25787 15.4497 1.26484 66 63 133 255 
-3.29373 15.4313 1.13935 68 58 131 255 
-3.2701 15.3874 0.986959 67 62 133 255 
-3.19125 15.0934 0.822001 70 50 126 255 
-3.10399 14.7454 0.660541 66 63 133 255 
-2.93281 13.7639 0.506192 69 53 129 255 
-2.91648 13.7471 0.372901 70 50 126 255 
-2.90417 13.7475 0.240354 71 46 124 255 
-2.89506 13.7767 0.110567 71 42 122 255 
-2.62204 12.316 -0.00219772 70 51 127 255 
-2.61941 12.3681 -0.121362 66 64 134 255 
-2.61189 12.3853 -0.238621 70 52 128 255 
-2.49618 11.8991 -0.343855 66 63 133 255 
-2.46712 11.6181 -0.431365 58 84 140 255 
-2.3228 10.9865 -0.511885 67 61 132 255 
-2.31866 11.0044 -0.618904 66 63 133 255 
-2.30262 10.986 -0.7239 66 63 133 255 
-2.32156 10.942 -0.811605 69 53 129 255 
-2.20661 10.4549 -0.874733 56 89 140 255 
-2.16404 10.2972 -0.961297 53 94 141 255 
-2.08267 9.93657 -1.02409 67 62 133 255 
-1.94931 9.21125 -1.02615 56 89 140 255 
-1.8216 8.63822 -1.04645 53 95 141 255 
-1.70339 8.11236 -1.06188 56 89 140 255 
-1.58979 7.59822 -1.06889 54 92 141 255 
-1.52471 7.2235 -1.07833 49 103 142 255 
-1.43971 6.83909 -1.08695 53 95 141 255 
-1.35933 6.47942 -1.09245 53 94 141 255 
-1.28748 6.15334 -1.09945 55 90 140 255 
-1.23441 5.86841 -1.10063 52 96 141 255 
-1.1781 5.61092 -1.10613 47 108 142 255 
-1.12081 5.34246 -1.10762 54 93 141 255 
-1.0757 5.13673 -1.1184 55 90 140 255 
-1.03316 4.92442 -1.11641 56 89 140 255 
-0.998267 4.7627 -1.12703 46 109 142 255 
-0.952776 4.54942 -1.12364 57 85 140 255 
-0.922496 4.39748 -1.13362 62 74 137 255 
-0.888463 4.25319 -1.13584 59 82 139 255 
-0.865078 4.14165 -1.14796 59 81 139 255 
-0.831496 3.97377 -1.14423 61 78 138 255 
-0.807573 3.84299 -1.15054 62 73 137 255 
-2.14231 10.3657 3.1796 64 70 136 255 
-2.10386 10.1357 2.99376 71 45 123 255 
-2.06804 9.94529 2.83044 72 37 118 255 
-2.09992 10.0996 2.76985 55 91 141 255 
-2.11033 10.184 2.69941 68 59 132 255 
-2.12953 10.2684 2.61079 64 69 136 255 
-0 0 0 68 1 84 255 
-0 0 0 68 1 84 255 
-0 0 0 68 1 84 255 
-0 0 0 68 2 86 255 
-6.60053 31.9379 6.53444 71 17 100 255 
-6.44219 31.2295 6.08277 72 24 106 255 
-6.48169 31.252 5.82334 71 14 97 255 
-6.50177 31.4061 5.53404 71 16 99 255 
-6.6501 32.2345 5.35438 71 19 101 255 
-6.554 31.912 4.99678 71 17 100 255 
-3.20061 15.4455 2.28988 68 59 132 255 
-6.67561 32.2742 4.46186 71 13 96 255 
-9.47932 46.0702 5.91692 70 8 92 255 
-9.46161 46.151 5.49258 69 5 89 255 
-9.94506 47.993 5.31581 70 8 92 255 
-0 0 0 68 2 86 255 
-0 0 0 68 2 86 255 
-3.15762 15.443 1.26268 63 71 136 255 
-3.19878 15.4503 1.13928 62 73 137 255 
-3.17985 15.4277 0.988274 61 78 138 255 
-3.11763 15.2057 0.827056 65 68 135 255 
-3.01306 14.7622 0.660454 65 68 135 255 
-2.86307 13.8531 0.508816 71 47 125 255 
-2.85081 13.8558 0.375368 71 46 124 255 
-2.83782 13.8533 0.241893 71 45 123 255 
-2.82385 13.8598 0.111093 71 45 123 255 
-2.56725 12.4327 -0.0022157 70 52 128 255 
-2.55555 12.4427 -0.121938 69 53 129 255 
-2.54827 12.4619 -0.23979 68 58 131 255 
-2.40758 11.8378 -0.34165 64 70 136 255 
-2.39256 11.6174 -0.430784 60 80 139 255 
-2.26979 11.071 -0.515164 68 58 131 255 
-2.26768 11.0996 -0.623465 68 58 131 255 
-2.23874 11.0175 -0.725059 67 61 132 255 
-2.18724 10.6298 -0.787435 64 69 136 255 
-2.12683 10.3921 -0.868369 58 84 140 255 
-2.08749 10.2449 -0.955201 56 89 140 255 
-2.01988 9.94038 -1.02319 66 64 134 255 
-1.88956 9.20745 -1.02442 58 83 139 255 
-1.76617 8.63756 -1.04504 53 95 141 255 
-1.65536 8.1314 -1.06302 58 83 139 255 
-1.54472 7.6156 -1.06998 52 96 141 255 
-1.48215 7.24145 -1.07963 49 104 142 255 
-1.39574 6.83811 -1.08541 52 97 141 255 
-1.31699 6.47507 -1.09033 53 94 141 255 
-1.24931 6.15919 -1.0991 54 92 141 255 
-1.19858 5.87684 -1.10081 51 99 141 255 
-1.14248 5.61227 -1.10499 53 95 141 255 
-1.08801 5.34924 -1.10762 57 86 140 255 
-1.04358 5.14036 -1.11778 56 88 140 255 
-1.00506 4.94119 -1.11879 56 89 140 255 
-0.961459 4.7315 -1.11823 52 96 141 255 
-0.92581 4.55994 -1.12481 60 79 138 255 
-0.894724 4.39926 -1.13264 61 77 138 255 
-0.856397 4.22916 -1.128 57 86 140 255 
-0.832754 4.11283 -1.13853 59 81 139 255 
-0.803845 3.96277 -1.13962 61 77 138 255 
-0.783212 3.84411 -1.14942 63 71 136 255 
-2.02939 10.1326 3.10423 52 97 141 255 
-2.34988 11.6807 3.44577 70 52 128 255 
-2.61907 12.9947 3.69367 71 45 123 255 
-1.99994 9.9239 2.71824 64 70 136 255 
-2.37865 11.8442 3.13554 72 35 116 255 
-2.06667 10.2822 2.61103 72 29 111 255 
-0 0 0 68 2 86 255 
-2.79554 13.9344 3.25499 69 5 89 255 
-0 0 0 68 1 84 255 
-0 0 0 68 1 84 255 
-6.38326 31.872 6.51283 72 26 108 255 
-6.25122 31.2723 6.08352 71 17 100 255 
-6.35553 31.6182 5.88419 71 17 100 255 
-6.26553 31.229 5.49595 72 20 103 255 
-6.4222 32.1247 5.32949 70 8 92 255 
-6.31428 31.7315 4.96236 71 19 101 255 
-3.09837 15.428 2.28442 62 74 137 255 
-3.08662 15.3984 2.12615 71 17 100 255 
-3.06568 15.3768 1.97243 72 24 106 255 
-3.06445 15.4281 1.83387 72 28 110 255 
-0 0 0 68 2 86 255 
-0 0 0 68 2 86 255 
-0 0 0 68 2 86 255 
-3.06009 15.4484 1.26157 66 65 134 255 
-3.10666 15.4833 1.14029 58 83 139 255 
-3.08435 15.443 0.988023 61 78 138 255 
-3.03439 15.2754 0.829823 68 58 131 255 
-2.93637 14.851 0.663607 67 61 132 255 
-2.79077 13.9341 0.511153 70 51 127 255 
-2.78451 13.9671 0.377914 71 45 123 255 
-2.78099 14.0126 0.244373 70 48 126 255 
-2.73875 13.8769 0.111093 69 53 129 255 
-2.50505 12.5188 -0.00222826 70 50 126 255 
-2.5096 12.6111 -0.123436 68 57 131 255 
-2.47234 12.4802 -0.239846 69 55 129 255 
-2.31983 11.7759 -0.339445 58 83 139 255 
-2.31048 11.5779 -0.428788 51 98 141 255 
-2.22245 11.1886 -0.519991 67 61 132 255 
-2.21582 11.1956 -0.628081 70 48 126 255 
-2.10423 10.6913 -0.702726 60 79 138 255 
-2.11495 10.6078 -0.784829 56 88 140 255 
-2.05663 10.3727 -0.865676 53 94 141 255 
-2.02286 10.2488 -0.954382 54 93 141 255 
-1.95193 9.91745 -1.01957 61 77 138 255 
-1.82895 9.1984 -1.02214 59 81 139 255 
-1.71102 8.63752 -1.04374 51 99 141 255 
-1.60525 8.14043 -1.0629 58 83 139 255 
-1.49586 7.61424 -1.06848 51 99 141 255 
-1.43365 7.23002 -1.0766 50 102 142 255 
-1.35491 6.85236 -1.08633 52 96 141 255 
-1.27323 6.4627 -1.08692 53 94 141 255 
-1.21092 6.16384 -1.09858 53 94 141 255 
-1.16135 5.87829 -1.09972 50 101 142 255 
-1.10745 5.61629 -1.10442 51 98 141 255 
-1.05422 5.351 -1.10663 57 85 140 255 
-1.01014 5.13707 -1.11569 60 80 139 255 
-0.975103 4.94918 -1.11922 53 95 141 255 
-0.932597 4.73827 -1.11845 56 88 140 255 
-0.903628 4.5951 -1.1321 61 78 138 255 
-0.863216 4.38184 -1.12677 61 77 138 255 
-0.834341 4.25427 -1.13331 57 85 140 255 
-0.803788 4.09892 -1.1333 61 77 138 255 
-0.779886 3.96951 -1.14016 59 81 139 255 
-0.756451 3.83283 -1.14464 63 71 136 255 
-1.96591 10.1383 3.10221 68 57 131 255 
-2.31288 11.8731 3.49828 72 38 119 255 
-2.50884 12.8545 3.64938 71 45 123 255 
-2.34894 12.0365 3.29291 69 53 129 255 
-2.35563 12.1142 3.20312 62 73 137 255 
-2.62196 13.4723 3.41695 71 42 122 255 
-2.64685 13.6122 3.31129 70 52 128 255 
-2.65775 13.6824 3.19225 71 17 100 255 
-0 0 0 68 1 84 255 
-0 0 0 68 1 84 255 
-6.17059 31.823 6.49495 70 10 93 255 
-6.05605 31.2936 6.08034 71 16 99 255 
-6.03304 30.997 5.7616 71 19 101 255 
-6.07172 31.2562 5.49408 72 20 103 255 
-6.10718 31.5549 5.22865 71 13 96 255 
-6.2464 32.4287 5.0653 70 7 90 255 
-2.99269 15.3904 2.27609 72 38 119 255 
-2.98528 15.382 2.12132 72 40 120 255 
-2.97108 15.3943 1.97231 72 40 120 255 
-2.96542 15.4241 1.83121 72 36 117 255 
-3.00567 15.4571 1.70785 56 89 140 255 
-2.99168 15.4583 1.5577 57 86 140 255 
-2.97877 15.4487 1.40692 59 81 139 255 
-2.9583 15.4307 1.25861 65 66 135 255 
-3.00266 15.456 1.1369 58 83 139 255 
-2.97855 15.4048 0.984391 61 78 138 255 
-2.94909 15.3379 0.832217 70 52 128 255 
-2.88162 15.059 0.672103 67 62 133 255 
-2.74403 14.1511 0.518486 71 47 125 255 
-2.72281 14.1086 0.381283 70 52 128 255 
-2.71552 14.1364 0.246238 70 50 126 255 
-2.66837 13.971 0.111714 67 62 133 255 
-2.45386 12.6665 -0.00225182 68 59 132 255 
-2.4456 12.696 -0.124117 65 66 135 255 
-2.3767 12.396 -0.237943 67 61 132 255 
-2.24566 11.7801 -0.339162 59 81 139 255 
-2.23655 11.5772 -0.428243 56 89 140 255 
-2.1728 11.3011 -0.52459 69 55 129 255 
-2.15103 11.2295 -0.629234 68 57 131 255 
-2.03952 10.7089 -0.703048 62 74 137 255 
-2.04019 10.5706 -0.781139 55 90 140 255 
-1.98054 10.3205 -0.860291 55 90 140 255 
-1.96068 10.2649 -0.954746 53 94 141 255 
-1.89197 9.93412 -1.02008 62 73 137 255 
-1.77285 9.2114 -1.02236 59 81 139 255 
-1.65462 8.6303 -1.04162 55 90 140 255 
-1.55601 8.15403 -1.0634 57 86 140 255 
-1.45078 7.63203 -1.06971 53 95 141 255 
-1.38907 7.23771 -1.07645 50 100 142 255 
-1.30541 6.82173 -1.08019 52 97 141 255 
-1.23115 6.45779 -1.0848 55 90 140 255 
-1.17271 6.16922 -1.09824 56 88 140 255 
-1.12452 5.88144 -1.099 50 102 142 255 
-1.07131 5.6143 -1.10272 56 89 140 255 
-1.021 5.35544 -1.10623 57 85 140 255 
-0.978047 5.14029 -1.11507 59 81 139 255 
-0.943986 4.95124 -1.11836 54 92 141 255 
-0.901684 4.73433 -1.1162 59 81 139 255 
-0.87378 4.59196 -1.12998 61 78 138 255 
-0.837765 4.39467 -1.12873 61 78 138 255 
-0.804614 4.2403 -1.12825 58 83 139 255 
-0.779342 4.10757 -1.13434 62 73 137 255 
-0.755156 3.97233 -1.13962 60 79 138 255 
-0.732019 3.83269 -1.14323 62 74 137 255 
-2.30565 12.2935 3.75729 72 38 119 255 
-2.24408 11.9088 3.50467 67 61 132 255 
-2.34967 12.4447 3.52886 72 40 120 255 
-2.37896 12.6012 3.44331 72 38 119 255 
-1.92126 10.2145 2.69765 72 35 116 255 
-2.33369 12.3962 3.14034 67 62 133 255 
-2.55788 13.5995 3.30432 72 36 117 255 
-0 0 0 68 1 84 255 
-0 0 0 68 2 86 255 
-0 0 0 68 2 86 255 
-0 0 0 69 4 87 255 
-5.83591 31.1805 6.05129 72 23 105 255 
-5.90972 31.3892 5.82765 72 20 103 255 
-5.8276 31.0149 5.44528 72 22 104 255 
-5.88004 31.4133 5.19911 71 19 101 255 
-5.77219 30.9894 4.83486 70 8 92 255 
-2.90168 15.4269 2.27882 50 100 142 255 
-2.90254 15.4624 2.12991 55 90 140 255 
-2.88312 15.4474 1.9768 59 82 139 255 
-2.87526 15.4665 1.8341 58 84 140 255 
-2.90507 15.445 1.70451 62 73 137 255 
-2.89037 15.4421 1.55425 60 80 139 255 
-2.87863 15.4383 1.40434 63 71 136 255 
-2.85757 15.4162 1.25598 66 63 133 255 
-2.9028 15.4477 1.13496 58 84 140 255 
-2.88599 15.4336 0.98508 58 84 140 255 
-2.85328 15.3469 0.831738 70 51 127 255 
-2.80716 15.1737 0.676438 68 59 132 255 
-2.65862 14.1755 0.518773 71 44 122 255 
-2.65618 14.2322 0.384174 70 51 127 255 
-2.64242 14.2266 0.24752 72 41 121 255 
-2.52631 13.6823 0.109279 61 77 138 255 
-2.3993 12.8052 -0.00227381 68 59 132 255 
-2.37552 12.753 -0.12453 68 57 131 255 
-2.3077 12.4487 -0.238678 62 74 137 255 
-2.17642 11.8103 -0.339643 61 77 138 255 
-2.16731 11.6005 -0.428606 56 88 140 255 
-2.12844 11.4487 -0.530829 60 79 138 255 
-2.07899 11.2258 -0.6283 62 76 138 255 
-1.96546 10.676 -0.700088 56 89 140 255 
-1.97931 10.6045 -0.782731 58 84 140 255 
-1.91209 10.305 -0.858007 55 90 140 255 
-1.90019 10.2905 -0.95602 57 85 140 255 
-1.82756 9.92695 -1.01817 63 71 136 255 
-1.71412 9.21038 -1.02106 62 76 138 255 
-1.60254 8.64517 -1.04221 54 93 141 255 
-1.50451 8.15562 -1.06239 56 88 140 255 
-1.40159 7.62813 -1.06793 55 90 140 255 
-1.34355 7.24026 -1.07558 51 98 141 255 
-1.26281 6.82572 -1.07957 51 99 141 255 
-1.19061 6.46037 -1.08398 54 93 141 255 
-1.13252 6.1637 -1.096 60 80 139 255 
-1.09002 5.89694 -1.10063 52 96 141 255 
-1.03096 5.5889 -1.09647 61 77 138 255 
-0.989005 5.36643 -1.10722 56 88 140 255 
-0.949142 5.16062 -1.11819 60 79 138 255 
-0.913942 4.95886 -1.11879 53 94 141 255 
-0.872794 4.74073 -1.11642 60 80 139 255 
-0.828005 4.50164 -1.10649 62 74 137 255 
-0.810784 4.39973 -1.12873 62 74 137 255 
-0.782595 4.26705 -1.13407 58 84 140 255 
-0.754994 4.11702 -1.13565 57 85 140 255 
-0.732159 3.98446 -1.14179 61 78 138 255 
-0.707268 3.8305 -1.14127 62 74 137 255 
-1.84322 10.172 3.10538 68 59 132 255 
-2.2472 12.341 3.62774 72 35 116 255 
-2.09862 11.5017 3.25776 70 48 126 255 
-1.83878 10.0787 2.75092 61 78 138 255 
-2.54395 13.9973 3.6925 65 66 135 255 
-2.26887 12.4724 3.15604 66 64 134 255 
-2.26429 12.4589 3.02376 61 78 138 255 
-0 0 0 68 1 84 255 
-0 0 0 68 1 84 255 
-0 0 0 68 1 84 255 
-0 0 0 68 1 84 255 
-5.69272 31.4826 6.10301 72 22 104 255 
-5.7251 31.4694 5.83591 71 14 97 255 
-5.67415 31.2537 5.48099 72 22 104 255 
-5.66838 31.3448 5.18192 71 14 97 255 
-5.58421 31.0369 4.83683 70 10 93 255 
-2.8059 15.4386 2.27796 68 59 132 255 
-8.40727 46.354 6.37793 69 5 89 255 
-8.29567 46.0107 5.88135 70 8 92 255 
-3.80813 21.2079 2.51214 70 11 94 255 
-8.58897 47.2582 5.2095 69 4 87 255 
-0 0 0 68 2 86 255 
-0 0 0 69 4 87 255 
-2.75906 15.4118 1.25422 66 64 134 255 
-2.80297 15.4378 1.13294 58 83 139 255 
-2.78413 15.4117 0.982575 57 86 140 255 
-2.76223 15.3818 0.832696 70 50 126 255 
-2.74686 15.3745 0.684628 69 53 129 255 
-2.69971 14.8986 0.544618 71 45 123 255 
-2.61864 14.5246 0.391628 70 50 126 255 
-2.44685 13.6392 0.237036 66 65 134 255 
-2.43845 13.6759 0.109106 66 64 134 255 
-2.33155 12.8797 -0.00228446 69 53 129 255 
-2.24765 12.4918 -0.121842 59 81 139 255 
-2.22247 12.4134 -0.237735 59 82 139 255 
-2.10741 11.8432 -0.340208 58 83 139 255 
-2.10833 11.6814 -0.431111 55 90 140 255 
-2.05991 11.4714 -0.531284 60 80 139 255 
-1.93606 10.8246 -0.605166 64 70 136 255 
-1.89031 10.6339 -0.696548 58 83 139 255 
-1.9135 10.6125 -0.782441 55 91 141 255 
-1.85779 10.3666 -0.862168 54 92 141 255 
-1.83824 10.3088 -0.956657 53 94 141 255 
-1.76295 9.91741 -1.01606 64 69 136 255 
-1.65564 9.20996 -1.01986 63 72 137 255 
-1.54859 8.64995 -1.04162 54 93 141 255 
-1.44592 8.11685 -1.05616 58 84 140 255 
-1.35441 7.63463 -1.06766 54 92 141 255 
-1.29404 7.22012 -1.07139 53 94 141 255 
-1.22073 6.83237 -1.07942 50 101 142 255 
-1.15199 6.47338 -1.08496 57 86 140 255 
-1.09605 6.17829 -1.09738 53 94 141 255 
-1.05382 5.90352 -1.10063 55 90 140 255 
-1.00182 5.62412 -1.10215 56 88 140 255 
-0.958119 5.38397 -1.10961 52 96 141 255 
-0.915065 5.15286 -1.11528 59 81 139 255 
-0.882129 4.95668 -1.11706 55 90 140 255 
-0.845905 4.75847 -1.11936 55 91 141 255 
-0.808696 4.55353 -1.118 58 83 139 255 
-0.783603 4.40367 -1.12848 62 73 137 255 
-0.75488 4.2632 -1.13179 61 78 138 255 
-0.727531 4.10922 -1.13225 55 91 141 255 
-0.704671 3.97182 -1.1369 58 83 139 255 
-0.680382 3.81588 -1.13564 65 68 135 255 
-1.75966 10.0624 3.06855 72 33 115 255 
-1.94179 11.048 3.24408 69 55 129 255 
-1.79826 10.2099 2.88869 69 56 130 255 
-1.77556 10.0822 2.74884 61 78 138 255 
-2.44849 13.9583 3.67818 70 51 127 255 
-2.2757 12.9611 3.27611 70 50 126 255 
-2.42592 13.8301 3.35287 72 36 117 255 
-2.4248 13.8394 3.21793 69 5 89 255 
-0 0 0 68 2 86 255 
-0 0 0 68 1 84 255 
-0 0 0 68 2 86 255 
-5.45267 31.2488 6.05111 69 5 89 255 
-5.44785 31.0253 5.74724 71 19 101 255 
-5.54979 31.6733 5.54849 71 17 100 255 
-5.54467 31.7728 5.24696 71 13 96 255 
-5.39502 31.0783 4.83805 71 17 100 255 
-2.70787 15.437 2.27523 53 94 141 255 
-6.0112 34.3418 4.71999 70 10 93 255 
-3.7147 21.3525 2.72643 71 47 125 255 
-3.69725 21.3424 2.52534 71 16 99 255 
-3.74181 21.3313 2.34888 70 48 126 255 
-3.72466 21.3447 2.14358 71 47 125 255 
-3.71137 21.3554 1.9383 72 32 113 255 
-2.65936 15.399 1.25182 62 74 137 255 
-2.70044 15.4104 1.1297 68 58 131 255 
-2.6842 15.3981 0.980634 57 86 140 255 
-2.66882 15.4043 0.833015 61 78 138 255 
-2.65535 15.4079 0.685372 71 47 125 255 
-2.6604 15.2131 0.55551 60 79 138 255 
-2.40989 13.853 0.373113 66 64 134 255 
-2.38733 13.7939 0.239465 67 62 133 255 
-2.34432 13.6315 0.108635 66 63 133 255 
-2.26659 12.9745 -0.00229877 69 56 130 255 
-2.1713 12.5073 -0.121861 62 74 137 255 
-2.11376 12.2386 -0.234135 63 71 136 255 
-2.03031 11.8302 -0.339473 57 85 140 255 
-2.03679 11.6951 -0.431147 57 85 140 255 
-1.95402 11.2791 -0.521812 54 92 141 255 
-1.87826 10.8864 -0.607969 62 74 137 255 
-1.81559 10.5902 -0.692944 58 84 140 255 
-1.82424 10.4855 -0.772237 59 82 139 255 
-1.78328 10.315 -0.856946 58 83 139 255 
-1.77242 10.3051 -0.955292 54 92 141 255 
-1.69618 9.89372 -1.01255 65 68 135 255 
-1.59859 9.217 -1.01954 62 74 137 255 
-1.49363 8.64853 -1.04033 53 95 141 255 
-1.39457 8.11677 -1.05502 56 89 140 255 
-1.30604 7.63401 -1.06643 53 95 141 255 
-1.24954 7.22695 -1.07125 51 99 141 255 
-1.17828 6.83681 -1.07896 51 99 141 255 
-1.11124 6.47449 -1.08398 56 88 140 255 
-1.05464 6.16451 -1.09376 57 86 140 255 
-1.01758 5.90987 -1.10063 53 95 141 255 
-0.967122 5.6292 -1.10196 54 92 141 255 
-0.924236 5.38492 -1.10862 53 94 141 255 
-0.884256 5.1632 -1.11632 60 80 139 255 
-0.850873 4.95719 -1.11597 55 90 140 255 
-0.816198 4.76069 -1.11868 56 89 140 255 
-0.783038 4.57182 -1.12129 59 82 139 255 
-0.75378 4.39214 -1.12432 64 69 136 255 
-0.728056 4.26393 -1.13078 61 77 138 255 
-0.701817 4.11075 -1.13146 60 80 139 255 
-0.679637 3.97228 -1.13582 62 74 137 255 
-0.657606 3.82376 -1.13677 64 70 136 255 
-1.71874 10.1967 3.10624 62 74 137 255 
-1.713 10.1097 2.96543 58 84 140 255 
-2.14117 12.6093 3.56375 72 36 117 255 
-1.70882 10.0644 2.74106 67 61 132 255 
-2.24934 13.3022 3.50157 62 73 137 255 
-2.2622 13.3651 3.37468 62 73 137 255 
-2.33729 13.8227 3.34752 72 40 120 255 
-2.33562 13.829 3.21212 72 35 116 255 
-0 0 0 68 2 86 255 
-0 0 0 68 2 86 255 
-0 0 0 68 1 84 255 
-5.2315 31.1074 6.01738 71 14 97 255 
-5.25279 31.031 5.74221 72 23 105 255 
-5.35896 31.7281 5.55223 72 20 103 255 
-5.35289 31.8257 5.25017 70 10 93 255 
-5.20129 31.0933 4.83532 71 19 101 255 
-2.61442 15.4611 2.27638 45 112 142 255 
-2.86556 16.9838 2.33182 72 24 106 255 
-2.84126 16.947 2.16165 72 38 119 255 
-2.83719 16.9971 2.00908 69 55 129 255 
-2.87009 16.9731 1.867 70 7 90 255 
-2.85107 16.952 1.70065 71 19 101 255 
-2.83828 16.9474 1.5366 72 28 110 255 
-2.56155 15.3954 1.25023 61 78 138 255 
-2.60351 15.413 1.12869 56 88 140 255 
-2.58802 15.4044 0.980008 54 92 141 255 
-2.57228 15.4086 0.832377 57 85 140 255 
-2.55749 15.4041 0.684496 68 59 132 255 
-2.38246 14.1343 0.515574 69 55 129 255 
-2.33707 13.9405 0.375076 66 64 134 255 
-2.28061 13.6761 0.237173 62 73 137 255 
-2.15195 12.9895 0.103412 64 69 136 255 
-2.1358 12.6844 -0.00224502 63 71 136 255 
-2.0696 12.3715 -0.120412 59 82 139 255 
-2.04108 12.2661 -0.234418 61 78 138 255 
-1.94187 11.7468 -0.336731 59 82 139 255 
-1.92761 11.4847 -0.422944 57 86 140 255 
-1.8731 11.2209 -0.518579 58 84 140 255 
-1.79719 10.8121 -0.603188 59 81 139 255 
-1.74716 10.5804 -0.691593 58 84 140 255 
-1.77257 10.5723 -0.77781 57 85 140 255 
-1.71488 10.2952 -0.854417 53 94 141 255 
-1.70606 10.2972 -0.953564 52 97 141 255 
-1.63934 9.9275 -1.01496 62 73 137 255 
-1.54298 9.23252 -1.02019 60 80 139 255 
-1.43972 8.65263 -1.03974 53 95 141 255 
-1.34134 8.10462 -1.05235 53 95 141 255 
-1.25724 7.63015 -1.06479 58 84 140 255 
-1.20469 7.23155 -1.07081 51 99 141 255 
-1.13679 6.84683 -1.07942 48 105 142 255 
-1.07182 6.48314 -1.08431 52 96 141 255 
-1.01359 6.15143 -1.09032 55 91 141 255 
-0.978559 5.89951 -1.09756 52 96 141 255 
-0.931282 5.62727 -1.10045 55 90 140 255 
-0.890059 5.38372 -1.10722 57 85 140 255 
-0.85033 5.15502 -1.1134 62 76 138 255 
-0.821715 4.97002 -1.11771 56 88 140 255 
-0.786654 4.76368 -1.11823 56 88 140 255 
-0.754971 4.57654 -1.12129 60 79 138 255 
-0.728397 4.40625 -1.12677 62 73 137 255 
-0.700781 4.26164 -1.12901 61 77 138 255 
-0.676893 4.11689 -1.13199 63 72 137 255 
-0.652904 3.96213 -1.13175 62 73 137 255 
-0.635543 3.83625 -1.1393 63 71 136 255 
-1.65353 10.191 3.10135 67 61 132 255 
-1.80808 11.0833 3.24769 59 81 139 255 
-1.74293 10.66 3.00974 72 37 118 255 
-2.03035 12.4194 3.379 71 45 123 255 
-2.10516 12.9317 3.40058 72 40 120 255 
-2.18156 13.3874 3.37685 62 73 137 255 
-2.23524 13.7311 3.32197 72 28 110 255 
-2.2454 13.8104 3.20453 72 36 117 255 
-0 0 0 68 1 84 255 
-0 0 0 68 1 84 255 
-0 0 0 68 1 84 255 
-0 0 0 69 4 87 255 
-5.19773 31.8938 5.89586 71 19 101 255 
-5.1112 31.4345 5.49527 72 24 106 255 
-5.13779 31.7362 5.2301 71 16 99 255 
-5.05313 31.3901 4.87655 72 20 103 255 
-2.51585 15.4544 2.27307 43 117 142 255 
-2.75177 16.9424 2.32377 50 100 142 255 
-2.72158 16.8672 2.14929 60 80 139 255 
-2.71299 16.8906 1.99449 61 78 138 255 
-2.76141 16.9629 1.86399 53 94 141 255 
-2.74175 16.9368 1.6974 54 93 141 255 
-2.72996 16.938 1.5342 57 85 140 255 
-2.46105 15.3734 1.24719 65 66 135 255 
-2.50553 15.408 1.12718 57 86 140 255 
-2.49393 15.4229 0.980196 52 96 141 255 
-2.4761 15.4142 0.831845 57 86 140 255 
-2.29637 14.3768 0.638206 68 59 132 255 
-2.31554 14.271 0.520031 66 64 134 255 
-2.25627 13.9842 0.375872 63 72 137 255 
-2.12917 13.2693 0.229887 63 71 136 255 
-2.07111 12.9956 0.103357 65 68 135 255 
-2.03409 12.5502 -0.00221901 56 88 140 255 
-1.99365 12.384 -0.120412 59 81 139 255 
-1.96705 12.2863 -0.234569 63 71 136 255 
-1.87164 11.7704 -0.33707 63 72 137 255 
-1.8528 11.4697 -0.421964 56 89 140 255 
-1.80025 11.2075 -0.517441 57 86 140 255 
-1.73885 10.8732 -0.605991 60 80 139 255 
-1.67704 10.5584 -0.689469 62 73 137 255 
-1.6967 10.515 -0.772816 60 80 139 255 
-1.64474 10.2623 -0.850827 54 92 141 255 
-1.63987 10.2887 -0.951835 55 91 141 255 
-1.58104 9.95407 -1.01666 65 66 135 255 
-1.48931 9.26046 -1.02225 60 79 138 255 
-1.38754 8.66719 -1.04045 56 88 140 255 
-1.2894 8.09899 -1.05057 56 89 140 255 
-1.2118 7.64653 -1.06602 54 93 141 255 
-1.15763 7.2222 -1.06836 51 99 141 255 
-1.09461 6.8527 -1.07926 49 104 142 255 
-1.03186 6.48862 -1.08415 53 95 141 255 
-0.974746 6.15072 -1.08911 57 85 140 255 
-0.940327 5.89277 -1.09521 53 95 141 255 
-0.896273 5.62997 -1.09988 53 94 141 255 
-0.857008 5.38908 -1.10722 58 83 139 255 
-0.817458 5.15241 -1.11173 62 74 137 255 
-0.78921 4.96244 -1.11489 56 88 140 255 
-0.756646 4.76361 -1.1171 57 86 140 255 
-0.728399 4.59069 -1.12364 59 81 139 255 
-0.696779 4.38191 -1.11943 62 74 137 255 
-0.670085 4.23719 -1.12142 61 78 138 255 
-0.653127 4.13049 -1.13461 60 80 139 255 
-0.632799 3.99268 -1.13934 61 78 138 255 
-0.612144 3.84102 -1.13958 65 68 135 255 
-1.61916 10.3817 3.1563 65 66 135 255 
-1.73602 11.0686 3.24019 69 53 129 255 
-1.60314 10.1975 2.87634 72 40 120 255 
-1.61698 10.2868 2.79604 65 68 135 255 
-1.65028 10.545 2.77026 66 65 134 255 
-2.13182 13.6076 3.42903 71 42 122 255 
-2.09635 13.3958 3.23767 62 76 138 255 
-1.87237 11.9796 2.77701 63 71 136 255 
-0 0 0 68 1 84 255 
-0 0 0 68 2 86 255 
-0 0 0 68 2 86 255 
-5.4966 35.3292 6.82049 70 8 92 255 
-5.15665 32.9125 6.07822 71 19 101 255 
-4.98731 31.9073 5.57247 72 22 104 255 
-4.96785 31.927 5.25643 71 17 100 255 
-5.15554 33.3282 5.17264 71 13 96 255 
-2.41592 15.4373 2.26833 43 117 142 255 
-2.63752 16.8934 2.31478 62 73 137 255 
-5.51474 35.5643 4.52737 70 7 90 255 
-7.28251 47.1869 5.56658 70 8 92 255 
-2.66051 17.0002 1.86625 71 46 124 255 
-0 0 0 69 4 87 255 
-0 0 0 68 2 86 255 
-2.36425 15.3724 1.24591 66 65 134 255 
-2.40555 15.3886 1.12466 59 82 139 255 
-2.39603 15.4172 0.978881 52 96 141 255 
-2.37462 15.3847 0.82945 62 74 137 255 
-2.24038 14.6009 0.647534 70 51 127 255 
-2.24826 14.4153 0.524776 67 62 133 255 
-2.15495 13.898 0.373193 64 69 136 255 
-2.08915 13.5509 0.234539 67 61 132 255 
-1.96606 12.843 0.102046 64 70 136 255 
-1.93288 12.4073 -0.00219161 60 80 139 255 
-1.90433 12.31 -0.119577 60 79 138 255 
-1.87916 12.2171 -0.233023 56 88 140 255 
-1.86095 12.1848 -0.348604 61 78 138 255 
-1.81152 11.6684 -0.42886 60 80 139 255 
-1.73343 11.2312 -0.518033 56 89 140 255 
-1.66088 10.8106 -0.601924 62 73 137 255 
-1.61162 10.5646 -0.689211 57 85 140 255 
-1.62298 10.4661 -0.768474 54 93 141 255 
-1.58128 10.2692 -0.850582 55 90 140 255 
-1.57987 10.3193 -0.953745 53 95 141 255 
-1.52174 9.97539 -1.01787 66 65 134 255 
-1.43154 9.26353 -1.0216 56 88 140 255 
-1.33267 8.66474 -1.03915 58 84 140 255 
-1.23564 8.08027 -1.04714 59 82 139 255 
-1.16545 7.65774 -1.06657 56 89 140 255 
-1.11119 7.21548 -1.06633 55 90 140 255 
-1.05104 6.84952 -1.07773 53 94 141 255 
-0.990988 6.488 -1.08301 55 91 141 255 
-0.936839 6.15561 -1.08894 59 81 139 255 
-0.905046 5.90427 -1.09629 53 94 141 255 
-0.862453 5.64022 -1.10083 52 97 141 255 
-0.822741 5.38649 -1.10563 57 85 140 255 
-0.786859 5.1641 -1.11319 61 78 138 255 
-0.761547 4.98552 -1.11901 55 90 140 255 
-0.72564 4.75661 -1.11439 58 84 140 255 
-0.698753 4.58546 -1.12129 59 81 139 255 
-0.673685 4.41103 -1.12579 61 78 138 255 
-0.645235 4.24887 -1.12344 62 74 137 255 
-0.62835 4.13824 -1.13565 61 78 138 255 
-0.609302 4.00314 -1.14124 63 72 137 255 
-0.588274 3.84281 -1.13902 66 64 134 255 
-1.55302 10.3753 3.15141 72 20 103 255 
-1.53806 10.2155 2.98765 68 59 132 255 
-1.97283 13.0714 3.68347 69 56 130 255 
-1.55974 10.3357 2.80667 63 71 136 255 
-1.87298 12.4683 3.27245 67 62 133 255 
-1.85534 12.3375 3.10603 71 44 122 255 
-2.00877 13.3728 3.22907 70 48 126 255 
-2.01314 13.4195 3.10786 71 14 97 255 
-0 0 0 68 1 84 255 
-0 0 0 68 2 86 255 
-0 0 0 68 1 84 255 
-5.34093 35.7723 6.89957 70 8 92 255 
-5.3157 35.3445 6.5212 70 10 93 255 
-4.85796 32.3808 5.64984 71 14 97 255 
-4.79168 32.0897 5.27827 71 17 100 255 
-4.96633 33.4629 5.18871 69 5 89 255 
-2.31719 15.4254 2.26445 46 109 142 255 
-2.53264 16.9014 2.31371 50 101 142 255 
-5.14471 34.5778 4.39769 69 5 89 255 
-0 0 0 69 4 87 255 
-2.61109 17.3819 1.90636 70 7 90 255 
-11.5318 77.2326 7.72548 69 5 89 255 
-2.93039 19.7189 1.7827 69 5 89 255 
-2.26857 15.3778 1.2452 70 52 128 255 
-2.30871 15.3873 1.12351 60 80 139 255 
-2.2952 15.3902 0.976251 55 91 141 255 
-2.27579 15.3694 0.827854 57 85 140 255 
-2.1509 14.6154 0.647578 70 51 127 255 
-2.12766 14.2143 0.516976 60 80 139 255 
-2.06198 13.8595 0.371813 61 77 138 255 
-1.96442 13.2826 0.229681 65 66 135 255 
-1.8756 12.7757 0.101417 66 63 133 255 
-1.85671 12.419 -0.00219161 52 97 141 255 
-1.82274 12.2809 -0.119183 61 77 138 255 
-1.79088 12.1384 -0.231308 65 68 135 255 
-1.73459 11.8439 -0.33854 68 59 132 255 
-1.72001 11.5459 -0.42396 60 80 139 255 
-1.65702 11.1912 -0.51571 56 89 140 255 
-1.58258 10.7396 -0.597418 59 82 139 255 
-1.53969 10.5259 -0.686058 57 85 140 255 
-1.54288 10.3693 -0.760658 57 85 140 255 
-1.51999 10.2906 -0.851561 55 91 141 255 
-1.51103 10.2913 -0.950288 53 94 141 255 
-1.4618 9.9934 -1.01877 66 65 134 255 
-1.37118 9.24854 -1.019 57 85 140 255 
-1.27818 8.66391 -1.03809 55 90 140 255 
-1.18618 8.08868 -1.04727 55 90 140 255 
-1.11758 7.65886 -1.06575 58 84 140 255 
-1.0653 7.21139 -1.06474 51 99 141 255 
-1.00971 6.86073 -1.0785 53 95 141 255 
-0.950302 6.4881 -1.08203 55 91 141 255 
-0.900758 6.17294 -1.091 59 82 139 255 
-0.868372 5.90679 -1.09575 52 96 141 255 
-0.829681 5.65804 -1.10329 50 101 142 255 
-0.790385 5.39629 -1.10663 58 84 140 255 
-0.756572 5.17851 -1.11528 61 78 138 255 
-0.727122 4.96402 -1.11316 58 84 140 255 
-0.697568 4.76868 -1.1162 59 82 139 255 
-0.670744 4.59062 -1.12152 56 89 140 255 
-0.647169 4.41891 -1.12677 61 78 138 255 
-0.619989 4.2585 -1.12496 63 72 137 255 
-0.600583 4.12578 -1.1312 60 80 139 255 
-0.58445 4.0049 -1.1407 62 73 137 255 
-0.564405 3.84445 -1.13845 63 71 136 255 
-1.77729 12.3925 3.76075 63 71 136 255 
-1.88583 13.0695 3.81888 70 50 126 255 
-1.88955 13.0623 3.67756 59 81 139 255 
-1.50583 10.4111 2.82457 71 47 125 255 
-1.95793 13.6015 3.56664 69 55 129 255 
-1.79027 12.4226 3.12464 62 76 138 255 
-1.93306 13.4291 3.23976 72 22 104 255 
-0 0 0 68 1 84 255 
-0 0 0 68 1 84 255 
-0 0 0 68 1 84 255 
-0 0 0 69 4 87 255 
-1.73818 12.152 2.3417 72 40 120 255 
-5.09761 35.3686 6.51976 71 14 97 255 
-4.61656 32.1134 5.59815 70 10 93 255 
-4.98858 34.8719 5.73075 70 11 94 255 
-4.95315 34.8451 5.39823 70 11 94 255 
-2.21784 15.407 2.25971 59 82 139 255 
-2.42607 16.897 2.31103 47 108 142 255 
-4.92503 34.5567 4.39107 71 13 96 255 
-6.64768 46.8833 5.52072 70 7 90 255 
-2.21797 15.4079 1.68834 71 17 100 255 
-7.19278 50.2832 5.02525 69 5 89 255 
-2.78393 19.558 1.76658 70 11 94 255 
-2.16957 15.3588 1.24256 68 58 131 255 
-2.209 15.3646 1.12084 61 78 138 255 
-2.19494 15.3635 0.973684 51 99 141 255 
-2.1785 15.3623 0.826737 59 82 139 255 
-2.0464 14.5235 0.642936 67 61 132 255 
-2.00834 14.0036 0.508852 65 68 135 255 
-1.94856 13.673 0.366482 67 61 132 255 
-1.87755 13.2567 0.229032 62 73 137 255 
-1.80344 12.8315 0.101771 61 78 138 255 
-1.77664 12.4034 -0.0021869 64 70 136 255 
-1.73468 12.2028 -0.118319 58 83 139 255 
-1.71035 12.1066 -0.230498 61 77 138 255 
-1.6555 11.8088 -0.33724 65 68 135 255 
-1.63417 11.4514 -0.420113 60 79 138 255 
-1.57612 11.1152 -0.511749 56 88 140 255 
-1.51582 10.7432 -0.597089 57 86 140 255 
-1.47978 10.5687 -0.688246 59 82 139 255 
-1.48134 10.3934 -0.761744 57 86 140 255 
-1.45612 10.2947 -0.851153 57 85 140 255 
-1.44591 10.2866 -0.949014 54 92 141 255 
-1.3999 9.99824 -1.01837 66 64 134 255 
-1.31413 9.25481 -1.01878 50 102 142 255 
-1.22458 8.66864 -1.03774 57 85 140 255 
-1.13487 8.08402 -1.04574 56 89 140 255 
-1.06851 7.65086 -1.0637 53 94 141 255 
-1.02062 7.21485 -1.06431 50 100 142 255 
-0.96663 6.85995 -1.07742 50 102 142 255 
-0.909377 6.48599 -1.08073 54 92 141 255 
-0.86014 6.15884 -1.08756 57 86 140 255 
-0.83129 5.90616 -1.09467 54 92 141 255 
-0.794675 5.66107 -1.10291 51 99 141 255 
-0.755082 5.3855 -1.10345 58 84 140 255 
-0.725324 5.18693 -1.11611 62 76 138 255 
-0.695836 4.96259 -1.11186 57 86 140 255 
-0.66789 4.76998 -1.11552 55 91 141 255 
-0.641218 4.58503 -1.11917 60 79 138 255 
-0.619505 4.41896 -1.12579 61 78 138 255 
-0.595183 4.2718 -1.12749 59 82 139 255 
-0.576721 4.1399 -1.13408 59 81 139 255 
-0.5588 4.00079 -1.13853 66 65 134 255 
-0.541606 3.85354 -1.14014 65 66 135 255 
-1.73258 12.6319 3.83008 69 53 129 255 
-1.70722 12.3681 3.6108 61 78 138 255 
-1.80976 13.0765 3.67837 72 24 106 255 
-1.88341 13.6106 3.68941 68 59 132 255 
-1.71112 12.4271 3.25587 62 74 137 255 
-1.71653 12.4516 3.12923 69 53 129 255 
-1.79835 13.0611 3.14825 70 48 126 255 
-0 0 0 68 1 84 255 
-0 0 0 68 2 86 255 
-0 0 0 68 1 84 255 
-1.73417 12.644 2.55712 62 76 138 255 
-1.66198 12.1507 2.33946 72 28 110 255 
-4.93974 35.829 6.59892 70 7 90 255 
-4.80643 34.9557 6.08836 70 10 93 255 
-4.64542 33.9582 5.5758 70 10 93 255 
-0 0 0 69 4 87 255 
-2.11948 15.3929 2.25569 71 47 125 255 
-2.31628 16.8674 2.30499 47 107 142 255 
-4.7125 34.5833 4.3907 71 17 100 255 
-0 0 0 69 4 87 255 
-2.1242 15.4271 1.68898 69 53 129 255 
-0 0 0 68 2 86 255 
-2.66455 19.5797 1.76702 72 23 105 255 
-2.06689 15.3096 1.23753 72 35 116 255 
-2.11142 15.3542 1.11911 61 78 138 255 
-2.1009 15.3786 0.973809 54 92 141 255 
-2.08232 15.3615 0.825992 57 86 140 255 
-1.95232 14.4991 0.641316 66 65 134 255 
-1.91572 13.9671 0.507091 63 72 137 255 
-1.83965 13.5014 0.361574 59 81 139 255 
-1.74843 12.9153 0.222943 65 68 135 255 
-1.70138 12.6689 0.100396 64 70 136 255 
-1.70403 12.4398 -0.00219144 62 73 137 255 
-1.6587 12.2052 -0.118242 62 73 137 255 
-1.63483 12.108 -0.230328 63 71 136 255 
-1.58686 11.8474 -0.338059 62 73 137 255 
-1.56279 11.4532 -0.419823 58 83 139 255 
-1.51876 11.2048 -0.515437 59 82 139 255 
-1.43947 10.6751 -0.592803 62 76 138 255 
-1.40683 10.5173 -0.68432 57 85 140 255 
-1.40259 10.2926 -0.753711 56 88 140 255 
-1.38799 10.2669 -0.848134 53 95 141 255 
-1.37866 10.2647 -0.946194 52 96 141 255 
-1.33628 9.98988 -1.01666 63 72 137 255 
-1.25945 9.27846 -1.02051 54 93 141 255 
-1.16871 8.65631 -1.03538 54 92 141 255 
-1.08406 8.08198 -1.0446 53 94 141 255 
-1.02325 7.67003 -1.06548 55 91 141 255 
-0.978449 7.23667 -1.06662 49 103 142 255 
-0.924784 6.86771 -1.07773 53 94 141 255 
-0.871135 6.50319 -1.08268 51 99 141 255 
-0.824287 6.17865 -1.09014 62 76 138 255 
-0.793592 5.90043 -1.09268 55 90 140 255 
-0.756139 5.63762 -1.09742 52 97 141 255 
-0.719421 5.37061 -1.09947 59 81 139 255 
-0.693743 5.19322 -1.11653 59 82 139 255 
-0.664596 4.96096 -1.11056 57 86 140 255 
-0.642226 4.80102 -1.12184 55 90 140 255 
-0.611657 4.57828 -1.11659 57 85 140 255 
-0.592765 4.42556 -1.12652 60 79 138 255 
-0.569853 4.28209 -1.12926 61 77 138 255 
-0.547744 4.11658 -1.12675 62 73 137 255 
-0.533478 3.99842 -1.1369 65 66 135 255 
-0.516163 3.84347 -1.1362 63 72 137 255 
-1.65529 12.6442 3.83066 65 66 135 255 
-1.61912 12.2859 3.58385 56 88 140 255 
-1.76975 13.392 3.76399 69 53 129 255 
-1.79013 13.5482 3.66945 67 62 133 255 
-1.57126 11.9537 3.12926 62 74 137 255 
-1.77735 13.5048 3.3911 71 44 122 255 
-1.63958 12.474 3.00425 66 63 133 255 
-1.75552 13.376 3.08978 72 41 121 255 
-1.7624 13.3898 2.97922 69 4 87 255 
-1.66024 12.632 2.6779 70 7 90 255 
-1.64803 12.5892 2.54395 55 90 140 255 
-4.59804 35.2246 6.77646 70 7 90 255 
-4.62134 35.1106 6.46125 70 7 90 255 
-4.61891 35.1907 6.12424 71 16 99 255 
-4.51389 34.5752 5.67247 70 11 94 255 
-4.44511 34.2858 5.30272 70 8 92 255 
-2.02164 15.3801 2.25195 70 11 94 255 
-2.20527 16.8243 2.29721 53 94 141 255 
-2.56557 19.7321 2.50314 60 80 139 255 
-2.54665 19.6965 2.3155 66 63 133 255 
-2.02989 15.4428 1.68931 55 91 141 255 
-2.57608 19.7334 1.96883 62 76 138 255 
-2.54089 19.569 1.76462 71 46 124 255 
-2.5119 19.5079 1.57562 72 35 116 255 
-2.01535 15.353 1.11811 60 80 139 255 
-2.0034 15.3675 0.972306 51 99 141 255 
-1.9861 15.3592 0.825194 60 80 139 255 
-1.86306 14.5088 0.641228 68 58 131 255 
-1.82428 13.935 0.505509 64 70 136 255 
-1.75111 13.4689 0.360407 63 71 136 255 
-1.69322 13.1122 0.226158 62 76 138 255 
-1.6259 12.6969 0.100538 67 62 133 255 
-1.61251 12.334 -0.00217102 57 85 140 255 
-1.58776 12.2459 -0.11854 60 79 138 255 
-1.56038 12.1168 -0.230309 56 88 140 255 
-1.50464 11.7826 -0.335939 64 69 136 255 
-1.48939 11.4388 -0.418952 58 83 139 255 
-1.42769 11.0415 -0.507514 58 83 139 255 
-1.37075 10.659 -0.591429 60 79 138 255 
-1.33811 10.493 -0.682196 60 80 139 255 
-1.33658 10.2792 -0.752119 57 85 140 255 
-1.32267 10.2575 -0.846666 53 94 141 255 
-1.31198 10.2443 -0.943556 55 91 141 255 
-1.27559 10.0028 -1.01717 65 68 135 255 
-1.20288 9.28897 -1.02084 56 89 140 255 
-1.11443 8.65446 -1.03432 55 91 141 255 
-1.03432 8.0875 -1.04447 56 88 140 255 
-0.976295 7.67715 -1.06561 55 90 140 255 
-0.933394 7.23763 -1.0659 51 99 141 255 
-0.882501 6.87228 -1.07757 55 90 140 255 
-0.830591 6.50351 -1.08187 57 86 140 255 
-0.79071 6.21779 -1.09617 64 70 136 255 
-0.757999 5.91007 -1.09359 54 93 141 255 
-0.721035 5.63826 -1.09666 52 97 141 255 
-0.690054 5.40311 -1.10524 56 88 140 255 
-0.661989 5.19835 -1.11673 63 72 137 255 
-0.633154 4.95719 -1.10883 59 82 139 255 
-0.612016 4.79907 -1.12048 56 89 140 255 
-0.586869 4.60798 -1.12293 57 86 140 255 
-0.565353 4.42719 -1.12603 58 84 140 255 
-0.542229 4.27494 -1.12648 60 80 139 255 
-0.522597 4.12082 -1.12701 62 73 137 255 
-0.506748 3.98443 -1.13202 63 71 136 255 
-0.493667 3.85514 -1.13874 63 72 137 255 
-1.5554 12.4754 3.77657 68 58 131 255 
-1.55112 12.3547 3.60107 62 76 138 255 
-1.68695 13.3978 3.76265 71 16 99 255 
-1.68175 13.3586 3.61525 72 41 121 255 
-1.54863 12.3684 3.23527 72 37 118 255 
-1.69662 13.5328 3.39545 67 61 132 255 
-1.63382 13.0494 3.14035 71 42 122 255 
-1.57305 12.5837 2.90448 66 63 133 255 
-1.68009 13.3994 2.979 58 83 139 255 
-1.64676 13.1537 2.7863 70 50 126 255 
-1.56311 12.5378 2.53158 58 83 139 255 
-0 0 0 68 1 84 255 
-4.43262 35.352 6.50056 70 8 92 255 
-4.39177 35.1294 6.10877 71 13 96 255 
-4.33246 34.8501 5.71309 71 14 97 255 
-4.24277 34.3781 5.31288 70 7 90 255 
-4.47929 35.7747 5.23402 71 14 97 255 
-2.09622 16.7913 2.2909 67 62 133 255 
-4.29434 34.6917 4.39744 71 13 96 255 
-4.34815 35.3333 4.15053 70 10 93 255 
-1.932 15.4303 1.68661 45 113 142 255 
-6.44868 51.8765 5.17175 70 8 92 255 
-2.45987 19.9005 1.79312 71 16 99 255 
-2.45338 20.0226 1.61594 72 31 112 255 
-1.91963 15.3532 1.11724 60 79 138 255 
-1.90391 15.3379 0.969676 56 89 140 255 
-1.8895 15.3522 0.824183 63 72 137 255 
-1.77327 14.514 0.640965 62 73 137 255 
-1.73577 13.9221 0.504646 60 80 139 255 
-1.66855 13.4803 0.360434 59 82 139 255 
-1.61432 13.1352 0.226381 60 79 138 255 
-1.54361 12.6709 0.100255 66 63 133 255 
-1.56002 12.5303 -0.00220383 59 81 139 255 
-1.50647 12.2058 -0.11806 63 71 136 255 
-1.48831 12.145 -0.230667 62 76 138 255 
-1.444 11.8878 -0.338681 66 63 133 255 
-1.3963 11.2633 -0.412201 59 82 139 255 
-1.33721 10.8657 -0.499044 57 86 140 255 
-1.30836 10.6919 -0.592803 59 82 139 255 
-1.27754 10.5328 -0.684256 60 79 138 255 
-1.27667 10.313 -0.754001 54 93 141 255 
-1.26068 10.2733 -0.847319 54 93 141 255 
-1.2509 10.267 -0.94492 56 88 140 255 
-1.21383 10.0075 -1.01686 66 63 133 255 
-1.14246 9.26855 -1.01781 57 85 140 255 
-1.06082 8.65719 -1.03385 55 91 141 255 
-0.983361 8.08286 -1.04307 56 89 140 255 
-0.928456 7.6771 -1.06479 55 91 141 255 
-0.887039 7.2275 -1.06359 53 95 141 255 
-0.839238 6.86873 -1.07619 57 86 140 255 
-0.791027 6.51143 -1.08236 54 93 141 255 
-0.743436 6.14723 -1.08291 62 74 137 255 
-0.720649 5.90582 -1.09196 50 100 142 255 
-0.686544 5.64355 -1.09685 54 93 141 255 
-0.657716 5.41406 -1.10663 58 84 140 255 
-0.627375 5.17998 -1.11194 61 78 138 255 
-0.605787 4.98618 -1.11446 60 80 139 255 
-0.580446 4.78533 -1.11642 55 91 141 255 
-0.558935 4.61439 -1.12364 58 83 139 255 
-0.53888 4.43635 -1.1275 60 79 138 255 
-0.515988 4.27819 -1.12648 60 79 138 255 
-0.501462 4.15844 -1.13644 59 82 139 255 
-0.481597 3.98173 -1.13039 63 71 136 255 
-0.4707 3.86381 -1.14042 64 70 136 255 
-1.47725 12.4714 3.77254 70 52 128 255 
-1.47973 12.4012 3.61191 66 63 133 255 
-1.49561 12.4964 3.50685 69 56 130 255 
-1.52264 12.7243 3.44098 72 24 106 255 
-1.51674 12.7477 3.33199 72 32 113 255 
-1.4976 12.5697 3.15145 72 26 108 255 
-1.61095 13.5401 3.25601 69 56 130 255 
-1.49432 12.5805 2.90158 70 52 128 255 
-1.46647 12.307 2.73407 57 85 140 255 
-1.59886 13.4395 2.84472 55 90 140 255 
-1.4805 12.4995 2.52195 56 89 140 255 
-0 0 0 68 2 86 255 
-1.44184 12.1002 2.22333 72 38 119 255 
-4.18858 35.2604 6.12696 70 11 94 255 
-4.04423 34.2467 5.61 71 13 96 255 
-4.00022 34.1345 5.27134 70 10 93 255 
-4.25385 35.7524 5.22683 70 10 93 255 
-1.99024 16.7792 2.28755 71 16 99 255 
-2.47789 21.0776 2.66977 72 20 103 255 
-2.46359 21.0858 2.47508 72 29 111 255 
-1.83412 15.4152 1.6837 42 119 142 255 
-0 0 0 68 2 86 255 
-2.46452 20.9955 1.89038 70 7 90 255 
-2.39462 20.5888 1.66042 72 26 108 255 
-1.82397 15.3528 1.11638 59 82 139 255 
-1.80859 15.3394 0.96905 56 89 140 255 
-1.79388 15.3516 0.823544 59 82 139 255 
-1.67348 14.4323 0.636893 65 66 135 255 
-1.64456 13.8839 0.502885 61 78 138 255 
-1.59526 13.5707 0.362582 59 82 139 255 
-1.53462 13.1528 0.226517 63 71 136 255 
-1.46101 12.6384 0.0999252 64 70 136 255 
-1.48499 12.5555 -0.00220662 58 83 139 255 
-1.42934 12.196 -0.117878 63 72 137 255 
-1.40487 12.0774 -0.229216 62 76 138 255 
-1.37653 11.9441 -0.340038 64 70 136 255 
-1.32693 11.2697 -0.412128 57 85 140 255 
-1.28918 11.0334 -0.506375 59 82 139 255 
-1.24641 10.7315 -0.594561 59 81 139 255 
-1.22647 10.6584 -0.691914 57 86 140 255 
-1.21034 10.2948 -0.752119 57 86 140 255 
-1.19081 10.2224 -0.842505 51 98 141 255 
-1.18525 10.2517 -0.942828 54 92 141 255 
-1.15229 10.0138 -1.01676 54 92 141 255 
-1.08487 9.26947 -1.01716 57 86 140 255 
-1.00757 8.66255 -1.03374 54 93 141 255 
-0.933406 8.08579 -1.04269 57 86 140 255 
-0.876252 7.63836 -1.05866 58 84 140 255 
-0.842217 7.22888 -1.06301 53 95 141 255 
-0.796394 6.86786 -1.07527 56 89 140 255 
-0.750946 6.51518 -1.08219 56 89 140 255 
-0.710643 6.19473 -1.09049 61 78 138 255 
-0.683266 5.90036 -1.09016 56 88 140 255 
-0.653817 5.66424 -1.10007 53 95 141 255 
-0.62078 5.38586 -1.10006 59 82 139 255 
-0.594687 5.17596 -1.11027 60 80 139 255 
-0.574398 4.98302 -1.11294 57 86 140 255 
-0.550516 4.78396 -1.1153 57 86 140 255 
-0.530611 4.61773 -1.12364 59 82 139 255 
-0.509317 4.41935 -1.12236 60 79 138 255 
-0.489179 4.27647 -1.12521 61 77 138 255 
-0.472756 4.13363 -1.12885 60 80 139 255 
-0.460009 4.00947 -1.13745 64 69 136 255 
-0.447314 3.86948 -1.14127 65 68 135 255 
-1.40123 12.485 3.77398 69 55 129 255 
-1.42228 12.5752 3.65997 69 55 129 255 
-1.40197 12.356 3.46498 59 81 139 255 
-1.42995 12.6048 3.40623 66 63 133 255 
-1.42059 12.5981 3.29054 65 68 135 255 
-1.42426 12.6124 3.15991 66 63 133 255 
-1.52642 13.5372 3.25299 69 55 129 255 
-1.40707 12.5004 2.88104 63 71 136 255 
-1.42709 12.6359 2.80516 59 82 139 255 
-1.48413 13.1632 2.78424 72 31 112 255 
-1.50307 13.3931 2.70034 72 28 110 255 
-1.36591 12.2113 2.34395 70 10 93 255 
-1.36569 12.0922 2.22028 70 11 94 255 
-4.047 35.9503 6.24242 70 11 94 255 
-3.77114 33.7088 5.518 71 13 96 255 
-3.91085 35.241 5.43841 70 8 92 255 
-4.03141 35.7513 5.22295 70 10 93 255 
-3.80238 33.8304 4.6089 70 7 90 255 
-2.36158 21.2097 2.68462 72 31 112 255 
-2.34039 21.1568 2.48168 71 19 101 255 
-1.73593 15.3946 1.68025 47 108 142 255 
-2.3642 21.1344 2.10391 70 50 126 255 
-2.3515 21.1528 1.90321 72 29 111 255 
-2.32638 21.1312 1.70298 71 16 99 255 
-1.72438 15.3161 1.11292 62 73 137 255 
-1.71322 15.3393 0.968362 57 86 140 255 
-1.68351 15.2164 0.815723 62 73 137 255 
-1.60418 14.6181 0.644644 67 61 132 255 
-1.56067 13.9056 0.503316 62 76 138 255 
-1.51661 13.622 0.363697 62 73 137 255 
-1.49604 13.5436 0.233085 63 71 136 255 
-1.38115 12.6263 0.0997602 64 69 136 255 
-1.38453 12.3557 -0.00216997 62 76 138 255 
-1.35481 12.2075 -0.117907 58 83 139 255 
-1.32669 12.049 -0.228518 66 63 133 255 
-1.28512 11.7864 -0.335317 67 61 132 255 
-1.25056 11.213 -0.409769 57 86 140 255 
-1.20389 10.8822 -0.499089 58 84 140 255 
-1.18022 10.736 -0.594396 55 90 140 255 
-1.14841 10.5496 -0.684384 61 78 138 255 
-1.13843 10.2238 -0.746402 52 96 141 255 
-1.12402 10.1929 -0.839486 53 94 141 255 
-1.11929 10.2311 -0.94028 53 95 141 255 
-1.09136 10.0256 -1.01727 69 53 129 255 
-1.02765 9.27298 -1.01683 57 85 140 255 
-0.953202 8.65771 -1.03244 55 90 140 255 
-0.883991 8.09334 -1.04295 55 90 140 255 
-0.829582 7.64556 -1.05893 57 86 140 255 
-0.798171 7.23686 -1.06344 58 84 140 255 
-0.7537 6.86771 -1.0745 56 88 140 255 
-0.709565 6.50691 -1.08008 55 90 140 255 
-0.67347 6.20681 -1.09187 57 85 140 255 
-0.645228 5.88782 -1.08709 54 93 141 255 
-0.617664 5.65546 -1.0976 53 94 141 255 
-0.585915 5.37301 -1.09668 60 79 138 255 
-0.562494 5.17562 -1.10944 60 79 138 255 
-0.5436 4.98451 -1.11251 54 92 141 255 
-0.52073 4.78338 -1.11439 54 92 141 255 
-0.500377 4.6035 -1.11941 56 88 140 255 
-0.485029 4.44842 -1.12897 59 81 139 255 
-0.463137 4.28132 -1.12572 60 80 139 255 
-0.448837 4.14989 -1.13251 62 76 138 255 
-0.433945 3.99882 -1.13365 62 74 137 255 
-0.421997 3.85785 -1.13705 66 65 134 255 
-1.40073 13.2115 3.9909 72 23 105 255 
-1.40084 13.1052 3.81166 72 28 110 255 
-1.32746 12.3768 3.46846 57 85 140 255 
-1.35402 12.6268 3.40986 71 47 125 255 
-1.34255 12.5998 3.28878 60 79 138 255 
-1.35004 12.6508 3.1674 65 66 135 255 
-1.33265 12.5076 3.00355 67 61 132 255 
-1.32879 12.4942 2.87769 66 64 134 255 
-1.34155 12.5697 2.78857 68 59 132 255 
-1.35492 12.7176 2.68819 68 58 131 255 
-1.39957 13.2012 2.65987 72 38 119 255 
-1.42006 13.4415 2.57837 70 7 90 255 
-3.66329 34.3232 6.29791 70 10 93 255 
-3.65561 34.3694 5.9639 70 8 92 255 
-3.56455 33.7343 5.51848 71 16 99 255 
-3.59185 34.2842 5.28725 69 5 89 255 
-3.76541 35.3384 5.15917 69 5 89 255 
-3.62518 34.1399 4.64794 71 17 100 255 
-3.71792 35.3628 4.47307 70 10 93 255 
-3.69736 35.4103 4.15088 70 10 93 255 
-1.63891 15.3812 1.67766 60 80 139 255 
-3.74016 35.3992 3.52161 69 5 89 255 
-3.71812 35.4243 3.18517 69 5 89 255 
-3.68308 35.453 2.85531 70 8 92 255 
-1.63237 15.3452 1.11429 63 72 137 255 
-1.6154 15.3148 0.96617 56 88 140 255 
-1.58368 15.1649 0.812424 65 68 135 255 
-1.51806 14.6625 0.646177 66 64 134 255 
-1.48449 14.0014 0.506444 65 66 135 255 
-1.46017 13.8895 0.370593 67 61 132 255 
-1.43997 13.8121 0.237549 67 62 133 255 
-1.29298 12.5311 0.0989434 61 77 138 255 
-1.30943 12.3709 -0.00217119 57 86 140 255 
-1.27363 12.1559 -0.117331 61 78 138 255 
-1.25067 12.0371 -0.228142 61 78 138 255 
-1.23036 11.9651 -0.34018 62 73 137 255 
-1.17891 11.1937 -0.408789 60 79 138 255 
