ply
format ascii 1.0
comment VTK generated PLY File
obj_info vtkPolyData points and polygons: vtk4.0
element vertex 1174
property float x
property float y
property float z
property uchar red
property uchar green
property uchar blue
property uchar alpha
element face 0
property list uchar int vertex_indices
end_header
-17.6881 2.52733 1.43133 61 78 138 255 
-17.6891 2.48302 1.2898 61 78 138 255 
-17.6872 2.49875 1.12071 59 81 139 255 
-17.6706 2.51511 0.951029 66 63 133 255 
-17.6665 2.53053 0.782332 64 69 136 255 
-17.6575 2.48486 0.641385 63 71 136 255 
-17.6674 2.50224 0.473487 65 66 135 255 
-17.4788 2.49093 0.302012 71 42 122 255 
-16.8417 2.41837 0.133634 72 38 119 255 
-16.6555 2.34681 -0.00293564 71 46 124 255 
-16.078 2.28285 -0.15589 69 55 129 255 
-16.6391 2.37718 -0.316861 71 45 123 255 
-16.4706 2.37094 -0.47062 72 27 109 255 
-16.4276 2.32346 -0.602567 70 48 126 255 
-17.5368 2.49623 -0.807468 69 55 129 255 
-17.513 2.50515 -0.973607 71 46 124 255 
-17.5874 2.53483 -1.14596 70 51 127 255 
-17.5582 2.48649 -1.2867 71 47 125 255 
-17.5519 2.50462 -1.45142 72 40 120 255 
-16.6403 2.38922 -1.53584 72 24 106 255 
-14.6741 2.11495 -1.49549 72 27 109 255 
-13.2063 1.87724 -1.45379 72 32 113 255 
-11.9865 1.71259 -1.43525 72 38 119 255 
-10.9844 1.57909 -1.4216 72 29 111 255 
-10.1185 1.46195 -1.40772 71 46 124 255 
-9.38633 1.33925 -1.38488 70 50 126 255 
-8.81303 1.26231 -1.38462 68 57 131 255 
-8.23756 1.18568 -1.3733 66 64 134 255 
-7.71361 1.11449 -1.36302 68 57 131 255 
-7.3352 1.05181 -1.36003 59 82 139 255 
-6.8966 0.991502 -1.34425 64 69 136 255 
-6.5031 0.936029 -1.33312 71 45 123 255 
-6.16527 0.889683 -1.32745 70 50 126 255 
-5.88477 0.846971 -1.31915 66 63 133 255 
-5.60229 0.807419 -1.31092 66 65 134 255 
-5.36048 0.773476 -1.30927 67 61 132 255 
-5.16907 0.744088 -1.31758 66 63 133 255 
-4.9656 0.719094 -1.31161 68 57 131 255 
-4.75852 0.689202 -1.30455 69 56 130 255 
-4.58397 0.662248 -1.30536 70 51 127 255 
-4.40856 0.633043 -1.30491 69 56 130 255 
-17.7522 2.60936 5.38996 57 85 140 255 
-17.7552 2.59424 5.18936 58 84 140 255 
-17.7501 2.58702 4.99816 56 89 140 255 
-17.729 2.5843 4.81073 57 86 140 255 
-17.7426 2.59848 4.65419 62 74 137 255 
-17.7447 2.59588 4.4647 59 81 139 255 
-17.7397 2.59814 4.2812 61 77 138 255 
-17.7207 2.59886 4.102 63 71 136 255 
-17.7218 2.59228 3.95097 59 82 139 255 
-17.7138 2.59451 3.76293 59 82 139 255 
-17.6905 2.6004 3.58264 54 93 141 255 
-17.7041 2.60903 3.41371 59 82 139 255 
-17.7208 2.59213 3.2676 55 91 141 255 
-17.6945 2.59483 3.08584 55 91 141 255 
-17.6889 2.60648 2.90873 53 94 141 255 
-17.668 2.61944 2.73952 54 93 141 255 
-17.6958 2.59162 2.59632 50 100 142 255 
-17.6853 2.59665 2.41996 50 101 142 255 
-17.6681 2.61286 2.24677 52 97 141 255 
-17.667 2.62558 2.08239 61 77 138 255 
-17.6865 2.59027 1.93871 58 83 139 255 
-17.6808 2.60544 1.76809 56 88 140 255 
-17.6711 2.61645 1.59744 60 80 139 255 
-17.6802 2.63699 1.43197 61 77 138 255 
-17.6656 2.59035 1.28922 59 82 139 255 
-17.6548 2.60475 1.11964 62 73 137 255 
-17.644 2.62187 0.950444 68 59 132 255 
-17.6428 2.6377 0.781981 68 57 131 255 
-17.6498 2.59432 0.641673 65 68 135 255 
-17.6339 2.60796 0.47301 65 68 135 255 
-17.4929 2.60254 0.302525 71 45 123 255 
-16.3469 2.44979 0.129825 67 62 133 255 
-16.4122 2.41533 -0.00289533 71 47 125 255 
-16.0795 2.38381 -0.156044 67 62 133 255 
-16.2326 2.42083 -0.309397 70 51 127 255 
-17.4511 2.62149 -0.499089 72 36 117 255 
-16.8915 2.49488 -0.620134 71 45 123 255 
-17.4955 2.59997 -0.806284 70 48 126 255 
-17.5723 2.62377 -0.977784 70 48 126 255 
-17.5725 2.64284 -1.14603 70 48 126 255 
-17.5643 2.59739 -1.28829 72 38 119 255 
-17.5401 2.61286 -1.45174 72 38 119 255 
-16.5939 2.48655 -1.53293 72 22 104 255 
-14.6845 2.2085 -1.4979 72 28 110 255 
-13.1414 1.95035 -1.44794 72 32 113 255 
-11.9669 1.78479 -1.43419 72 40 120 255 
-10.9529 1.64322 -1.4188 72 36 117 255 
-10.1152 1.5249 -1.40854 71 47 125 255 
-9.3887 1.39842 -1.38647 71 45 123 255 
-8.7973 1.3152 -1.38339 68 59 132 255 
-8.21647 1.23415 -1.37102 67 62 133 255 
-7.69591 1.16018 -1.36113 69 56 130 255 
-7.32374 1.09607 -1.35913 61 78 138 255 
-6.87291 1.03118 -1.34084 67 62 133 255 
-6.50014 0.976351 -1.33372 70 48 126 255 
-6.13454 0.92371 -1.32203 70 52 128 255 
-5.84857 0.878423 -1.31222 68 59 132 255 
-5.60783 0.843373 -1.3134 66 64 134 255 
-5.39216 0.811851 -1.3182 66 64 134 255 
-5.1414 0.772334 -1.31171 68 58 131 255 
-4.96683 0.750416 -1.31313 68 57 131 255 
-4.76565 0.720118 -1.30769 70 52 128 255 
-4.5941 0.692514 -1.30943 69 53 129 255 
-4.41313 0.661361 -1.30744 69 56 130 255 
-17.7406 2.71897 5.3914 61 77 138 255 
-17.7522 2.70516 5.19325 57 86 140 255 
-17.7406 2.6969 5.00004 58 84 140 255 
-17.709 2.69245 4.8097 60 80 139 255 
-17.7196 2.70627 4.65243 63 71 136 255 
-17.715 2.70266 4.46132 60 79 138 255 
-17.7455 2.71032 4.28654 61 77 138 255 
-17.7015 2.7071 4.10133 63 71 136 255 
-17.7017 2.70038 3.9501 60 80 139 255 
-17.7082 2.70478 3.76519 60 80 139 255 
-17.6839 2.71039 3.5846 53 95 141 255 
-17.6984 2.71925 3.41577 55 90 140 255 
-17.7152 2.70245 3.26957 55 91 141 255 
-17.6772 2.70321 3.08567 55 91 141 255 
-17.6863 2.71707 2.91098 52 96 141 255 
-17.6653 2.72991 2.74164 54 92 141 255 
-17.6795 2.70015 2.59632 52 97 141 255 
-17.672 2.70556 2.42037 52 96 141 255 
-17.6399 2.7194 2.24527 57 86 140 255 
-17.6535 2.73439 2.08273 61 77 138 255 
-17.6752 2.69949 1.93925 57 85 140 255 
-17.6576 2.71282 1.7674 56 88 140 255 
-17.6626 2.72604 1.59815 57 86 140 255 
-17.6637 2.74542 1.43197 62 76 138 255 
-17.6583 2.70005 1.28987 58 84 140 255 
-17.6405 2.71334 1.11977 60 79 138 255 
-17.6404 2.73207 0.951136 66 65 134 255 
-17.6223 2.74529 0.781806 66 64 134 255 
-17.6454 2.70438 0.642104 66 63 133 255 
-17.6156 2.71581 0.472957 65 68 135 255 
-17.6534 2.73725 0.305586 68 59 132 255 
-16.708 2.60882 0.132817 72 35 116 255 
-16.1935 2.48474 -0.00285937 70 50 126 255 
-16.4421 2.54076 -0.159711 70 50 126 255 
-16.2273 2.52192 -0.309586 70 52 128 255 
-16.936 2.65047 -0.484812 72 24 106 255 
-16.2467 2.50161 -0.597014 72 32 113 255 
-17.4032 2.6955 -0.802778 72 38 119 255 
-17.4503 2.71511 -0.971904 72 38 119 255 
-17.5214 2.74521 -1.14377 71 42 122 255 
-17.5609 2.70709 -1.28923 71 42 122 255 
-17.512 2.7186 -1.45076 72 35 116 255 
-16.5576 2.5851 -1.53101 72 24 106 255 
-14.6589 2.29672 -1.49669 72 32 113 255 
-13.1439 2.03323 -1.44957 72 35 116 255 
-11.9636 1.8594 -1.43513 72 33 115 255 
-10.9465 1.71101 -1.41931 72 35 116 255 
-10.0812 1.58309 -1.40513 71 45 123 255 
-9.41906 1.46208 -1.39225 69 55 129 255 
-8.77051 1.36626 -1.38047 66 64 134 255 
-8.18048 1.28012 -1.3663 69 56 130 255 
-7.71298 1.2112 -1.36544 69 56 130 255 
-7.30133 1.13856 -1.35624 62 73 137 255 
-6.84608 1.07015 -1.33687 67 61 132 255 
-6.49015 1.01561 -1.33292 70 52 128 255 
-6.14132 0.963303 -1.32474 68 59 132 255 
-5.85368 0.915953 -1.31461 66 64 134 255 
-5.61314 0.879425 -1.31588 64 69 136 255 
-5.38707 0.844922 -1.3182 66 65 134 255 
-5.13848 0.804166 -1.3122 69 55 129 255 
-4.9392 0.777269 -1.30706 68 57 131 255 
-4.77353 0.751296 -1.31109 69 53 129 255 
-4.56124 0.716211 -1.30129 70 50 126 255 
-4.38149 0.684134 -1.29928 68 57 131 255 
-17.7283 2.82852 5.39284 56 88 140 255 
-17.7419 2.81509 5.19519 56 88 140 255 
-17.6971 2.80148 4.99253 56 88 140 255 
-17.6921 2.80106 4.8097 59 81 139 255 
-17.7055 2.8154 4.65319 63 71 136 255 
-17.7278 2.81603 4.46881 60 80 139 255 
-17.7343 2.82007 4.28793 58 83 139 255 
-17.6856 2.81581 4.10155 65 66 135 255 
-17.6915 2.81002 3.95161 60 79 138 255 
-17.7009 2.81492 3.76725 57 85 140 255 
-17.6776 2.82054 3.58676 53 94 141 255 
-17.6727 2.8264 3.41409 55 91 141 255 
-17.6935 2.81032 3.26868 55 91 141 255 
-17.6847 2.8155 3.08992 51 98 141 255 
-17.6751 2.82647 2.91194 54 93 141 255 
-17.6648 2.84092 2.74422 56 89 140 255 
-17.6704 2.80982 2.59747 53 95 141 255 
-17.658 2.81441 2.42077 49 104 142 255 
-17.6406 2.83042 2.24752 53 94 141 255 
-17.654 2.8455 2.08482 58 84 140 255 
-17.6652 2.80898 1.94 57 85 140 255 
-17.6446 2.82174 1.76779 58 83 139 255 
-17.6386 2.83326 1.59753 59 82 139 255 
-17.6475 2.85391 1.43205 62 74 137 255 
-17.6473 2.80929 1.2903 58 84 140 255 
-17.6402 2.82421 1.12083 63 71 136 255 
-17.6312 2.84153 0.951561 66 64 134 255 
-17.6071 2.85369 0.781894 66 64 134 255 
-17.6088 2.80945 0.641385 65 66 135 255 
-17.6035 2.82464 0.473089 68 58 131 255 
-17.6304 2.84456 0.305484 67 62 133 255 
-16.368 2.6587 0.130241 69 56 130 255 
-16.1029 2.57207 -0.00284611 70 50 126 255 
-16.3146 2.62366 -0.158626 71 46 124 255 
-16.2431 2.62655 -0.310189 68 59 132 255 
-14.3158 2.33048 -0.410206 66 64 134 255 
-14.299 2.29161 -0.525949 52 96 141 255 
-14.2491 2.29659 -0.657924 58 84 140 255 
-14.2585 2.30819 -0.794909 66 64 134 255 
-14.2362 2.32008 -0.930233 71 47 125 255 
-14.3158 2.29686 -1.05201 57 85 140 255 
-14.3041 2.31058 -1.18616 61 77 138 255 
-14.2757 2.31864 -1.32131 61 77 138 255 
-14.3057 2.3314 -1.46207 66 64 134 255 
-13.14 2.11526 -1.45054 72 35 116 255 
-11.952 1.93277 -1.43513 72 35 116 255 
-10.9417 1.7791 -1.42007 72 32 113 255 
-10.0331 1.63869 -1.39981 71 42 122 255 
-9.40796 1.51953 -1.39196 69 53 129 255 
-8.74636 1.41752 -1.37801 69 56 130 255 
-8.17831 1.33124 -1.36727 68 58 131 255 
-7.71124 1.25946 -1.36647 69 55 129 255 
-7.28256 1.18145 -1.35407 64 69 136 255 
-6.85683 1.11497 -1.34028 69 56 130 255 
-6.4925 1.05683 -1.33471 70 52 128 255 
-6.14302 1.00223 -1.32641 66 64 134 255 
-5.86144 0.954049 -1.31764 67 61 132 255 
-5.59225 0.911342 -1.31227 67 62 133 255 
-5.35876 0.874204 -1.31256 67 61 132 255 
-5.11526 0.83272 -1.30755 70 52 128 255 
-4.91524 0.804435 -1.302 70 50 126 255 
-4.75074 0.77761 -1.30612 70 50 126 255 
-4.56531 0.745581 -1.30374 69 55 129 255 
-4.38668 0.712544 -1.30209 66 63 133 255 
-17.737 2.94164 5.4009 57 86 140 255 
-17.7196 2.92312 5.1938 56 88 140 255 
-17.7147 2.91581 5.00246 56 88 140 255 
-17.6908 2.91223 4.81411 59 81 139 255 
-17.7022 2.92636 4.65695 61 78 138 255 
-17.7016 2.92333 4.46663 59 81 139 255 
-17.6889 2.92423 4.2812 62 74 137 255 
-17.6766 2.92571 4.10356 64 70 136 255 
-17.6846 2.92027 3.95398 61 78 138 255 
-17.6853 2.9238 3.76766 57 86 140 255 
-17.6909 2.93409 3.59305 55 91 141 255 
-17.6676 2.93688 3.41652 58 83 139 255 
-17.6652 2.91707 3.2667 54 93 141 255 
-17.6661 2.92379 3.08975 51 98 141 255 
-17.6604 2.93536 2.91242 54 93 141 255 
-17.6558 2.95072 2.74558 56 89 140 255 
-17.6509 2.91787 2.59718 51 99 141 255 
-17.6433 2.92319 2.42117 52 97 141 255 
-17.6366 2.94089 2.24927 51 98 141 255 
-17.6343 2.95345 2.08459 62 74 137 255 
-17.6564 2.91878 1.94097 56 89 140 255 
-17.6505 2.93387 1.77016 56 88 140 255 
-17.6415 2.94488 1.5994 58 83 139 255 
-17.6267 2.96165 1.43181 60 80 139 255 
-17.6218 2.91622 1.28973 57 86 140 255 
-17.6245 2.93272 1.12096 62 74 137 255 
-17.6193 2.95065 0.95188 66 64 134 255 
-17.6287 2.9683 0.783645 66 63 133 255 
-17.606 2.9199 0.641924 65 68 135 255 
-17.6105 2.93671 0.473752 66 63 133 255 
-17.585 2.94806 0.305005 70 52 128 255 
-17.1234 2.88936 0.136391 72 29 111 255 
-16.1361 2.67902 -0.00285484 71 45 123 255 
-16.2065 2.70838 -0.157733 72 41 121 255 
-15.994 2.68707 -0.305741 72 35 116 255 
-14.3012 2.41827 -0.410206 55 91 141 255 
-16.3962 2.731 -0.603693 69 56 130 255 
-16.5126 2.76547 -0.763206 70 50 126 255 
-17.3458 2.91729 -0.968002 71 47 125 255 
-16.5546 2.80229 -1.08283 72 26 108 255 
-16.6458 2.77557 -1.22446 72 29 111 255 
-16.5867 2.78383 -1.37684 72 22 104 255 
-16.3302 2.75528 -1.513 72 24 106 255 
-14.5501 2.46298 -1.48856 72 29 111 255 
-13.0699 2.18634 -1.44426 72 35 116 255 
-11.9183 2.00245 -1.43254 72 37 118 255 
-10.8934 1.83993 -1.41525 72 36 117 255 
-10.0346 1.70221 -1.40145 72 40 120 255 
-9.38187 1.57444 -1.3895 70 52 128 255 
-8.73652 1.471 -1.37786 69 53 129 255 
-8.17291 1.38189 -1.36776 67 61 132 255 
-7.67423 1.30181 -1.3613 69 53 129 255 
-7.25383 1.22252 -1.3501 66 64 134 255 
-6.85954 1.15866 -1.34217 66 64 134 255 
-6.46464 1.09305 -1.33034 69 53 129 255 
-6.1435 1.04105 -1.32787 66 64 134 255 
-5.842 0.987718 -1.31461 68 59 132 255 
-5.58751 0.945801 -1.3125 68 59 132 255 
-5.36767 0.909504 -1.31608 69 56 130 255 
-5.13491 0.868294 -1.31391 70 52 128 255 
-4.91117 0.834741 -1.30225 69 55 129 255 
-4.74588 0.806745 -1.30612 70 50 126 255 
-4.54736 0.771326 -1.29994 70 50 126 255 
-4.3775 0.738648 -1.30069 68 59 132 255 
-17.7064 3.0483 5.39716 58 84 140 255 
-17.7183 3.0347 5.1988 56 88 140 255 
-17.7126 3.02721 5.00702 56 89 140 255 
-17.6945 3.02447 4.82007 59 82 139 255 
-17.6983 3.03738 4.66072 64 70 136 255 
-17.69 3.03303 4.46832 60 80 139 255 
-17.6907 3.03617 4.28607 61 78 138 255 
-17.6708 3.03626 4.10646 64 69 136 255 
-17.6788 3.03087 3.95678 60 79 138 255 
-17.6757 3.03375 3.76951 59 82 139 255 
-17.6571 3.03992 3.58991 55 91 141 255 
-17.6531 3.0459 3.41727 56 88 140 255 
-17.647 3.02541 3.2667 52 96 141 255 
-17.6235 3.02796 3.0855 55 91 141 255 
-17.6508 3.04517 2.91387 55 90 140 255 
-17.651 3.06137 2.7477 54 93 141 255 
-17.6434 3.02796 2.59876 50 101 142 255 
-17.6358 3.03324 2.42265 52 97 141 255 
-17.627 3.05057 2.25039 53 94 141 255 
-17.608 3.06023 2.08366 60 80 139 255 
-17.645 3.02824 1.94173 58 84 140 255 
-17.6292 3.04161 1.76986 57 85 140 255 
-17.6261 3.05358 1.59966 58 84 140 255 
-17.6111 3.07026 1.43205 61 78 138 255 
-17.6233 3.02767 1.29117 55 90 140 255 
-17.6111 3.04166 1.12127 61 78 138 255 
-17.6097 3.06024 0.952359 65 66 135 255 
-17.6111 3.07659 0.783689 67 62 133 255 
-17.5946 3.02906 0.642176 66 63 133 255 
-17.601 3.04624 0.473991 65 68 135 255 
-17.4759 3.04014 0.303431 71 46 124 255 
-16.275 2.84902 0.12977 69 53 129 255 
-16.2406 2.79887 -0.0028763 72 32 113 255 
-15.9442 2.76523 -0.155343 70 48 126 255 
-15.9851 2.78653 -0.305891 71 47 125 255 
-16.205 2.84259 -0.465305 72 36 117 255 
-16.2373 2.80704 -0.598466 68 57 131 255 
-16.3359 2.83903 -0.755829 68 58 131 255 
-16.4649 2.87314 -0.919811 72 41 121 255 
-16.2344 2.85066 -1.063 72 37 118 255 
-16.1911 2.80197 -1.19226 69 56 130 255 
-16.0656 2.79784 -1.33499 72 41 121 255 
-14.8288 2.59565 -1.37535 72 26 108 255 
-14.4554 2.53827 -1.48044 72 29 111 255 
-13.0426 2.26411 -1.44274 72 26 108 255 
-11.8706 2.0694 -1.4283 72 36 117 255 
-10.8673 1.90417 -1.41334 72 36 117 255 
-10.0289 1.76461 -1.40213 72 37 118 255 
-9.36033 1.62994 -1.38777 70 48 126 255 
-8.71663 1.5227 -1.37617 69 56 130 255 
-8.15747 1.43082 -1.36662 70 52 128 255 
-7.65833 1.34751 -1.35992 70 51 127 255 
-7.23263 1.26463 -1.34758 68 57 131 255 
-6.81845 1.19479 -1.33554 69 56 130 255 
-6.45202 1.13168 -1.32915 70 52 128 255 
-6.137 1.07872 -1.32787 65 66 135 255 
-5.82333 1.02135 -1.31179 68 58 131 255 
-5.5816 0.980068 -1.3125 66 65 134 255 
-5.33615 0.93788 -1.30974 70 51 127 255 
-5.10657 0.895764 -1.30804 70 48 126 255 
-4.90405 0.864524 -1.30175 69 55 129 255 
-4.7551 0.838364 -1.31005 70 52 128 255 
-4.54728 0.800047 -1.30129 70 48 126 255 
-4.37855 0.766487 -1.30238 68 59 132 255 
-17.6958 3.1584 5.39974 57 86 140 255 
-17.7051 3.14437 5.20047 56 89 140 255 
-17.6814 3.13365 5.00353 58 83 139 255 
-17.6908 3.13568 4.82422 58 84 140 255 
-17.6917 3.14812 4.66399 64 69 136 255 
-17.6845 3.1439 4.4717 60 80 139 255 
-17.6756 3.14534 4.287 61 77 138 255 
-17.6605 3.14617 4.10847 65 68 135 255 
-17.6686 3.14083 3.95872 59 82 139 255 
-17.6548 3.1418 3.7691 57 86 140 255 
-17.6459 3.14959 3.59148 53 95 141 255 
-17.6351 3.15433 3.41746 58 83 139 255 
-17.629 3.1338 3.26688 55 91 141 255 
-17.6357 3.14157 3.09094 54 92 141 255 
-17.6463 3.15602 2.91628 55 91 141 255 
-17.6037 3.16454 2.74331 56 88 140 255 
-17.6138 3.13426 2.59718 50 100 142 255 
-17.6295 3.14366 2.42439 51 98 141 255 
-17.6128 3.15955 2.25102 55 91 141 255 
-17.6075 3.17156 2.08586 60 80 139 255 
-17.6281 3.1368 1.94194 57 85 140 255 
-17.6416 3.15533 1.77301 56 89 140 255 
-17.6207 3.16414 1.60091 59 81 139 255 
-17.5978 3.17932 1.43253 59 82 139 255 
-17.5935 3.13382 1.29038 56 88 140 255 
-17.5921 3.14966 1.12127 62 76 138 255 
-17.5818 3.16664 0.95188 66 64 134 255 
-17.586 3.18352 0.783426 68 58 131 255 
-17.5914 3.13977 0.642751 66 65 134 255 
-17.5909 3.15577 0.47423 66 63 133 255 
-17.396 3.13631 0.302371 71 47 125 255 
-16.6498 3.02004 0.132904 72 32 113 255 
-16.1591 2.88703 -0.00286496 72 41 121 255 
-16.3049 2.93094 -0.159029 69 55 129 255 
-14.2872 2.58098 -0.273698 58 83 139 255 
-16.4233 2.98486 -0.47209 69 53 129 255 
-16.3663 2.93288 -0.603874 68 59 132 255 
-16.3772 2.94984 -0.758561 69 53 129 255 
-16.3271 2.95243 -0.913107 69 53 129 255 
-16.2048 2.94807 -1.06223 72 36 117 255 
-16.1462 2.89633 -1.19023 70 48 126 255 
-16.0188 2.89105 -1.33254 72 37 118 255 
-13.8249 2.50744 -1.28364 72 32 113 255 
-13.2384 2.40841 -1.35729 72 31 112 255 
-13.0323 2.3448 -1.44317 72 32 113 255 
-11.8421 2.13938 -1.42642 72 35 116 255 
-10.8456 1.96904 -1.41207 72 37 118 255 
-10.0139 1.8254 -1.40158 72 41 121 255 
-9.31315 1.68067 -1.38227 69 55 129 255 
-8.68087 1.57141 -1.37202 67 61 132 255 
-8.12524 1.47661 -1.36271 67 62 133 255 
-7.66349 1.39695 -1.36233 69 56 130 255 
-7.20054 1.3046 -1.34306 70 51 127 255 
-6.82742 1.23959 -1.33876 66 63 133 255 
-6.4276 1.1681 -1.32557 69 56 130 255 
-6.12449 1.11531 -1.32662 66 65 134 255 
-5.82752 1.05898 -1.31417 69 56 130 255 
-5.5659 1.01255 -1.31024 69 56 130 255 
-5.31881 0.968514 -1.30692 68 58 131 255 
-5.13532 0.933323 -1.31685 70 48 126 255 
-4.90626 0.895989 -1.30377 68 58 131 255 
-4.71853 0.861802 -1.30141 71 46 124 255 
-4.53945 0.827416 -1.30048 71 42 122 255 
-4.36621 0.791969 -1.30013 67 61 132 255 
-17.6733 3.2664 5.39888 58 83 139 255 
-17.692 3.25417 5.20241 57 85 140 255 
-17.6742 3.24434 5.00702 57 86 140 255 
-17.6694 3.24382 4.8237 59 82 139 255 
-17.6625 3.25486 4.66148 62 73 137 255 
-17.6648 3.25235 4.4717 61 78 138 255 
-17.6722 3.25674 4.29095 62 74 137 255 
-17.6495 3.25607 4.11048 65 68 135 255 
-17.6345 3.24653 3.95549 61 78 138 255 
-17.6371 3.25043 3.76951 58 83 139 255 
-17.633 3.25905 3.59285 56 88 140 255 
-17.6395 3.26695 3.42214 56 88 140 255 
-17.6269 3.24512 3.27011 56 88 140 255 
-17.6364 3.25348 3.09451 53 94 141 255 
-17.6228 3.26352 2.91564 56 88 140 255 
-17.5878 3.27322 2.74391 55 91 141 255 
-17.5971 3.24281 2.59761 50 100 142 255 
-17.6119 3.25213 2.42466 49 103 142 255 
-17.599 3.26864 2.25176 52 97 141 255 
-17.5965 3.28118 2.0869 62 76 138 255 
-17.5978 3.24292 1.94076 61 78 138 255 
-17.6111 3.26152 1.77193 56 88 140 255 
-17.6039 3.27274 1.60118 59 82 139 255 
-17.5839 3.28834 1.43301 61 77 138 255 
-17.5838 3.24352 1.2911 58 84 140 255 
-17.5695 3.257 1.12108 62 73 137 255 
-17.5649 3.27501 0.95204 66 65 134 255 
-17.5652 3.29118 0.783383 68 59 132 255 
-17.5551 3.24456 0.64214 69 56 130 255 
-16.491 3.06302 0.445078 72 41 121 255 
-16.3208 3.04598 0.284002 70 48 126 255 
-16.2732 3.05498 0.130045 70 48 126 255 
-16.1726 2.99195 -0.00287054 71 42 122 255 
-16.145 3.00459 -0.157647 69 56 130 255 
-14.2711 2.66859 -0.273698 59 82 139 255 
-11.5665 2.17555 -0.332858 72 26 108 255 
-11.5639 2.14559 -0.427154 72 35 116 255 
-11.5733 2.15797 -0.536658 71 47 125 255 
-16.3165 3.05403 -0.913547 72 37 118 255 
-16.1531 3.04117 -1.06004 72 38 119 255 
-16.0918 2.98861 -1.18756 71 47 125 255 
-15.9566 2.98105 -1.32887 72 24 106 255 
-11.9095 2.23561 -1.10705 72 24 106 255 
-12.097 2.27753 -1.24168 72 33 115 255 
-12.3864 2.30713 -1.37318 72 40 120 255 
-11.8004 2.20671 -1.423 72 37 118 255 
-10.8041 2.03005 -1.40826 72 38 119 255 
-9.99379 1.88516 -1.40036 72 40 120 255 
-9.28321 1.73414 -1.37938 70 52 128 255 
-8.66038 1.62264 -1.37033 69 55 129 255 
-8.11991 1.52717 -1.36337 67 61 132 255 
-7.64606 1.4423 -1.36078 69 55 129 255 
-7.2011 1.35039 -1.34469 69 55 129 255 
-6.82258 1.282 -1.33933 70 48 126 255 
-6.39719 1.20317 -1.32079 69 53 129 255 
-6.11465 1.15232 -1.32599 69 56 130 255 
-5.80556 1.09183 -1.31071 70 52 128 255 
-5.55192 1.04524 -1.30844 68 58 131 255 
-5.31659 1.00185 -1.30786 70 52 128 255 
-5.09805 0.9589 -1.30877 70 51 127 255 
-4.88736 0.923561 -1.30023 67 62 133 255 
-4.71505 0.891097 -1.30193 70 52 128 255 
-4.55604 0.859357 -1.30672 70 48 126 255 
-4.36316 0.819099 -1.30069 67 61 132 255 
-17.6623 3.37658 5.40176 58 84 140 255 
-17.6944 3.36697 5.20908 56 88 140 255 
-17.6662 3.35506 5.01051 57 86 140 255 
-17.6482 3.352 4.82344 60 80 139 255 
-17.6403 3.36281 4.66097 64 70 136 255 
-17.6512 3.36195 4.4734 61 78 138 255 
-17.6653 3.36766 4.2942 61 77 138 255 
-17.655 3.36923 4.11651 63 72 137 255 
-17.6364 3.35887 3.96044 62 76 138 255 
-17.637 3.36243 3.77383 57 85 140 255 
-17.6261 3.36976 3.5956 54 93 141 255 
-17.6182 3.37494 3.42196 58 83 139 255 
-17.6212 3.35598 3.2728 52 97 141 255 
-17.6258 3.36348 3.09621 54 92 141 255 
-17.5946 3.37011 2.91435 53 94 141 255 
-17.5897 3.38537 2.7474 56 89 140 255 
-17.5905 3.35332 2.59962 51 98 141 255 
-17.6033 3.36237 2.42627 51 99 141 255 
-17.5805 3.37694 2.25201 53 95 141 255 
-17.5818 3.39021 2.0876 60 79 138 255 
-17.5785 3.35103 1.94087 59 82 139 255 
-17.5898 3.36933 1.77183 58 84 140 255 
-17.5845 3.38089 1.60127 62 76 138 255 
-17.581 3.39958 1.43444 62 76 138 255 
-17.5694 3.35247 1.29153 59 82 139 255 
-17.561 3.367 1.12183 63 72 137 255 
-17.57 3.38764 0.953424 66 63 133 255 
-17.5515 3.40023 0.783689 67 61 132 255 
-17.5369 3.35259 0.642212 68 58 131 255 
-17.5597 3.3731 0.474469 67 61 132 255 
-16.9173 3.26486 0.294726 71 47 125 255 
-16.1894 3.1422 0.129527 69 56 130 255 
-16.1333 3.08718 -0.00286688 66 63 133 255 
-16.0841 3.09547 -0.157234 68 58 131 255 
-16.3208 3.15564 -0.313374 70 52 128 255 
-16.1882 3.14783 -0.466408 72 31 112 255 
-11.4759 2.20219 -0.424396 64 69 136 255 
-11.4941 2.21627 -0.533607 61 78 138 255 
-11.5058 2.22674 -0.64495 63 72 137 255 
-11.5459 2.24721 -0.758589 64 70 136 255 
-15.9821 3.06979 -1.18083 72 23 105 255 
-11.2546 2.17415 -0.938374 72 33 115 255 
-11.1536 2.16464 -1.03799 72 32 113 255 
-11.0456 2.14984 -1.13509 72 33 115 255 
-11.3441 2.18509 -1.25909 72 40 120 255 
-11.3508 2.1948 -1.37039 71 44 122 255 
-10.7564 2.0895 -1.40368 72 40 120 255 
-9.98009 1.94606 -1.40008 71 45 123 255 
-9.30834 1.79802 -1.38473 69 53 129 255 
-8.65123 1.67594 -1.37048 69 56 130 255 
-8.07939 1.57094 -1.35816 68 57 131 255 
-7.62837 1.48749 -1.35923 70 48 126 255 
-7.18978 1.39399 -1.34415 70 48 126 255 
-6.81362 1.32365 -1.33914 70 48 126 255 
-6.38488 1.24146 -1.3198 68 59 132 255 
-6.10362 1.18907 -1.32516 67 62 133 255 
-5.79684 1.12706 -1.31027 69 53 129 255 
-5.58653 1.08729 -1.31814 63 72 137 255 
-5.30844 1.03408 -1.30739 70 50 126 255 
-5.08636 0.989053 -1.30731 68 58 131 255 
-4.893 0.955758 -1.30326 69 55 129 255 
-4.70002 0.918161 -1.29931 69 53 129 255 
-4.53178 0.883612 -1.30129 70 51 127 255 
-4.3524 0.844758 -1.299 68 58 131 255 
-17.6685 3.49027 5.4101 56 88 140 255 
-17.6687 3.47455 5.20769 56 89 140 255 
-17.6387 3.4621 5.00863 58 83 139 255 
-17.6349 3.46171 4.82552 57 85 140 255 
-17.6488 3.47679 4.66876 64 69 136 255 
-17.636 3.47131 4.47485 59 81 139 255 
-17.6395 3.47505 4.29304 59 81 139 255 
-17.6254 3.4758 4.1145 65 66 135 255 
-17.6212 3.46815 3.96174 58 83 139 255 
-17.642 3.4757 3.77938 56 89 140 255 
-17.6099 3.47879 3.59659 55 91 141 255 
-17.5894 3.48145 3.42046 57 85 140 255 
-17.6012 3.46422 3.27298 52 96 141 255 
-17.6038 3.47137 3.09604 55 91 141 255 
-17.6036 3.48394 2.91933 55 90 140 255 
-17.5802 3.49555 2.74922 56 88 140 255 
-17.589 3.46501 2.6025 51 99 141 255 
-17.5872 3.47127 2.42694 49 103 142 255 
-17.5818 3.48919 2.25489 52 97 141 255 
-17.5792 3.50172 2.0898 60 79 138 255 
-17.5713 3.46151 1.94237 59 82 139 255 
-17.5795 3.47933 1.77291 58 84 140 255 
-17.579 3.49182 1.60269 59 82 139 255 
-17.5793 3.51129 1.43604 61 78 138 255 
-17.5671 3.46388 1.2929 58 83 139 255 
-17.5586 3.47837 1.12302 58 83 139 255 
-17.5558 3.49675 0.953796 66 64 134 255 
-17.5352 3.50884 0.783908 68 59 132 255 
-17.514 3.45975 0.64214 66 64 134 255 
-17.3455 3.44244 0.469243 65 68 135 255 
-16.4616 3.28181 0.287132 71 42 122 255 
-16.1492 3.23735 0.129362 70 51 127 255 
-11.5886 2.29134 -0.00206176 66 65 134 255 
-14.2622 2.83569 -0.139591 70 50 126 255 
-16.0236 3.20031 -0.30804 70 51 127 255 
-16.1421 3.24178 -0.465645 72 26 108 255 
-11.4318 2.26654 -0.423271 63 71 136 255 
-11.4362 2.27797 -0.531557 60 80 139 255 
-11.4527 2.28947 -0.642752 59 82 139 255 
-11.4673 2.30503 -0.754342 62 73 137 255 
-11.4579 2.27378 -0.847572 68 59 132 255 
-10.4894 2.09318 -0.87563 72 40 120 255 
-10.3199 2.06862 -0.96157 72 35 116 255 
-10.3153 2.07346 -1.06133 72 35 116 255 
-10.5387 2.09711 -1.17112 72 36 117 255 
-10.4753 2.09227 -1.26621 72 37 118 255 
-10.3874 2.08405 -1.35718 72 35 116 255 
-9.91455 1.99651 -1.39258 72 37 118 255 
-9.30878 1.85742 -1.38647 70 50 126 255 
-8.63206 1.72724 -1.3691 69 55 129 255 
-8.06766 1.62009 -1.35783 68 58 131 255 
-7.61813 1.53407 -1.35906 70 50 126 255 
-7.19074 1.44001 -1.34595 70 52 128 255 
-6.79093 1.36254 -1.3363 71 45 123 255 
-6.37618 1.28042 -1.3196 70 48 126 255 
-6.08663 1.22457 -1.32307 67 61 132 255 
-5.8013 1.16492 -1.31287 68 59 132 255 
-5.57306 1.12021 -1.31656 69 53 129 255 
-5.29437 1.0651 -1.30551 71 47 125 255 
-5.08115 1.02043 -1.30755 69 56 130 255 
-4.89842 0.988058 -1.3063 69 55 129 255 
-4.69619 0.947364 -1.29983 69 53 129 255 
-4.51024 0.908172 -1.29668 71 47 125 255 
-4.31796 0.865601 -1.29029 68 57 131 255 
-17.6524 3.59977 5.41183 59 82 139 255 
-17.6677 3.5871 5.2138 59 82 139 255 
-17.6265 3.57218 5.01132 58 84 140 255 
-17.6436 3.57599 4.83381 56 88 140 255 
-17.63 3.58559 4.66952 66 65 134 255 
-17.6105 3.57869 4.47388 62 73 137 255 
-17.6302 3.58574 4.29606 59 82 139 255 
-17.5971 3.58252 4.11294 65 66 135 255 
-17.5986 3.57602 3.96152 59 82 139 255 
-17.6146 3.58271 3.77815 60 79 138 255 
-17.6209 3.59344 3.60326 51 99 141 255 
-17.5928 3.59442 3.42533 58 83 139 255 
-17.5912 3.57451 3.27514 57 85 140 255 
-17.5822 3.57932 3.09604 56 89 140 255 
-17.6061 3.59683 2.92334 55 91 141 255 
-17.5749 3.60673 2.7518 54 92 141 255 
-17.5859 3.57662 2.60523 50 100 142 255 
-17.5675 3.57952 2.42721 52 96 141 255 
-17.5718 3.5994 2.25638 51 98 141 255 
-17.5769 3.61351 2.09211 59 82 139 255 
-17.5614 3.57164 1.94367 59 81 139 255 
-17.5569 3.58693 1.77281 56 88 140 255 
-17.5563 3.59942 1.6026 59 81 139 255 
-17.5457 3.61668 1.43508 61 78 138 255 
-17.5661 3.57578 1.29441 58 84 140 255 
-17.5389 3.58644 1.12315 62 76 138 255 
-17.5457 3.60682 0.954434 67 62 133 255 
-17.5241 3.61859 0.78439 67 61 132 255 
-17.4464 3.55776 0.640451 69 53 129 255 
-16.8001 3.44148 0.455052 69 55 129 255 
-17.111 3.52058 0.29883 70 48 126 255 
-16.5814 3.42996 0.13299 72 35 116 255 
-11.5832 2.3642 -0.00206333 61 77 138 255 
-11.5155 2.36312 -0.112848 60 80 139 255 
-15.9831 3.29433 -0.307644 72 26 108 255 
-16.0456 3.32495 -0.463439 71 17 100 255 
-11.3971 2.33243 -0.422509 63 72 137 255 
-11.4015 2.34388 -0.530601 56 89 140 255 
-11.4326 2.35849 -0.642423 56 88 140 255 
-11.4471 2.37414 -0.753956 59 82 139 255 
-11.4232 2.33984 -0.846053 67 62 133 255 
-10.2255 2.10584 -0.854662 70 51 127 255 
-9.52195 1.96953 -0.888331 72 32 113 255 
-9.51909 1.97427 -0.980634 72 31 112 255 
-9.81189 2.01514 -1.0917 72 40 120 255 
-9.70462 2.00034 -1.17452 72 40 120 255 
-9.64888 1.99754 -1.26226 72 33 115 255 
-9.63635 2.00209 -1.35521 72 37 118 255 
-9.24487 1.90373 -1.37866 70 48 126 255 
-8.60969 1.77778 -1.36725 70 50 126 255 
-8.0566 1.66937 -1.35767 68 57 131 255 
-7.59025 1.57698 -1.35579 69 53 129 255 
-7.18562 1.4849 -1.34667 68 59 132 255 
-6.78917 1.40557 -1.33762 70 51 127 255 
-6.41715 1.32966 -1.32974 67 62 133 255 
-6.0857 1.26328 -1.32453 70 52 128 255 
-5.79213 1.2001 -1.31244 68 57 131 255 
-5.55655 1.1524 -1.3143 68 58 131 255 
-5.30201 1.10053 -1.30903 70 50 126 255 
-5.06055 1.04864 -1.30388 68 58 131 255 
-4.89227 1.0181 -1.3063 68 57 131 255 
-4.68746 0.975572 -1.29905 70 48 126 255 
-4.51023 0.937004 -1.29831 71 47 125 255 
-4.33983 0.897716 -1.29844 68 59 132 255 
-17.6384 3.70979 5.41442 57 86 140 255 
-17.6445 3.69525 5.21353 54 92 141 255 
-17.6298 3.68559 5.01856 55 91 141 255 
-17.6327 3.68655 4.83693 55 90 140 255 
-17.6285 3.69807 4.67504 64 70 136 255 
-17.6034 3.68986 4.47774 61 78 138 255 
-17.6231 3.69704 4.29978 61 78 138 255 
-17.5843 3.69243 4.11517 62 76 138 255 
-17.5907 3.68694 3.96475 60 79 138 255 
-17.5999 3.69233 3.77979 59 82 139 255 
-17.5956 3.70089 3.60268 53 94 141 255 
-17.5762 3.70352 3.42645 55 90 140 255 
-17.5747 3.68359 3.27621 54 92 141 255 
-17.5628 3.68775 3.09655 53 95 141 255 
-17.5799 3.70398 2.9227 56 89 140 255 
-17.5554 3.71512 2.75225 55 91 141 255 
-17.5587 3.68344 2.60451 51 98 141 255 
-17.5597 3.6903 2.42922 50 100 142 255 
-17.5581 3.70899 2.25751 53 94 141 255 
-17.565 3.72356 2.09339 60 80 139 255 
-17.5722 3.68627 1.94733 59 82 139 255 
-17.5335 3.69438 1.77272 57 85 140 255 
-17.529 3.70605 1.60216 59 81 139 255 
-17.5388 3.72758 1.43636 60 80 139 255 
-17.5526 3.68534 1.29506 57 85 140 255 
-17.5341 3.6977 1.12428 61 77 138 255 
-17.532 3.71627 0.954913 65 68 135 255 
-17.5143 3.72875 0.784959 66 63 133 255 
-17.4937 3.67935 0.643003 64 70 136 255 
-16.632 3.51351 0.451073 70 52 128 255 
-16.7526 3.55412 0.292947 69 53 129 255 
-11.6145 2.47692 0.0932729 59 82 139 255 
-11.4823 2.4171 -0.00204797 58 83 139 255 
-11.4851 2.43042 -0.112694 59 81 139 255 
-11.6468 2.47515 -0.224466 68 57 131 255 
-11.5702 2.4717 -0.33461 71 46 124 255 
-11.3679 2.39922 -0.421964 61 78 138 255 
-11.3781 2.41192 -0.530191 57 86 140 255 
-11.4218 2.42942 -0.642642 57 86 140 255 
-11.4333 2.44454 -0.75402 57 85 140 255 
-11.4027 2.40865 -0.845618 62 74 137 255 
-10.1578 2.15695 -0.850093 71 47 125 255 
-8.97791 1.91451 -0.838656 71 44 122 255 
-8.88994 1.90075 -0.917005 72 33 115 255 
-9.18178 1.94452 -1.0229 72 40 120 255 
-9.06467 1.92649 -1.09848 71 45 123 255 
-9.02628 1.92648 -1.18234 71 44 122 255 
-8.92837 1.91222 -1.25727 72 40 120 255 
-9.15171 1.94315 -1.36652 71 47 125 255 
-8.59862 1.83057 -1.36725 71 47 125 255 
-8.0356 1.7165 -1.35588 68 58 131 255 
-7.54672 1.61631 -1.34976 71 46 124 255 
-7.17637 1.52896 -1.34667 69 56 130 255 
-6.78234 1.44762 -1.338 70 51 127 255 
-6.4012 1.36737 -1.32815 66 65 134 255 
-6.07975 1.30101 -1.32495 70 52 128 255 
-5.78275 1.23521 -1.31201 67 62 133 255 
-5.54651 1.18587 -1.31363 69 53 129 255 
-5.29136 1.13223 -1.30809 70 48 126 255 
-5.05023 1.07886 -1.3029 70 51 127 255 
-4.87269 1.04525 -1.30276 69 55 129 255 
-4.6861 1.00533 -1.30036 70 52 128 255 
-4.49969 0.963653 -1.29695 71 45 123 255 
-4.33048 0.923527 -1.29731 70 52 128 255 
-17.6144 3.81774 5.41413 59 82 139 255 
-17.6374 3.80689 5.21825 54 92 141 255 
-17.6172 3.79592 5.02152 56 89 140 255 
-17.604 3.79346 4.83537 59 81 139 255 
-17.5998 3.80494 4.67353 62 73 137 255 
-17.5833 3.79842 4.47847 60 79 138 255 
-17.5973 3.80449 4.29908 58 84 140 255 
-17.587 3.80582 4.1212 61 77 138 255 
-17.5696 3.79521 3.96518 61 78 138 255 
-17.5827 3.80149 3.78103 58 83 139 255 
-17.5745 3.8092 3.60307 55 91 141 255 
-17.5541 3.8115 3.42664 56 88 140 255 
-17.5575 3.7926 3.27729 56 89 140 255 
-17.5476 3.79711 3.09791 53 94 141 255 
-17.55 3.81031 2.92158 54 93 141 255 
-17.538 3.82403 2.75316 59 82 139 255 
-17.5532 3.79487 2.6071 53 95 141 255 
-17.5455 3.79986 2.43043 54 93 141 255 
-17.5544 3.82088 2.26 55 91 141 255 
-17.5555 3.83424 2.09501 61 77 138 255 
-17.558 3.79591 1.94831 57 86 140 255 
-17.5329 3.80675 1.77498 57 86 140 255 
-17.504 3.81311 1.60198 62 76 138 255 
-17.5331 3.83897 1.4378 59 81 139 255 
-17.5355 3.79424 1.29549 55 90 140 255 
-17.5218 3.80755 1.12496 60 79 138 255 
-17.5187 3.82591 0.955445 65 66 135 255 
-17.4774 3.83315 0.784346 66 64 134 255 
-16.8027 3.64182 0.618416 68 59 132 255 
-16.5925 3.61167 0.450595 66 65 134 255 
-16.5195 3.61073 0.289253 70 48 126 255 
-11.5473 2.53677 0.0928567 57 86 140 255 
-11.4536 2.48455 -0.00204553 66 65 134 255 
-7.4809 1.63109 -0.0735008 55 91 141 255 
-7.47069 1.63563 -0.144172 64 70 136 255 
-16.0836 3.53922 -0.465758 72 41 121 255 
-11.3383 2.46575 -0.42142 70 51 127 255 
-11.3494 2.47871 -0.529554 58 84 140 255 
-11.3784 2.49326 -0.641049 62 73 137 255 
-11.4317 2.51765 -0.754921 61 77 138 255 
-11.4111 2.48366 -0.847355 59 81 139 255 
-10.1453 2.21945 -0.850174 70 52 128 255 
-8.73061 1.91786 -0.816638 69 53 129 255 
-8.35147 1.83927 -0.862609 71 47 125 255 
-8.58594 1.87345 -0.957782 68 58 131 255 
-8.50556 1.86228 -1.03209 69 56 130 255 
-8.46791 1.8617 -1.11067 70 50 126 255 
-8.36989 1.84639 -1.1802 71 44 122 255 
-8.61279 1.88403 -1.28775 71 47 125 255 
-8.47623 1.85896 -1.34958 71 46 124 255 
-8.00179 1.76069 -1.35197 70 52 128 255 
-7.5001 1.65452 -1.34321 72 40 120 255 
-7.16205 1.57191 -1.34577 69 55 129 255 
-6.7599 1.48625 -1.33535 69 56 130 255 
-6.37833 1.40347 -1.32517 68 58 131 255 
-6.07643 1.33934 -1.32599 70 48 126 255 
-5.7722 1.27003 -1.31136 68 59 132 255 
-5.51535 1.21464 -1.30798 69 56 130 255 
-5.27197 1.16196 -1.30504 70 51 127 255 
-5.06908 1.11546 -1.30951 68 57 131 255 
-4.84445 1.07033 -1.29694 70 51 127 255 
-4.67607 1.03323 -1.29931 69 53 129 255 
-4.50873 0.994562 -1.30129 70 51 127 255 
-4.3088 0.946581 -1.29253 69 55 129 255 
-17.6168 3.93159 5.42218 59 81 139 255 
-17.5762 3.9067 5.20714 57 85 140 255 
-17.5935 3.90395 5.02152 56 88 140 255 
-17.5908 3.9037 4.83822 58 84 140 255 
-17.6073 3.9198 4.68183 63 71 136 255 
-17.5777 3.91024 4.48306 60 80 139 255 
-17.5717 3.91197 4.29862 62 74 137 255 
-17.5776 3.91684 4.12455 61 77 138 255 
-17.5679 3.90782 3.97014 58 83 139 255 
-17.5667 3.91101 3.78267 58 83 139 255 
-17.5527 3.91739 3.60346 54 92 141 255 
-17.5601 3.92578 3.43245 56 88 140 255 
-17.5378 3.90112 3.27801 54 93 141 255 
-17.5364 3.90749 3.10012 55 91 141 255 
-17.5494 3.92309 2.92543 55 91 141 255 
-17.5316 3.93546 2.75589 58 84 140 255 
-17.5499 3.90702 2.61011 54 92 141 255 
-17.5508 3.91392 2.43445 51 99 141 255 
-17.5335 3.92917 2.26038 56 89 140 255 
-17.5345 3.94253 2.09536 61 78 138 255 
-17.547 3.90638 1.94971 60 80 139 255 
-17.5267 3.91817 1.77675 55 90 140 255 
-17.5065 3.92633 1.60438 57 86 140 255 
-17.518 3.94845 1.43852 58 83 139 255 
-17.5236 3.90437 1.29635 59 82 139 255 
-17.5196 3.91978 1.12634 62 73 137 255 
-17.4919 3.93267 0.955286 63 72 137 255 
-17.4204 3.93284 0.782857 69 55 129 255 
-16.9722 3.78774 0.625497 71 44 122 255 
-16.5066 3.6992 0.448871 68 57 131 255 
-16.3137 3.67076 0.286037 70 50 126 255 
-11.512 2.60316 0.0926996 66 63 133 255 
-7.55582 1.68764 -0.00135123 48 105 142 255 
-7.45416 1.67324 -0.0733376 50 100 142 255 
-7.46929 1.68341 -0.144341 59 81 139 255 
-16.0587 3.63717 -0.465673 68 58 131 255 
-7.44367 1.66667 -0.277039 52 97 141 255 
-7.49882 1.68601 -0.350364 61 78 138 255 
-7.45416 1.68137 -0.420534 50 102 142 255 
-11.4131 2.58709 -0.754728 70 48 126 255 
-11.4113 2.55712 -0.848513 64 69 136 255 
-10.0917 2.27268 -0.846829 71 45 123 255 
-8.67108 1.96063 -0.81218 70 50 126 255 
-7.93442 1.79854 -0.820658 68 57 131 255 
-8.06313 1.81127 -0.900683 68 58 131 255 
-8.03479 1.81094 -0.976293 69 55 129 255 
-7.97165 1.80394 -1.04701 70 52 128 255 
-7.91981 1.79813 -1.11827 71 47 125 255 
-8.09234 1.82228 -1.21159 70 51 127 255 
-8.05309 1.81802 -1.28396 69 53 129 255 
-7.95042 1.8006 -1.34513 71 42 122 255 
-7.48501 1.69942 -1.34235 71 46 124 255 
-7.13596 1.61215 -1.3427 67 61 132 255 
-6.72001 1.52077 -1.32929 67 61 132 255 
-6.37342 1.44344 -1.32596 68 59 132 255 
-6.04711 1.37184 -1.32141 69 55 129 255 
-5.75382 1.30306 -1.30897 69 56 130 255 
-5.50969 1.24889 -1.30844 69 55 129 255 
-5.26948 1.19536 -1.30621 70 52 128 255 
-5.05552 1.14504 -1.30779 69 53 129 255 
-4.83968 1.10047 -1.29745 70 48 126 255 
-4.64518 1.05634 -1.2925 70 51 127 255 
-4.49598 1.02072 -1.2994 71 42 122 255 
-4.32725 0.978505 -1.29985 70 51 127 255 
-17.6026 4.04197 5.42535 61 78 138 255 
-17.5884 4.02283 5.21797 58 84 140 255 
-17.589 4.01633 5.02715 55 90 140 255 
-17.5759 4.01371 4.84082 59 82 139 255 
-17.5904 4.02949 4.68383 64 69 136 255 
-17.5921 4.0269 4.49296 61 78 138 255 
-17.5644 4.02362 4.3028 62 76 138 255 
-17.5608 4.02637 4.12633 62 73 137 255 
-17.5503 4.01707 3.97165 61 78 138 255 
-17.55 4.02047 3.78432 58 84 140 255 
-17.5446 4.02875 3.6068 55 91 141 255 
-17.5318 4.03258 3.4317 58 84 140 255 
-17.5384 4.01436 3.28268 55 90 140 255 
-17.5352 4.02031 3.1042 53 94 141 255 
-17.5308 4.03203 2.92639 54 93 141 255 
-17.5216 4.0463 2.75817 53 94 141 255 
-17.5372 4.01729 2.61184 53 95 141 255 
-17.5381 4.02419 2.43606 52 96 141 255 
-17.5159 4.03824 2.26125 56 89 140 255 
-17.5061 4.04916 2.09489 59 81 139 255 
-17.5314 4.01597 1.95068 57 86 140 255 
-17.5082 4.02697 1.77734 57 85 140 255 
-17.4937 4.03636 1.60545 59 82 139 255 
-17.4847 4.05384 1.4378 60 80 139 255 
-17.5148 4.01538 1.29751 59 81 139 255 
-17.5098 4.03056 1.12728 61 77 138 255 
-17.4821 4.0433 0.956084 63 72 137 255 
-17.4836 4.05999 0.786799 67 61 132 255 
-16.4811 3.78445 0.608243 67 61 132 255 
-16.4018 3.78155 0.446643 68 57 131 255 
-16.3678 3.7886 0.287388 70 52 128 255 
-7.46257 1.73568 0.0601766 51 99 141 255 
-7.44494 1.7109 -0.00133326 47 107 142 255 
-7.4457 1.7194 -0.0733568 47 108 142 255 
-7.48122 1.7344 -0.144775 56 89 140 255 
-16.0399 3.73655 -0.465786 71 42 122 255 
-7.39045 1.70244 -0.275442 50 102 142 255 
-7.45816 1.72501 -0.348953 50 102 142 255 
-7.41842 1.72121 -0.419105 46 111 142 255 
-7.46878 1.74124 -0.494592 47 108 142 255 
-7.46991 1.72212 -0.556219 58 84 140 255 
-7.46857 1.73017 -0.627595 69 53 129 255 
-7.52791 1.75077 -0.706097 53 94 141 255 
-7.61608 1.77558 -0.788843 65 68 135 255 
-7.60341 1.75708 -0.850519 66 64 134 255 
-7.58143 1.75771 -0.922499 69 56 130 255 
-7.48705 1.74264 -0.984751 68 58 131 255 
-7.49767 1.75073 -1.06016 68 57 131 255 
-7.63758 1.76918 -1.1451 66 63 133 255 
-7.57785 1.75967 -1.20989 70 51 127 255 
-7.57118 1.76362 -1.28278 70 51 127 255 
-7.48211 1.7471 -1.34373 71 46 124 255 
-7.11444 1.65323 -1.34054 69 53 129 255 
-6.68186 1.55529 -1.3236 70 52 128 255 
-6.3654 1.48274 -1.32616 68 59 132 255 
-6.01858 1.40425 -1.31703 68 59 132 255 
-5.73716 1.33634 -1.30702 69 56 130 255 
-5.49149 1.28024 -1.30595 69 55 129 255 
-5.24501 1.22369 -1.30198 68 58 131 255 
-5.04368 1.17494 -1.30657 70 52 128 255 
-4.8074 1.12419 -1.29062 69 56 130 255 
-4.63109 1.08306 -1.29041 70 48 126 255 
-4.48494 1.04719 -1.29804 71 42 122 255 
-4.30714 1.00178 -1.29563 69 53 129 255 
-17.5728 4.1488 5.42391 60 79 138 255 
-17.5718 4.13265 5.22047 59 82 139 255 
-17.5696 4.1255 5.02876 56 88 140 255 
-17.5754 4.12722 4.84756 54 92 141 255 
-17.5654 4.13735 4.68383 62 76 138 255 
-17.5643 4.1341 4.49224 61 77 138 255 
-17.5621 4.13667 4.30837 62 73 137 255 
-17.5386 4.13471 4.127 64 70 136 255 
-17.5443 4.12916 3.97595 58 83 139 255 
-17.544 4.13257 3.78843 59 81 139 255 
-17.5205 4.13655 3.607 57 86 140 255 
-17.5278 4.14505 3.43582 57 85 140 255 
-17.5412 4.12843 3.28788 54 93 141 255 
-17.539 4.13461 3.10931 52 96 141 255 
-17.5182 4.14247 2.92848 53 94 141 255 
-17.5166 4.15853 2.76135 55 91 141 255 
-17.5295 4.1289 2.61442 49 103 142 255 
-17.5073 4.13036 2.43526 54 93 141 255 
-17.4994 4.1477 2.26237 54 92 141 255 
-17.4867 4.15787 2.09559 60 79 138 255 
-17.5084 4.12392 1.95089 60 80 139 255 
-17.5054 4.13959 1.77961 58 84 140 255 
-17.4754 4.14523 1.60608 59 81 139 255 
-17.4537 4.15966 1.43732 62 76 138 255 
-17.5005 4.12529 1.2983 59 82 139 255 
-17.4964 4.14068 1.12803 61 78 138 255 
-17.4686 4.15327 0.956722 63 71 136 255 
-17.4554 4.1665 0.786667 68 59 132 255 
-16.5539 3.90824 0.611802 71 44 122 255 
-16.4143 3.89065 0.447624 66 65 134 255 
-16.0884 3.82809 0.28289 70 52 128 255 
-7.43331 1.77702 0.0600274 45 112 142 255 
-7.44306 1.75862 -0.00133483 44 114 142 255 
-7.50409 1.78145 -0.0740383 50 101 142 255 
-7.52101 1.79233 -0.145755 52 97 141 255 
-7.40953 1.77407 -0.215478 72 40 120 255 
-7.3575 1.74246 -0.274607 47 107 142 255 
-7.39592 1.7585 -0.346539 51 99 141 255 
-7.38052 1.76021 -0.417566 42 120 142 255 
-7.42011 1.77797 -0.492082 44 113 142 255 
-7.44756 1.76516 -0.555351 44 115 142 255 
-7.44909 1.77388 -0.626861 46 110 142 255 
-7.50927 1.79507 -0.70537 53 94 141 255 
-7.44346 1.78356 -0.772083 57 85 140 255 
-7.26654 1.72627 -0.814006 65 66 135 255 
-7.26718 1.7319 -0.885538 62 76 138 255 
-7.25145 1.73478 -0.955145 59 82 139 255 
-7.22765 1.73452 -1.02346 57 85 140 255 
-7.25214 1.72685 -1.08888 58 84 140 255 
-7.23341 1.72652 -1.15656 64 69 136 255 
-7.22438 1.72963 -1.22579 62 73 137 255 
-7.21455 1.73137 -1.29756 65 66 135 255 
-7.09651 1.69502 -1.33909 69 55 129 255 
-6.6827 1.59878 -1.32569 69 55 129 255 
-6.32187 1.51356 -1.319 68 58 131 255 
-6.00319 1.43956 -1.31557 68 58 131 255 
-5.74784 1.37607 -1.31136 67 62 133 255 
-5.475 1.31187 -1.30392 70 52 128 255 
-5.20904 1.24905 -1.29493 67 61 132 255 
-5.03071 1.20451 -1.3051 69 56 130 255 
-4.80794 1.15548 -1.29264 69 55 129 255 
-4.64031 1.11529 -1.29486 71 46 124 255 
-4.44287 1.06615 -1.28773 70 48 126 255 
-4.31118 1.03064 -1.29872 69 55 129 255 
-17.5498 4.25722 5.42477 60 80 139 255 
-17.5807 4.24874 5.23075 57 86 140 255 
-17.544 4.23323 5.02876 56 88 140 255 
-17.5714 4.2402 4.85352 55 90 140 255 
-17.5538 4.24846 4.6876 63 71 136 255 
-17.547 4.24385 4.49441 62 76 138 255 
-17.5393 4.24504 4.30907 60 79 138 255 
-17.5338 4.2473 4.13191 63 72 137 255 
-17.53 4.23948 3.97854 58 84 140 255 
-17.5393 4.2452 3.79296 57 86 140 255 
-17.5015 4.24559 3.60837 56 88 140 255 
-17.5201 4.25692 3.43938 58 84 140 255 
-17.5051 4.23344 3.28591 55 91 141 255 
-17.5094 4.24122 3.10863 53 94 141 255 
-17.4973 4.25105 2.92928 54 93 141 255 
-17.509 4.27038 2.76423 52 96 141 255 
-17.5106 4.23801 2.61543 51 99 141 255 
-17.4729 4.23561 2.43405 53 94 141 255 
-17.4765 4.2557 2.26275 53 95 141 255 
-17.486 4.27122 2.0986 62 76 138 255 
-17.4982 4.23502 1.95262 58 83 139 255 
-17.4797 4.24693 1.77961 60 79 138 255 
-17.4671 4.25662 1.60768 60 80 139 255 
-17.4395 4.26952 1.43828 59 82 139 255 
-17.4807 4.23401 1.29873 58 83 139 255 
-17.4784 4.24985 1.12853 63 72 137 255 
-17.4544 4.26322 0.957361 65 66 135 255 
-17.4266 4.27281 0.786536 68 58 131 255 
-17.3979 4.22036 0.643937 67 62 133 255 
-16.5455 4.02913 0.451869 68 58 131 255 
-16.2938 3.98276 0.286927 70 48 126 255 
-7.39216 1.81521 0.0597839 50 102 142 255 
-7.38063 1.79175 -0.00132558 45 113 142 255 
-7.39392 1.80329 -0.0730592 50 102 142 255 
-7.53609 1.84486 -0.146264 53 95 141 255 
-7.45383 1.83311 -0.21709 67 62 133 255 
-7.3321 1.78403 -0.274063 50 101 142 255 
-7.35297 1.79602 -0.345036 47 108 142 255 
-7.33855 1.79786 -0.415808 42 118 142 255 
-7.38096 1.81655 -0.490216 45 113 142 255 
-7.41817 1.80634 -0.553976 43 116 142 255 
-7.40418 1.81127 -0.624005 43 117 142 255 
-7.42752 1.82378 -0.698728 51 99 141 255 
-7.38793 1.81827 -0.767466 57 86 140 255 
-7.24229 1.76752 -0.812489 55 90 140 255 
-7.24484 1.77363 -0.884125 49 104 142 255 
-7.22911 1.7764 -0.95362 50 102 142 255 
-7.21014 1.77717 -1.02251 54 93 141 255 
-7.2193 1.76591 -1.08556 48 105 142 255 
-7.21116 1.76805 -1.15472 57 86 140 255 
-7.19255 1.76875 -1.22221 58 83 139 255 
-7.19422 1.77325 -1.29584 62 74 137 255 
-7.08502 1.7383 -1.33891 69 55 129 255 
-6.64034 1.63178 -1.31925 71 45 123 255 
-6.29153 1.54717 -1.31463 69 56 130 255 
-5.99234 1.4759 -1.31515 69 55 129 255 
-5.72128 1.40688 -1.30724 69 55 129 255 
-5.45266 1.34194 -1.30054 67 61 132 255 
-5.21827 1.28517 -1.29916 69 55 129 255 
-5.02323 1.23535 -1.3051 70 51 127 255 
-4.83457 1.1933 -1.30175 70 52 128 255 
-4.62214 1.14097 -1.29172 71 45 123 255 
-4.41849 1.08902 -1.28258 69 55 129 255 
-4.29266 1.0541 -1.29507 68 57 131 255 
-17.5606 4.37409 5.43628 59 82 139 255 
-17.5655 4.35931 5.23409 58 84 140 255 
-17.5326 4.3445 5.03306 57 86 140 255 
-17.5591 4.35142 4.85741 56 89 140 255 
-17.5452 4.36053 4.69238 62 73 137 255 
-17.5452 4.35752 4.50069 60 80 139 255 
-17.5261 4.35586 4.31232 61 78 138 255 
-17.5244 4.35904 4.13593 63 71 136 255 
-17.5198 4.35097 3.9822 60 79 138 255 
-17.5119 4.35251 3.79275 58 83 139 255 
-17.5055 4.36049 3.61466 55 91 141 255 
-17.4823 4.36149 3.43714 57 85 140 255 
-17.5036 4.34694 3.29057 54 92 141 255 
-17.4926 4.35095 3.11033 55 91 141 255 
-17.4958 4.36454 2.93346 54 92 141 255 
-17.4949 4.38085 2.7662 54 93 141 255 
-17.4996 4.34919 2.61773 50 101 142 255 
-17.4658 4.34753 2.43673 54 93 141 255 
-17.4559 4.3643 2.2635 56 89 140 255 
-17.4681 4.38061 2.09964 62 76 138 255 
-17.4883 4.34638 1.95445 56 89 140 255 
-17.4697 4.35819 1.78128 58 84 140 255 
-17.458 4.36807 1.60928 59 81 139 255 
-17.4497 4.38568 1.44131 61 78 138 255 
-17.466 4.34408 1.2996 57 85 140 255 
-17.4491 4.35629 1.12835 62 73 137 255 
-17.4415 4.37363 0.958106 66 65 134 255 
-17.0716 4.29699 0.77169 71 42 122 255 
-16.5396 4.11978 0.613096 71 45 123 255 
-16.5224 4.13106 0.451922 72 36 117 255 
-14.1521 3.5514 0.24959 67 61 132 255 
-7.39252 1.86346 0.0598781 47 107 142 255 
-7.36367 1.83555 -0.00132453 46 111 142 255 
-7.39824 1.85251 -0.0732128 54 92 141 255 
-7.45966 1.87474 -0.145001 49 103 142 255 
-7.46668 1.88493 -0.217796 57 85 140 255 
-7.30744 1.82559 -0.273554 45 113 142 255 
-7.32825 1.8377 -0.344399 41 121 142 255 
-7.30704 1.83774 -0.414654 40 124 142 255 
-7.34258 1.85496 -0.488414 43 116 142 255 
-7.37018 1.84263 -0.551226 43 117 142 255 
-7.36779 1.85035 -0.621884 41 122 142 255 
-7.39881 1.86494 -0.69709 50 101 142 255 
-7.3477 1.85625 -0.764455 62 74 137 255 
-7.22263 1.80975 -0.811514 54 92 141 255 
-7.21456 1.81321 -0.881771 54 93 141 255 
-7.20173 1.8166 -0.95146 56 89 140 255 
-7.18085 1.81677 -1.01992 62 74 137 255 
-7.19393 1.80656 -1.08339 49 103 142 255 
-7.18772 1.80913 -1.15272 55 91 141 255 
-7.16339 1.80826 -1.21912 60 80 139 255 
-7.15074 1.80915 -1.28998 62 73 137 255 
-7.0685 1.7803 -1.33783 65 66 135 255 
-6.63592 1.67394 -1.32038 70 51 127 255 
-6.29522 1.58911 -1.31741 71 46 124 255 
-5.99645 1.516 -1.31807 69 56 130 255 
-5.69266 1.43694 -1.30269 68 59 132 255 
-5.47833 1.38396 -1.30866 69 53 129 255 
-5.22442 1.32074 -1.30269 68 57 131 255 
-5.00051 1.26235 -1.30119 69 56 130 255 
-4.77558 1.20988 -1.28784 69 55 129 255 
-4.62721 1.17239 -1.29512 71 45 123 255 
-4.42199 1.11871 -1.28556 71 47 125 255 
-4.26564 1.07526 -1.28888 69 55 129 255 
-17.5334 4.48175 5.43628 61 77 138 255 
-17.5468 4.46914 5.23659 59 81 139 255 
-17.5271 4.45746 5.03923 57 86 140 255 
-17.5311 4.45884 4.85715 57 85 140 255 
-17.5463 4.47528 4.69991 64 70 136 255 
-17.5294 4.46797 4.50359 61 78 138 255 
-17.5367 4.47294 4.32161 62 76 138 255 
-17.5144 4.47083 4.13995 63 71 136 255 
-17.5051 4.46152 3.985 59 81 139 255 
-17.4953 4.46254 3.79501 60 79 138 255 
-17.4898 4.47073 3.61702 54 92 141 255 
-17.4828 4.47574 3.44257 57 85 140 255 
-17.5042 4.4613 3.29578 56 89 140 255 
-17.4866 4.46357 3.11407 54 92 141 255 
-17.4763 4.47377 2.93474 56 89 140 255 
-17.4735 4.48959 2.76711 57 86 140 255 
-17.4745 4.45698 2.61801 52 97 141 255 
-17.4571 4.45927 2.43928 54 92 141 255 
-17.4499 4.47675 2.26624 54 93 141 255 
-17.4621 4.49315 2.10219 61 78 138 255 
-17.4661 4.45483 1.95499 59 81 139 255 
-17.4638 4.47073 1.78345 60 80 139 255 
-17.4396 4.47734 1.61008 60 79 138 255 
-17.4446 4.49839 1.44315 60 79 138 255 
-17.4545 4.45511 1.30075 58 84 140 255 
-17.423 4.46352 1.12841 60 80 139 255 
-17.4317 4.48505 0.959063 67 61 132 255 
-17.427 4.50033 0.788988 66 64 134 255 
-17.3438 4.43329 0.643901 68 58 131 255 
-17.1455 4.39881 0.469694 71 42 122 255 
-14.1755 3.64989 0.250394 51 99 141 255 
-7.38869 1.91079 0.059941 49 104 142 255 
-7.37843 1.88739 -0.00132924 47 107 142 255 
-7.39642 1.90036 -0.0733088 54 92 141 255 
-7.45673 1.92272 -0.145171 48 105 142 255 
-7.46658 1.93371 -0.218136 50 100 142 255 
-7.30095 1.87164 -0.273736 45 112 142 255 
-7.3178 1.88288 -0.344444 41 122 142 255 
-7.285 1.8798 -0.41405 41 121 142 255 
-7.3214 1.89747 -0.48777 42 118 142 255 
-7.33941 1.88286 -0.549779 41 122 142 255 
-7.34182 1.8918 -0.62066 41 121 142 255 
-7.35637 1.90232 -0.694179 52 97 141 255 
-7.3275 1.89905 -0.763552 57 85 140 255 
-7.19694 1.85032 -0.809889 55 91 141 255 
