ply
format ascii 1.0
comment VTK generated PLY File
obj_info vtkPolyData points and polygons: vtk4.0
element vertex 1222
property float x
property float y
property float z
property uchar red
property uchar green
property uchar blue
property uchar alpha
element face 0
property list uchar int vertex_indices
end_header
12.8266 -12.3222 4.07364 72 40 120 255 
9.63494 -9.2492 2.94626 72 32 113 255 
8.50545 -8.16801 2.47859 52 97 141 255 
8.4647 -8.13725 2.3526 60 80 139 255 
9.54737 -9.18477 2.52721 68 57 131 255 
9.22377 -8.85449 2.33282 67 61 132 255 
9.32156 -8.95486 2.23038 56 88 140 255 
10.4905 -10.0918 2.36809 70 50 126 255 
11.0055 -10.606 2.34428 72 40 120 255 
9.63269 -9.25027 1.93876 71 19 101 255 
10.8841 -10.4596 2.04365 65 68 135 255 
10.8002 -10.4005 1.88619 72 32 113 255 
11.0034 -10.6114 1.78222 72 24 106 255 
21.8507 -20.9832 3.28567 72 27 109 255 
21.1951 -20.3898 2.90963 71 14 97 255 
19.0923 -18.3923 2.37064 72 24 106 255 
18.9931 -18.3356 2.11477 71 19 101 255 
18.5425 -17.8125 1.8566 72 31 112 255 
18.0056 -17.3275 1.56779 72 36 117 255 
18.1857 -17.5373 1.34615 72 26 108 255 
18.1799 -17.5628 1.10807 72 23 105 255 
17.9745 -17.279 0.896818 71 42 122 255 
18.1164 -17.4464 0.667391 72 29 111 255 
18.3109 -17.6641 0.435213 72 26 108 255 
18.5653 -17.9476 0.202811 72 28 110 255 
0 -0 -0 68 2 86 255 
0 -0 -0 69 4 87 255 
0 -0 -0 68 2 86 255 
42.6385 -41.2486 -1.67783 69 5 89 255 
11.1104 -10.6954 -0.560103 72 23 105 255 
11.1398 -10.7428 -0.705464 72 35 116 255 
10.8815 -10.5082 -0.832495 66 64 134 255 
11.027 -10.6713 -0.989635 72 38 119 255 
11.8324 -11.3944 -1.1919 72 24 106 255 
10.0362 -9.68523 -1.14178 72 31 112 255 
9.01579 -8.71559 -1.14562 68 59 132 255 
8.48602 -8.21228 -1.19119 70 50 126 255 
7.84921 -7.56657 -1.18823 72 36 117 255 
7.27813 -7.02609 -1.19912 71 47 125 255 
6.75166 -6.52912 -1.20317 71 47 125 255 
6.30944 -6.11018 -1.20939 70 50 126 255 
5.93977 -5.73188 -1.20566 66 63 133 255 
5.57448 -5.3852 -1.20543 69 56 130 255 
5.26964 -5.09774 -1.20984 65 66 135 255 
4.97174 -4.81471 -1.21039 68 59 132 255 
4.75369 -4.59372 -1.21327 62 76 138 255 
4.52367 -4.37465 -1.21411 62 73 137 255 
4.3108 -4.17017 -1.21699 59 82 139 255 
4.09886 -3.96802 -1.21574 66 63 133 255 
3.95113 -3.82217 -1.21973 59 81 139 255 
3.7664 -3.64487 -1.2139 66 64 134 255 
3.60989 -3.49457 -1.21457 64 70 136 255 
3.45655 -3.34389 -1.21337 62 73 137 255 
3.3315 -3.22838 -1.21272 62 73 137 255 
3.20819 -3.10901 -1.21211 66 65 134 255 
3.09692 -2.99904 -1.21503 64 69 136 255 
2.98063 -2.88147 -1.21465 65 66 135 255 
8.85052 -8.61316 3.70983 71 46 124 255 
9.3761 -9.109 3.78054 72 33 115 255 
8.15994 -7.92181 3.16891 72 32 113 255 
10.7025 -10.3905 4.00527 72 31 112 255 
10.7643 -10.4646 3.8965 70 52 128 255 
8.03471 -7.80854 2.78932 72 24 106 255 
8.29145 -8.06073 2.76131 72 29 111 255 
9.61877 -9.35473 3.07304 71 46 124 255 
9.60462 -9.33401 2.95445 68 57 131 255 
8.93372 -8.68528 2.61887 69 56 130 255 
8.78633 -8.55079 2.45653 63 71 136 255 
9.05383 -8.81759 2.41085 70 48 126 255 
9.12411 -8.86704 2.32133 55 91 141 255 
9.24807 -8.99403 2.22596 53 95 141 255 
10.4369 -10.1642 2.37002 70 10 93 255 
10.5129 -10.2564 2.25271 71 47 125 255 
22.8952 -22.2579 4.63551 70 10 93 255 
10.6656 -10.3763 2.01453 68 58 131 255 
10.8534 -10.5809 1.90678 65 66 135 255 
11.1037 -10.8404 1.80921 66 63 133 255 
21.6538 -21.051 3.27543 72 24 106 255 
21.2984 -20.7423 2.94123 72 24 106 255 
21.2602 -20.7337 2.65557 71 16 99 255 
18.5466 -18.1257 2.0774 72 27 109 255 
18.7603 -18.2445 1.88958 72 27 109 255 
18.4143 -17.9398 1.61293 72 36 117 255 
18.2693 -17.8355 1.36041 72 37 118 255 
18.0604 -17.6629 1.10737 72 31 112 255 
17.8524 -17.3736 0.896027 72 28 110 255 
17.9525 -17.5021 0.665296 72 24 106 255 
19.861 -19.3962 0.474876 71 14 97 255 
18.2761 -17.8863 0.200848 69 5 89 255 
0 -0 -0 68 2 86 255 
0 -0 -0 69 4 87 255 
0 -0 -0 69 4 87 255 
42.3874 -41.5123 -1.67794 70 7 90 255 
11.1355 -10.852 -0.564712 72 23 105 255 
10.84 -10.5828 -0.690574 71 19 101 255 
20.7855 -20.3203 -1.59971 71 16 99 255 
12.8746 -12.6132 -1.16237 71 19 101 255 
11.5566 -11.2663 -1.17106 72 31 112 255 
10.3216 -10.0837 -1.18127 72 33 115 255 
8.98278 -8.79095 -1.14826 62 76 138 255 
8.40918 -8.23844 -1.18748 69 56 130 255 
7.8809 -7.69097 -1.20015 72 41 121 255 
7.25903 -7.09421 -1.20312 70 48 126 255 
6.74124 -6.59957 -1.20851 71 46 124 255 
6.28598 -6.16265 -1.21211 68 59 132 255 
5.90024 -5.76407 -1.20479 69 56 130 255 
5.54558 -5.42345 -1.20635 68 59 132 255 
5.25236 -5.14378 -1.21309 66 63 133 255 
4.94351 -4.84651 -1.21073 68 59 132 255 
4.73526 -4.63243 -1.2158 62 74 137 255 
4.50587 -4.41126 -1.21657 62 73 137 255 
4.29423 -4.20546 -1.21958 63 71 136 255 
4.08631 -4.00474 -1.21928 59 82 139 255 
3.93598 -3.85453 -1.22233 62 73 137 255 
3.74605 -3.66996 -1.21457 64 70 136 255 
3.58838 -3.51666 -1.21457 64 69 136 255 
3.4526 -3.38131 -1.21924 65 68 135 255 
3.32268 -3.2596 -1.21677 62 74 137 255 
3.19456 -3.13404 -1.21421 64 69 136 255 
3.07159 -3.01124 -1.21232 65 66 135 255 
2.97113 -2.90776 -1.21803 67 61 132 255 
8.75861 -8.62899 3.69343 72 40 120 255 
11.1117 -10.9285 4.50731 69 56 130 255 
11.6329 -11.4329 4.54481 72 20 103 255 
10.6523 -10.4695 4.01046 72 33 115 255 
10.724 -10.5542 3.90529 71 46 124 255 
12.2193 -12.022 4.26757 71 17 100 255 
9.50074 -9.35045 3.18309 66 64 134 255 
9.53827 -9.391 3.06567 65 66 135 255 
8.93668 -8.79215 2.76553 69 5 89 255 
8.95977 -8.81819 2.64232 62 73 137 255 
8.93485 -8.80272 2.51311 52 97 141 255 
9.07301 -8.94539 2.43052 71 42 122 255 
9.13896 -8.99116 2.3391 62 74 137 255 
9.08317 -8.94275 2.19944 62 76 138 255 
11.0266 -10.8711 2.51903 72 41 121 255 
10.4315 -10.3027 2.24877 72 40 120 255 
10.7013 -10.5319 2.17969 72 31 112 255 
10.5657 -10.406 2.00769 70 48 126 255 
10.861 -10.7191 1.91964 69 56 130 255 
11.049 -10.9202 1.81117 67 62 133 255 
11.014 -10.8397 1.67604 68 57 131 255 
21.0552 -20.7587 2.92519 72 32 113 255 
18.6121 -18.3753 2.33884 71 13 96 255 
18.4754 -18.2791 2.08195 72 29 111 255 
18.6423 -18.3536 1.889 72 29 111 255 
18.3878 -18.1351 1.62032 71 42 122 255 
18.3428 -18.1284 1.37413 72 29 111 255 
18.2449 -18.0637 1.12546 72 31 112 255 
19.5459 -19.2566 0.986934 70 10 93 255 
19.5737 -19.3182 0.729754 71 14 97 255 
19.6883 -19.4649 0.473593 72 32 113 255 
0 -0 0 68 2 86 255 
0 -0 -0 69 4 87 255 
0 -0 -0 68 2 86 255 
47.3201 -46.816 -1.25487 69 5 89 255 
42.2426 -41.8814 -1.68235 70 8 92 255 
0 -0 -0 69 4 87 255 
21.9426 -21.6865 -1.40633 71 19 101 255 
20.0387 -19.8322 -1.55157 71 16 99 255 
12.8048 -12.6997 -1.16308 72 20 103 255 
11.4404 -11.2908 -1.16628 72 32 113 255 
10.3701 -10.2562 -1.194 67 62 133 255 
9.05602 -8.97206 -1.16464 68 59 132 255 
8.35847 -8.28988 -1.18748 70 48 126 255 
7.83568 -7.74128 -1.20048 72 37 118 255 
7.22736 -7.15049 -1.20512 71 45 123 255 
6.7288 -6.66874 -1.21359 70 48 126 255 
6.26071 -6.21366 -1.21457 69 53 129 255 
5.87321 -5.80852 -1.20653 69 56 130 255 
5.53256 -5.47754 -1.21081 67 61 132 255 
5.2172 -5.17244 -1.21228 67 61 132 255 
4.92906 -4.89202 -1.21452 67 61 132 255 
4.72212 -4.67662 -1.21977 60 79 138 255 
4.49476 -4.45472 -1.22093 64 69 136 255 
4.26556 -4.22897 -1.21878 65 68 135 255 
4.09707 -4.06487 -1.22991 59 81 139 255 
3.91295 -3.8793 -1.22255 62 76 138 255 
3.72277 -3.69219 -1.21435 62 76 138 255 
3.57709 -3.54888 -1.2181 63 72 137 255 
3.43592 -3.40653 -1.22071 63 71 136 255 
3.32252 -3.2997 -1.2241 62 76 138 255 
3.17596 -3.15427 -1.21447 66 63 133 255 
3.06808 -3.04495 -1.21828 66 64 134 255 
2.94777 -2.92053 -1.21578 66 63 133 255 
8.83366 -8.8104 3.7478 62 76 138 255 
11.5414 -11.4913 4.71012 72 27 109 255 
11.4233 -11.3655 4.49005 72 36 117 255 
10.5365 -10.4836 3.99101 70 50 126 255 
10.6535 -10.6144 3.90328 71 42 122 255 
9.35048 -9.3131 3.28553 66 63 133 255 
9.44457 -9.40994 3.18355 60 79 138 255 
9.51292 -9.48169 3.07616 71 17 100 255 
0 -0 0 68 1 84 255 
8.93738 -8.90477 2.65178 59 81 139 255 
8.96398 -8.94047 2.53669 57 86 140 255 
11.0369 -11.016 2.97468 72 35 116 255 
9.21327 -9.1762 2.37249 60 79 138 255 
9.08396 -9.05397 2.21304 60 80 139 255 
9.28864 -9.27075 2.13494 56 89 140 255 
10.4568 -10.4553 2.26802 72 33 115 255 
22.5236 -22.4408 4.61568 71 14 97 255 
21.8595 -21.795 4.17906 71 19 101 255 
10.5332 -10.5239 1.87308 72 40 120 255 
11.1159 -11.1219 1.83329 68 59 132 255 
10.9367 -10.8965 1.67443 72 32 113 255 
21.0113 -20.9712 2.9369 72 26 108 255 
20.8696 -20.8585 2.63855 72 29 111 255 
18.4784 -18.5078 2.09505 71 19 101 255 
19.1991 -19.1352 1.95728 71 17 100 255 
19.4987 -19.4683 1.72871 72 27 109 255 
19.967 -19.9773 1.50497 72 27 109 255 
19.7757 -19.821 1.22736 72 35 116 255 
19.6658 -19.614 0.999048 72 27 109 255 
19.7136 -19.6966 0.739462 72 24 106 255 
19.5833 -19.6002 0.473952 72 24 106 255 
19.5753 -19.6339 0.217757 70 8 92 255 
0 -0 -0 68 2 86 255 
0 -0 -0 68 2 86 255 
0 -0 -0 68 1 84 255 
42.0646 -42.2198 -1.68555 70 10 93 255 
42.1674 -42.115 -2.16448 70 7 90 255 
21.8254 -21.837 -1.40738 71 17 100 255 
19.5104 -19.5477 -1.51992 72 27 109 255 
12.7766 -12.8282 -1.16765 71 14 97 255 
11.3561 -11.346 -1.16476 72 28 110 255 
10.2182 -10.2308 -1.18372 70 50 126 255 
9.12736 -9.15439 -1.18101 66 65 134 255 
8.38679 -8.42067 -1.19882 70 50 126 255 
7.79366 -7.79483 -1.20134 72 35 116 255 
7.2058 -7.21719 -1.20889 71 44 122 255 
6.69685 -6.71904 -1.21525 70 48 126 255 
6.24343 -6.27302 -1.21866 70 48 126 255 
5.84864 -5.85564 -1.20884 68 58 131 255 
5.52327 -5.53586 -1.21619 65 66 135 255 
5.20417 -5.22323 -1.21667 66 64 134 255 
4.90659 -4.92985 -1.21642 67 62 133 255 
4.69611 -4.70829 -1.22049 62 73 137 255 
4.48883 -4.50377 -1.2268 62 76 138 255 
4.21256 -4.22799 -1.21103 65 68 135 255 
4.0617 -4.07953 -1.22678 63 72 137 255 
3.89252 -3.90669 -1.22363 62 74 137 255 
3.70899 -3.72393 -1.21728 62 74 137 255 
3.54564 -3.56112 -1.21481 64 70 136 255 
3.43822 -3.4509 -1.22902 63 71 136 255 
3.28516 -3.30287 -1.21778 63 72 137 255 
3.16607 -3.18327 -1.21814 66 63 133 255 
3.05545 -3.06986 -1.22073 66 63 133 255 
2.92709 -2.93584 -1.21465 66 65 134 255 
8.86368 -8.94949 3.78376 72 31 112 255 
10.9199 -11.0067 4.48398 72 33 115 255 
11.2664 -11.3479 4.4557 71 46 124 255 
10.4767 -10.5529 3.99282 63 71 136 255 
10.4499 -10.54 3.85228 65 66 135 255 
9.31024 -9.38753 3.29157 62 74 137 255 
10.9014 -10.9956 3.6973 72 27 109 255 
9.3139 -9.39795 3.0304 70 11 94 255 
0 -0 0 68 2 86 255 
8.89084 -8.96778 2.65425 64 70 136 255 
8.89102 -8.97719 2.53158 69 56 130 255 
26.7149 -26.9936 7.24472 69 5 89 255 
9.15471 -9.23046 2.37195 62 73 137 255 
9.22593 -9.30902 2.2615 69 56 130 255 
9.33573 -9.4328 2.15903 62 73 137 255 
8.94962 -9.05876 1.95314 71 19 101 255 
9.05649 -9.13461 1.86736 50 101 142 255 
10.4358 -10.5335 2.00742 72 36 117 255 
10.6686 -10.7909 1.9089 65 68 135 255 
11.0914 -11.2345 1.84059 69 56 130 255 
11.0433 -11.1385 1.70117 70 51 127 255 
20.9382 -21.1563 2.94478 72 28 110 255 
20.9534 -21.2008 2.66554 71 16 99 255 
20.115 -20.3959 2.29476 71 14 97 255 
20.732 -20.9181 2.1266 72 23 105 255 
19.7593 -19.9721 1.76265 72 35 116 255 
19.9283 -20.1847 1.51136 72 23 105 255 
19.8571 -20.1483 1.24006 72 23 105 255 
19.7265 -19.9175 1.00832 72 29 111 255 
19.766 -19.9927 0.746014 71 16 99 255 
19.7464 -20.0075 0.480862 72 23 105 255 
19.5962 -19.8975 0.219344 72 27 109 255 
0 -0 -0 69 4 87 255 
0 -0 -0 68 2 86 255 
0 -0 -0 68 2 86 255 
41.9274 -42.6018 -1.6905 70 7 90 255 
42.0424 -42.5087 -2.17141 70 8 92 255 
21.611 -21.8894 -1.40219 72 20 103 255 
18.9771 -19.2482 -1.48756 72 24 106 255 
12.7613 -12.9711 -1.17351 72 20 103 255 
11.3312 -11.4608 -1.16939 72 31 112 255 
10.2763 -10.416 -1.19783 71 45 123 255 
9.06682 -9.20597 -1.18047 68 57 131 255 
8.34124 -8.47835 -1.19972 68 59 132 255 
7.78061 -7.87787 -1.20676 72 33 115 255 
7.17254 -7.27258 -1.21077 70 50 126 255 
6.66942 -6.77414 -1.21779 71 44 122 255 
6.21732 -6.32393 -1.22112 70 48 126 255 
5.82442 -5.9034 -1.2113 68 58 131 255 
5.50654 -5.58724 -1.22003 67 62 133 255 
5.18171 -5.2649 -1.21895 66 63 133 255 
4.88937 -4.97321 -1.21969 67 61 132 255 
4.66852 -4.73842 -1.22085 61 78 138 255 
4.45491 -4.52493 -1.2251 59 82 139 255 
4.19066 -4.25795 -1.21222 65 66 135 255 
4.02905 -4.09671 -1.22449 63 72 137 255 
3.85477 -3.91659 -1.2193 63 72 137 255 
3.69221 -3.75287 -1.21931 63 72 137 255 
3.53259 -3.59181 -1.21786 62 73 137 255 
3.38841 -3.44291 -1.21875 63 71 136 255 
3.26415 -3.32228 -1.21753 64 70 136 255 
3.15257 -3.20884 -1.22049 67 62 133 255 
3.03116 -3.08306 -1.21856 66 63 133 255 
2.90229 -2.94691 -1.21184 67 61 132 255 
8.68671 -8.87911 3.7314 72 41 121 255 
10.7957 -11.0159 4.46064 66 65 134 255 
10.6239 -10.8329 4.22781 72 35 116 255 
10.7898 -11.0024 4.13779 62 73 137 255 
9.27024 -9.46567 3.43876 64 69 136 255 
10.8062 -11.0305 3.84431 72 35 116 255 
9.26986 -9.46537 3.16358 61 77 138 255 
0 -0 0 68 2 86 255 
9.26195 -9.45391 2.91955 71 14 97 255 
0 -0 0 68 1 84 255 
8.83439 -9.03017 2.53119 71 42 122 255 
8.99814 -9.2043 2.45544 71 14 97 255 
9.01597 -9.20283 2.35059 71 42 122 255 
9.05283 -9.24715 2.23293 68 57 131 255 
9.23352 -9.44473 2.14875 59 81 139 255 
9.16173 -9.38798 2.01196 72 28 110 255 
9.00304 -9.19283 1.86794 52 96 141 255 
22.3313 -22.8187 4.32247 72 22 104 255 
10.6147 -10.8689 1.91115 61 77 138 255 
10.7185 -10.9908 1.78987 69 56 130 255 
11.1653 -11.4007 1.73071 71 42 122 255 
20.8393 -21.3164 2.94921 72 32 113 255 
21.7448 -22.2733 2.78356 71 19 101 255 
22.2863 -22.8765 2.55843 70 11 94 255 
20.6876 -21.1311 2.13531 72 23 105 255 
24.5152 -25.0851 2.20059 70 8 92 255 
20.412 -20.93 1.55775 72 28 110 255 
20.4453 -21.0014 1.28482 72 20 103 255 
19.8744 -20.3146 1.02223 72 31 112 255 
19.895 -20.3718 0.75559 71 17 100 255 
19.6945 -20.2013 0.482606 72 24 106 255 
19.6153 -20.1629 0.220938 72 32 113 255 
35.5499 -36.35 -0.00887395 70 8 92 255 
0 -0 -0 68 2 86 255 
0 -0 -0 68 2 86 255 
41.6736 -42.8669 -1.69083 70 10 93 255 
41.7689 -42.7537 -2.1708 70 10 93 255 
14.0922 -14.4501 -0.920082 72 20 103 255 
14.1487 -14.5281 -1.11604 72 37 118 255 
12.7045 -13.0728 -1.17563 72 20 103 255 
11.2997 -11.5701 -1.17344 72 22 104 255 
10.1267 -10.3911 -1.1878 72 27 109 255 
9.04766 -9.29997 -1.18538 68 57 131 255 
8.296 -8.53651 -1.20073 69 53 129 255 
7.71199 -7.90483 -1.20362 72 31 112 255 
7.15689 -7.34633 -1.21572 69 56 130 255 
6.63879 -6.82631 -1.21982 72 41 121 255 
6.18047 -6.36409 -1.22153 70 50 126 255 
5.7943 -5.9454 -1.2126 68 59 132 255 
5.48732 -5.6365 -1.22341 66 64 134 255 
5.15481 -5.30226 -1.22026 66 63 133 255 
4.87661 -5.02149 -1.22417 68 58 131 255 
4.65239 -4.78037 -1.22428 59 82 139 255 
4.42021 -4.54514 -1.2232 61 77 138 255 
4.1829 -4.30255 -1.21759 62 76 138 255 
4.00316 -4.12065 -1.22428 61 77 138 255 
3.84632 -3.95627 -1.22428 62 73 137 255 
3.67659 -3.78314 -1.22179 63 71 136 255 
3.51793 -3.62109 -1.22045 65 68 135 255 
3.37195 -3.4685 -1.22046 62 73 137 255 
3.24303 -3.34155 -1.21727 61 77 138 255 
3.14223 -3.23782 -1.22416 66 65 134 255 
3.02091 -3.11057 -1.22208 67 61 132 255 
2.90356 -2.98461 -1.21999 69 56 130 255 
9.31491 -9.63884 4.02658 72 32 113 255 
10.6812 -11.0336 4.44119 72 38 119 255 
9.07667 -9.36949 3.63488 53 95 141 255 
9.12478 -9.41953 3.52137 49 103 142 255 
10.0788 -10.4184 3.76234 71 44 122 255 
8.9568 -9.25561 3.20653 70 50 126 255 
9.21972 -9.53046 3.16636 67 62 133 255 
11.9856 -12.3943 3.94885 70 7 90 255 
0 -0 0 68 1 84 255 
11.4467 -11.8327 3.46035 72 27 109 255 
26.2295 -27.1419 7.56271 71 13 96 255 
11.6982 -12.114 3.21247 72 26 108 255 
8.96207 -9.26081 2.35131 70 51 127 255 
9.04318 -9.3514 2.24467 69 53 129 255 
9.06911 -9.39116 2.12386 51 99 141 255 
9.00037 -9.33656 1.98907 55 90 140 255 
8.96917 -9.27137 1.87268 72 33 115 255 
22.2198 -22.9852 4.32811 71 19 101 255 
10.4224 -10.8039 1.88843 68 58 131 255 
10.6632 -11.0693 1.79195 70 50 126 255 
11.0993 -11.4733 1.73136 72 26 108 255 
11.0481 -11.4406 1.57345 63 71 136 255 
20.6799 -21.4442 2.66403 71 13 96 255 
20.2828 -21.0772 2.34323 71 16 99 255 
22.1759 -22.9311 2.30341 70 7 90 255 
20.391 -21.1228 1.84198 72 31 112 255 
20.2243 -20.9937 1.55323 72 33 115 255 
20.2045 -21.0105 1.27777 72 31 112 255 
19.9188 -20.6115 1.031 72 23 105 255 
19.6003 -20.318 0.749118 72 27 109 255 
19.4578 -20.2051 0.479836 72 31 112 255 
19.6173 -20.4141 0.222367 72 31 112 255 
19.432 -20.1148 -0.00488134 72 22 104 255 
0 -0 -0 68 2 86 255 
0 -0 -0 68 2 86 255 
13.7033 -14.2699 -0.559531 70 11 94 255 
13.95 -14.4553 -0.7296 72 38 119 255 
13.9749 -14.5068 -0.918215 71 14 97 255 
18.6412 -19.3775 -1.47975 72 29 111 255 
12.6627 -13.1908 -1.17923 71 19 101 255 
11.243 -11.6543 -1.17496 72 26 108 255 
10.0717 -10.4624 -1.18886 70 48 126 255 
9.04632 -9.41347 -1.19275 63 72 137 255 
8.29307 -8.63893 -1.20795 64 70 136 255 
7.68473 -7.97419 -1.20698 72 41 121 255 
7.09928 -7.37723 -1.2136 71 45 123 255 
6.59884 -6.86906 -1.2202 72 41 121 255 
6.15434 -6.41548 -1.22412 71 46 124 255 
5.77006 -5.99367 -1.2152 67 62 133 255 
5.46222 -5.68004 -1.22556 68 58 131 255 
5.13653 -5.34873 -1.22368 64 69 136 255 
4.86275 -5.06909 -1.22848 65 66 135 255 
4.61002 -4.79536 -1.22085 58 84 140 255 
4.39292 -4.57289 -1.22339 59 82 139 255 
4.16864 -4.34086 -1.22117 63 71 136 255 
3.97102 -4.13808 -1.2222 63 71 136 255 
3.82671 -3.98472 -1.2258 63 71 136 255 
3.64926 -3.80141 -1.22044 65 68 135 255 
3.49296 -3.6398 -1.21951 65 68 135 255 
3.3533 -3.49193 -1.22144 65 66 135 255 
3.23318 -3.37256 -1.22132 62 76 138 255 
3.12097 -3.25564 -1.22364 67 62 133 255 
3.00843 -3.136 -1.2248 65 66 135 255 
2.8812 -2.99822 -1.21831 68 58 131 255 
8.57709 -8.98504 3.7314 70 50 126 255 
8.90236 -9.30977 3.72526 62 73 137 255 
9.04299 -9.45007 3.64455 59 81 139 255 
9.15562 -9.56815 3.55586 72 36 117 255 
10.2066 -10.6809 3.83444 72 36 117 255 
8.94343 -9.35599 3.22224 60 79 138 255 
10.2463 -10.7225 3.54146 64 70 136 255 
11.8897 -12.4472 3.94237 72 22 104 255 
11.2593 -11.7784 3.59445 70 7 90 255 
11.3536 -11.8815 3.45418 69 55 129 255 
11.5184 -12.0664 3.34237 71 47 125 255 
8.81468 -9.24081 2.43614 55 91 141 255 
8.99345 -9.40807 2.37464 50 100 142 255 
9.38655 -9.82642 2.34482 72 41 121 255 
9.08694 -9.52591 2.14169 61 78 138 255 
8.92655 -9.37443 1.98543 69 56 130 255 
10.1947 -10.6685 2.14219 71 42 122 255 
9.10483 -9.53482 1.78485 69 55 129 255 
10.2204 -10.7254 1.86372 64 69 136 255 
10.6033 -11.1431 1.79334 69 53 129 255 
10.9202 -11.4276 1.71432 62 76 138 255 
10.9179 -11.4456 1.56488 71 14 97 255 
20.1618 -21.1654 2.61397 71 16 99 255 
23.9392 -25.1843 2.78345 70 7 90 255 
20.3682 -21.3221 2.12919 71 16 99 255 
20.2176 -21.202 1.83804 72 31 112 255 
20.2135 -21.2419 1.56238 71 19 101 255 
20.0856 -21.1449 1.27843 72 32 113 255 
20.1053 -21.0615 1.04732 72 28 110 255 
19.7601 -20.7367 0.760073 72 29 111 255 
19.8689 -20.887 0.493125 71 16 99 255 
19.8463 -20.9076 0.226412 72 22 104 255 
19.2772 -20.2011 -0.00487348 72 23 105 255 
0 -0 -0 68 2 86 255 
13.443 -14.1417 -0.367827 72 24 106 255 
13.5763 -14.3123 -0.55792 70 10 93 255 
41.4411 -43.4728 -2.18132 69 5 89 255 
25.0104 -26.2833 -1.65387 71 16 99 255 
18.5543 -19.5255 -1.48234 72 33 115 255 
12.6433 -13.3334 -1.18503 72 20 103 255 
11.1795 -11.7317 -1.17583 72 22 104 255 
9.95788 -10.472 -1.18298 71 42 122 255 
9.07889 -9.56414 -1.20476 66 64 134 255 
8.27482 -8.72647 -1.21307 59 81 139 255 
7.70283 -8.09176 -1.2176 71 46 124 255 
7.11751 -7.48759 -1.22454 71 42 122 255 
6.56681 -6.92021 -1.22211 68 59 132 255 
6.13189 -6.4711 -1.22753 70 50 126 255 
5.74545 -6.04187 -1.2178 68 58 131 255 
5.43543 -5.72204 -1.22741 66 65 134 255 
5.1233 -5.40091 -1.2284 66 65 134 255 
4.83494 -5.1024 -1.22934 64 69 136 255 
4.58322 -4.8264 -1.22157 61 77 138 255 
4.36884 -4.60403 -1.22453 61 77 138 255 
4.15002 -4.37489 -1.22355 62 73 137 255 
3.95094 -4.16805 -1.22386 61 78 138 255 
3.81495 -4.02158 -1.22991 62 73 137 255 
3.63458 -3.83292 -1.22337 64 70 136 255 
3.45785 -3.64776 -1.21504 66 63 133 255 
3.33181 -3.51244 -1.22144 64 69 136 255 
3.22307 -3.40358 -1.22537 62 73 137 255 
3.09828 -3.27193 -1.22259 66 65 134 255 
2.98714 -3.1523 -1.22398 66 64 134 255 
2.8601 -3.01306 -1.21718 69 55 129 255 
8.39631 -8.90442 3.67645 66 63 133 255 
8.5324 -9.0332 3.59357 70 50 126 255 
8.20731 -8.68281 3.32916 60 80 139 255 
10.5708 -11.1837 4.13208 72 40 120 255 
10.1415 -10.744 3.8347 71 42 122 255 
8.78592 -9.30486 3.186 64 70 136 255 
8.96854 -9.50142 3.11991 68 58 131 255 
12.0138 -12.7326 4.00935 72 31 112 255 
11.1251 -11.7819 3.57463 72 35 116 255 
11.5492 -12.2356 3.53646 71 45 123 255 
8.80794 -9.34107 2.57244 69 55 129 255 
8.80093 -9.34048 2.44814 59 81 139 255 
8.92543 -9.45235 2.37195 55 90 140 255 
9.52018 -10.0895 2.39362 56 88 140 255 
8.98974 -9.54054 2.13253 72 35 116 255 
8.86683 -9.42687 1.98498 53 94 141 255 
8.9342 -9.46494 1.88949 59 81 139 255 
9.2991 -9.85868 1.83476 72 23 105 255 
10.2048 -10.8414 1.87296 71 46 124 255 
10.2266 -10.8801 1.74088 69 53 129 255 
10.886 -11.5327 1.72004 69 56 130 255 
10.8059 -11.4682 1.55888 63 71 136 255 
10.828 -11.5075 1.41298 72 35 116 255 
20.1065 -21.4139 2.35305 72 24 106 255 
20.1001 -21.3016 2.11479 71 14 97 255 
19.9907 -21.2233 1.82921 71 19 101 255 
23.2761 -24.7627 1.81081 70 10 93 255 
20.0067 -21.3224 1.28171 72 26 108 255 
20.0127 -21.2238 1.04926 70 11 94 255 
19.7908 -21.0257 0.7662 72 23 105 255 
20.0663 -21.3554 0.501266 71 19 101 255 
33.1112 -35.3134 0.380207 70 7 90 255 
19.4704 -20.6559 -0.00495429 70 7 90 255 
13.1822 -14.0146 -0.184698 71 42 122 255 
13.0904 -13.9411 -0.360514 70 51 127 255 
13.1253 -14.008 -0.542908 67 62 133 255 
13.1173 -13.9306 -0.694938 72 24 106 255 
13.152 -13.9922 -0.875364 70 51 127 255 
13.13 -13.9881 -1.05581 68 59 132 255 
12.5838 -13.4348 -1.18715 71 17 100 255 
11.1613 -11.8575 -1.18155 72 26 108 255 
10.0429 -10.692 -1.20085 72 38 119 255 
9.11881 -9.72501 -1.21795 70 52 128 255 
8.26193 -8.82065 -1.21909 62 74 137 255 
7.66461 -8.15118 -1.21944 71 44 122 255 
7.06871 -7.52822 -1.22407 71 42 122 255 
6.53779 -6.97485 -1.22465 71 47 125 255 
6.09681 -6.51366 -1.22848 71 46 124 255 
5.7286 -6.09865 -1.22214 66 63 133 255 
5.4036 -5.75889 -1.22818 65 66 135 255 
5.09277 -5.43512 -1.22905 65 68 135 255 
4.81297 -5.14204 -1.23175 68 58 131 255 
4.5663 -4.86807 -1.225 60 80 139 255 
4.32774 -4.61714 -1.22093 62 73 137 255 
4.11439 -4.39097 -1.22097 60 80 139 255 
3.94334 -4.21149 -1.22949 62 73 137 255 
3.78486 -4.03922 -1.22818 63 72 137 255 
3.61898 -3.86368 -1.22608 60 79 138 255 
3.43939 -3.67317 -1.21645 63 71 136 255 
3.31152 -3.53423 -1.22193 64 70 136 255 
3.21072 -3.43247 -1.22865 64 69 136 255 
3.05639 -3.26762 -1.21395 66 63 133 255 
2.97366 -3.1769 -1.22642 66 65 134 255 
2.84156 -3.03055 -1.21718 68 57 131 255 
8.73643 -9.37976 3.85051 67 61 132 255 
8.16946 -8.75596 3.46328 69 53 129 255 
8.18149 -8.76258 3.34043 63 71 136 255 
8.28746 -8.87643 3.26075 71 14 97 255 
8.38299 -8.99087 3.19055 63 72 137 255 
8.6499 -9.27414 3.15725 62 76 138 255 
8.85767 -9.50007 3.10156 63 71 136 255 
11.3772 -12.2071 3.82182 72 36 117 255 
11.2451 -12.0563 3.63689 71 17 100 255 
11.265 -12.0822 3.47208 70 10 93 255 
9.38265 -10.0737 2.75829 68 58 131 255 
8.75148 -9.40293 2.45039 68 57 131 255 
10.5937 -11.358 2.83377 70 52 128 255 
9.46548 -10.1557 2.39549 58 83 139 255 
8.7925 -9.44668 2.09946 72 29 111 255 
8.79536 -9.46661 1.98194 64 69 136 255 
8.81521 -9.45444 1.87656 58 83 139 255 
9.20735 -9.8822 1.82859 71 17 100 255 
10.136 -10.9016 1.87258 72 29 111 255 
10.3286 -11.1246 1.76983 72 41 121 255 
10.9493 -11.7432 1.74139 72 31 112 255 
10.7177 -11.5153 1.55632 72 27 109 255 
19.9142 -21.4258 2.61575 71 16 99 255 
19.9693 -21.531 2.35241 70 10 93 255 
25.4836 -27.341 2.69879 70 7 90 255 
23.1736 -24.9069 2.1344 71 14 97 255 
23.3948 -25.197 1.83204 70 8 92 255 
22.958 -24.7706 1.48049 72 22 104 255 
23.1351 -24.8388 1.22094 70 11 94 255 
22.7571 -24.4764 0.88684 72 22 104 255 
20.0151 -21.5646 0.503284 72 22 104 255 
0 -0 0 69 4 87 255 
0 -0 -0 69 4 87 255 
13.0436 -14.0389 -0.183958 70 10 93 255 
0 -0 -0 68 1 84 255 
0 -0 -0 68 2 86 255 
13.0241 -14.0027 -0.694539 71 13 96 255 
26.8393 -28.9075 -1.79813 69 5 89 255 
18.3547 -19.7964 -1.48569 72 33 115 255 
12.5221 -13.5345 -1.18915 72 20 103 255 
11.0979 -11.9359 -1.18256 72 23 105 255 
10.013 -10.7921 -1.20517 72 37 118 255 
8.92159 -9.63246 -1.19948 69 55 129 255 
8.24887 -8.91573 -1.22522 64 70 136 255 
7.62189 -8.20607 -1.22063 72 40 120 255 
7.0386 -7.58893 -1.2269 71 45 123 255 
6.52722 -7.04977 -1.23075 71 45 123 255 
6.0769 -6.57277 -1.23258 70 48 126 255 
5.70789 -6.15182 -1.22575 68 57 131 255 
5.36413 -5.78759 -1.22725 68 59 132 255 
5.03452 -5.43948 -1.22302 63 71 136 255 
4.79069 -5.1816 -1.23416 66 65 134 255 
4.54236 -4.90249 -1.22663 63 71 136 255 
4.30334 -4.64793 -1.22207 60 79 138 255 
4.07738 -4.40535 -1.21799 61 77 138 255 
3.92075 -4.23919 -1.23053 55 91 141 255 
3.74608 -4.04732 -1.22363 63 71 136 255 
3.59984 -3.89082 -1.22766 62 73 137 255 
3.41943 -3.69706 -1.21739 64 69 136 255 
3.29504 -3.56017 -1.22389 62 73 137 255 
3.17581 -3.43719 -1.22334 68 59 132 255 
3.05986 -3.31183 -1.22337 68 57 131 255 
2.95607 -3.1972 -1.22724 68 57 131 255 
2.82813 -3.05356 -1.21943 69 53 129 255 
8.9919 -9.77361 3.98946 66 64 134 255 
8.15464 -8.84831 3.47994 72 26 108 255 
8.82767 -9.57172 3.62817 72 38 119 255 
8.30618 -9.00663 3.28979 65 68 135 255 
8.32177 -9.03573 3.18829 61 78 138 255 
8.36928 -9.08439 3.07511 60 79 138 255 
8.39464 -9.11495 2.95896 52 97 141 255 
8.85604 -9.61966 2.99468 72 29 111 255 
11.5064 -12.4892 3.7461 70 48 126 255 
11.4485 -12.4311 3.55209 71 45 123 255 
9.30805 -10.1174 2.75456 71 42 122 255 
9.33316 -10.1521 2.63065 69 55 129 255 
10.5139 -11.4119 2.83108 70 51 127 255 
9.44237 -10.2564 2.40552 63 72 137 255 
10.4158 -11.3293 2.50361 69 55 129 255 
9.83051 -10.7118 2.22997 70 52 128 255 
9.06476 -9.84247 1.9425 72 36 117 255 
8.72646 -9.48205 1.74461 50 101 142 255 
8.90385 -9.69498 1.6559 66 63 133 255 
9.12558 -9.95066 1.57412 71 47 125 255 
24.3227 -26.4095 3.89402 71 14 97 255 
23.6536 -25.7287 3.45761 71 13 96 255 
24.1264 -26.2792 3.19015 70 7 90 255 
23.4696 -25.6184 2.78321 71 16 99 255 
22.7448 -24.7048 2.42476 71 13 96 255 
22.9204 -24.9399 2.12514 71 16 99 255 
22.7416 -24.797 1.79277 71 17 100 255 
23.0363 -25.1631 1.49547 70 10 93 255 
23.186 -25.2016 1.23176 71 16 99 255 
22.7343 -24.7547 0.891854 71 16 99 255 
19.9196 -21.7275 0.504225 70 8 92 255 
35.679 -39.0002 0.415157 69 5 89 255 
33.3993 -36.3156 -0.00861128 70 7 90 255 
0 -0 -0 68 2 86 255 
0 -0 -0 68 1 84 255 
0 -0 -0 68 1 84 255 
0 -0 -0 68 2 86 255 
23.2017 -25.2991 -1.5648 70 10 93 255 
18.2889 -19.9698 -1.49025 72 28 110 255 
12.4301 -13.6015 -1.18831 71 16 99 255 
11.0831 -12.0677 -1.18886 72 23 105 255 
9.98363 -10.8938 -1.20966 72 35 116 255 
8.98735 -9.82368 -1.21641 70 50 126 255 
8.20743 -8.98087 -1.22722 62 76 138 255 
7.59627 -8.27978 -1.22464 72 38 119 255 
7.01538 -7.6576 -1.23102 70 48 126 255 
6.47982 -7.0853 -1.22999 71 46 124 255 
6.04314 -6.61725 -1.23394 70 48 126 255 
5.6814 -6.19913 -1.22821 66 63 133 255 
5.33652 -5.82914 -1.2291 67 62 133 255 
5.01903 -5.48993 -1.22742 66 63 133 255 
4.75947 -5.21163 -1.23434 67 62 133 255 
4.51352 -4.93172 -1.22699 62 73 137 255 
4.26612 -4.66483 -1.2196 62 73 137 255 
4.06218 -4.4433 -1.22157 63 72 137 255 
3.89532 -4.26389 -1.23074 56 89 140 255 
3.73304 -4.0832 -1.22753 64 69 136 255 
3.58313 -3.92075 -1.23014 62 76 138 255 
3.41307 -3.73591 -1.22327 66 64 134 255 
3.27837 -3.58605 -1.22584 67 62 133 255 
3.18205 -3.48662 -1.23397 66 65 134 255 
3.04794 -3.33981 -1.22678 66 64 134 255 
2.92472 -3.20249 -1.22235 66 65 134 255 
2.82942 -3.09281 -1.22815 68 59 132 255 
8.92017 -9.81585 3.98429 71 45 123 255 
7.75228 -8.516 3.33048 54 92 141 255 
8.13822 -8.93353 3.36727 72 32 113 255 
8.16946 -8.96818 3.25738 68 58 131 255 
9.92839 -10.9138 3.82942 72 41 121 255 
8.27812 -9.09682 3.06207 65 68 135 255 
8.37324 -9.20442 2.97127 65 66 135 255 
8.68667 -9.55266 2.95717 72 41 121 255 
11.3684 -12.4924 3.72607 72 40 120 255 
11.3747 -12.504 3.55291 66 64 134 255 
11.021 -12.1277 3.28343 71 42 122 255 
10.6733 -11.7538 3.02864 72 33 115 255 
10.4145 -11.4442 2.82318 72 20 103 255 
10.8126 -11.8903 2.77314 72 36 117 255 
9.78736 -10.7778 2.36841 72 24 106 255 
9.1492 -10.0931 2.08943 72 41 121 255 
10.0258 -11.0209 2.16288 71 42 122 255 
8.68611 -9.55521 1.74823 56 89 140 255 
8.79953 -9.7002 1.64754 58 83 139 255 
8.8683 -9.79004 1.54008 61 77 138 255 
24.1308 -26.5259 3.88928 71 17 100 255 
23.2859 -25.6428 3.4268 71 16 99 255 
24.1085 -26.5854 3.2093 71 13 96 255 
22.8311 -25.2305 2.72579 70 11 94 255 
22.621 -24.8749 2.42778 71 13 96 255 
24.7505 -27.2652 2.31029 71 16 99 255 
22.587 -24.9338 1.79261 72 20 103 255 
22.5551 -24.9431 1.47414 70 11 94 255 
22.9583 -25.2635 1.22788 70 8 92 255 
27.4225 -30.2298 1.08303 69 4 87 255 
33.6282 -37.1352 0.856983 69 5 89 255 
0 -0 0 68 1 84 255 
33.5921 -36.978 -0.00871932 70 7 90 255 
0 -0 -0 68 1 84 255 
0 -0 -0 68 2 86 255 
0 -0 -0 68 1 84 255 
0 -0 -0 68 2 86 255 
21.2997 -23.5131 -1.44622 70 10 93 255 
18.2122 -20.1327 -1.49404 72 29 111 255 
12.3678 -13.7012 -1.19037 71 14 97 255 
11.025 -12.1532 -1.1906 72 22 104 255 
9.91727 -10.9556 -1.20974 72 35 116 255 
9.02706 -9.98947 -1.23005 70 52 128 255 
8.19217 -9.07537 -1.23324 61 77 138 255 
7.56334 -8.34613 -1.22756 71 44 122 255 
6.97359 -7.70639 -1.23196 71 45 123 255 
6.44554 -7.13523 -1.23176 70 48 126 255 
6.0137 -6.66671 -1.23626 71 42 122 255 
5.64658 -6.23754 -1.22893 68 58 131 255 
5.30927 -5.8713 -1.2311 68 59 132 255 
4.99186 -5.52794 -1.22905 63 71 136 255 
4.71421 -5.22611 -1.23089 66 63 133 255 
4.49175 -4.9688 -1.22934 63 72 137 255 
4.26111 -4.71715 -1.22642 62 74 137 255 
4.05323 -4.48851 -1.22713 56 89 140 255 
3.8835 -4.30369 -1.23533 55 91 141 255 
3.71315 -4.11182 -1.22926 63 72 137 255 
3.55313 -3.93615 -1.22811 64 70 136 255 
3.40115 -3.76905 -1.22726 66 64 134 255 
3.2719 -3.62337 -1.23171 65 68 135 255 
3.15412 -3.4989 -1.23144 67 62 133 255 
3.03902 -3.37135 -1.23149 66 65 134 255 
2.89663 -3.21108 -1.21883 68 59 132 255 
2.8149 -3.11509 -1.23012 68 59 132 255 
7.67945 -8.55543 3.45349 70 51 127 255 
7.67869 -8.53983 3.32131 49 103 142 255 
9.15801 -10.1777 3.81499 64 69 136 255 
8.93597 -9.93136 3.58724 68 59 132 255 
9.86512 -10.9789 3.83093 72 36 117 255 
8.21566 -9.14023 3.05965 60 80 139 255 
8.31661 -9.25562 2.97127 57 85 140 255 
8.49567 -9.45857 2.91185 66 65 134 255 
8.80831 -9.7993 2.90662 72 26 108 255 
11.3102 -12.5874 3.55682 71 46 124 255 
9.1701 -10.2162 2.75063 67 61 132 255 
8.64382 -9.63701 2.4695 54 92 141 255 
10.3993 -11.5693 2.83826 70 48 126 255 
10.4003 -11.5789 2.68557 72 28 110 255 
9.40536 -10.4857 2.2915 71 42 122 255 
8.75347 -9.77639 2.01272 68 57 131 255 
8.75942 -9.74833 1.90256 58 84 140 255 
8.74848 -9.74326 1.77278 50 101 142 255 
8.95835 -9.99786 1.68873 66 63 133 255 
8.82661 -9.86499 1.54332 66 63 133 255 
10.5685 -11.7616 1.71497 71 47 125 255 
23.4869 -26.1852 3.47996 71 16 99 255 
23.6638 -26.419 3.17163 70 10 93 255 
23.1229 -25.8703 2.77953 71 13 96 255 
23.0031 -25.6091 2.48562 71 17 100 255 
22.9104 -25.5514 2.15313 71 17 100 255 
22.3457 -24.9737 1.78559 72 22 104 255 
22.3704 -25.046 1.47208 72 24 106 255 
22.8002 -25.401 1.22774 72 22 104 255 
22.797 -25.4428 0.906496 70 8 92 255 
23.611 -26.397 0.605819 70 7 90 255 
0 -0 0 69 4 87 255 
0 -0 -0 68 1 84 255 
0 -0 -0 68 2 86 255 
0 -0 -0 68 2 86 255 
0 -0 -0 68 1 84 255 
0 -0 -0 68 1 84 255 
27.2219 -30.4239 -1.86097 70 7 90 255 
18.1781 -20.3446 -1.50146 72 28 110 255 
12.3672 -13.8707 -1.19848 71 19 101 255 
10.9715 -12.2444 -1.19291 72 23 105 255 
9.86315 -11.0311 -1.21138 72 37 118 255 
8.98549 -10.067 -1.23278 71 47 125 255 
8.16745 -9.16037 -1.23796 61 78 138 255 
7.53055 -8.41312 -1.2306 72 37 118 255 
6.94206 -7.76681 -1.23479 70 48 126 255 
6.42607 -7.20203 -1.23647 71 47 125 255 
6.00629 -6.74121 -1.24322 70 52 128 255 
5.62007 -6.28534 -1.23153 67 62 133 255 
5.28302 -5.91482 -1.2334 66 65 134 255 
4.97492 -5.57761 -1.23328 66 64 134 255 
4.69188 -5.26597 -1.23347 66 64 134 255 
4.45135 -4.98527 -1.22663 64 70 136 255 
4.23274 -4.74394 -1.22661 62 73 137 255 
4.01387 -4.50013 -1.22355 63 72 137 255 
3.84856 -4.31794 -1.23262 55 91 141 255 
3.6911 -4.13817 -1.23034 57 85 140 255 
3.53085 -3.96006 -1.22879 64 70 136 255 
3.37473 -3.78622 -1.22609 65 68 135 255 
3.23218 -3.62384 -1.22511 65 66 135 255 
3.13002 -3.51529 -1.23043 66 63 133 255 
3.00159 -3.37119 -1.22468 64 70 136 255 
2.89864 -3.25323 -1.22805 68 58 131 255 
2.80468 -3.14233 -1.23405 68 59 132 255 
7.62681 -8.60239 3.45349 62 76 138 255 
7.6523 -8.61623 3.3327 59 81 139 255 
7.72209 -8.68855 3.23897 66 63 133 255 
10.2536 -11.5374 4.14453 72 41 121 255 
8.85116 -9.97284 3.46087 61 77 138 255 
8.35978 -9.41614 3.13478 64 69 136 255 
8.3933 -9.45706 3.01934 66 65 134 255 
8.66583 -9.76792 2.99066 64 69 136 255 
8.66891 -9.76408 2.88034 59 82 139 255 
8.63111 -9.72517 2.73303 62 76 138 255 
8.76184 -9.88272 2.64631 70 52 128 255 
8.58778 -9.69355 2.47044 57 86 140 255 
8.6254 -9.71506 2.37033 64 69 136 255 
9.32196 -10.5073 2.42371 70 50 126 255 
9.30681 -10.5048 2.28315 71 42 122 255 
8.90744 -10.072 2.06229 68 59 132 255 
8.72637 -9.83224 1.90845 51 99 141 255 
8.7122 -9.82345 1.77761 52 96 141 255 
8.84094 -9.98948 1.67812 70 51 127 255 
8.67383 -9.81477 1.52711 66 65 134 255 
10.4044 -11.7229 1.69998 68 59 132 255 
10.3725 -11.7078 1.54746 62 76 138 255 
23.1152 -26.1273 3.11952 70 11 94 255 
23.124 -26.1933 2.79894 70 10 93 255 
22.5596 -25.4274 2.4545 71 19 101 255 
22.4634 -25.3642 2.1257 72 26 108 255 
23.3645 -26.437 1.87992 70 11 94 255 
31.1169 -35.2719 2.06185 69 5 89 255 
22.6558 -25.5538 1.22838 71 19 101 255 
0 -0 0 69 4 87 255 
23.4432 -26.5354 0.605682 70 7 90 255 
34.7904 -39.4636 0.413202 70 7 90 255 
33.0456 -37.2857 -0.00869558 70 7 90 255 
0 -0 -0 68 2 86 255 
0 -0 -0 68 2 86 255 
0 -0 -0 68 1 84 255 
0 -0 -0 68 1 84 255 
27.5031 -31.1204 -1.89321 70 7 90 255 
18.3741 -20.8196 -1.52816 71 19 101 255 
12.2898 -13.9553 -1.19925 71 17 100 255 
10.9219 -12.3406 -1.19573 72 23 105 255 
9.8309 -11.1317 -1.21578 72 35 116 255 
8.9848 -10.1914 -1.24124 71 44 122 255 
8.13148 -9.23346 -1.24107 61 77 138 255 
7.51435 -8.49938 -1.23645 72 37 118 255 
6.90807 -7.82489 -1.23726 70 52 128 255 
6.42242 -7.28746 -1.24434 71 42 122 255 
5.99034 -6.80694 -1.24854 71 45 123 255 
5.58599 -6.3249 -1.23254 65 66 135 255 
5.26035 -5.96269 -1.23663 65 66 135 255 
4.9393 -5.60655 -1.23296 66 64 134 255 
4.66208 -5.29761 -1.23416 67 61 132 255 
4.42133 -5.01322 -1.22681 64 70 136 255 
4.21135 -4.77866 -1.22889 65 66 135 255 
3.97841 -4.51585 -1.22117 57 85 140 255 
3.82005 -4.33927 -1.23199 55 91 141 255 
3.66112 -4.15561 -1.22883 56 89 140 255 
3.50906 -3.98457 -1.22969 60 80 139 255 
3.36042 -3.81707 -1.22938 65 68 135 255 
3.2259 -3.66179 -1.23123 64 70 136 255 
3.1218 -3.54969 -1.23574 64 70 136 255 
2.98085 -3.38955 -1.22468 66 65 134 255 
2.8729 -3.26445 -1.22561 67 61 132 255 
2.77773 -3.15084 -1.23068 67 62 133 255 
7.55306 -8.62525 3.44399 72 32 113 255 
7.60372 -8.66808 3.33465 57 86 140 255 
7.68134 -8.75025 3.24434 70 50 126 255 
8.85038 -10.0824 3.60228 67 62 133 255 
8.80575 -10.0452 3.46715 68 59 132 255 
8.66141 -9.8773 3.27055 70 52 128 255 
8.31781 -9.48864 3.01307 65 68 135 255 
8.62179 -9.83923 2.99624 68 57 131 255 
8.55411 -9.75468 2.86203 72 32 113 255 
8.78157 -10.0179 2.80008 66 63 133 255 
8.53309 -9.7445 2.59523 69 55 129 255 
8.52426 -9.74162 2.46931 58 83 139 255 
8.51893 -9.71455 2.35741 66 65 134 255 
10.0139 -11.4277 2.62181 72 32 113 255 
9.40077 -10.7429 2.32233 72 40 120 255 
9.36113 -10.7168 2.18252 71 45 123 255 
8.68545 -9.90792 1.91276 54 93 141 255 
8.75558 -9.99524 1.79894 58 83 139 255 
8.70504 -9.95838 1.66389 62 76 138 255 
8.7493 -10.0234 1.55119 55 91 141 255 
9.95148 -11.3522 1.63734 72 23 105 255 
10.1268 -11.5728 1.52137 71 47 125 255 
9.96786 -11.407 1.35464 70 51 127 255 
22.5967 -25.9147 2.7543 71 13 96 255 
22.8837 -26.1137 2.50715 71 17 100 255 
22.6884 -25.9373 2.16202 71 19 101 255 
22.6962 -26.0006 1.83895 69 4 87 255 
23.2565 -26.6902 1.55183 70 7 90 255 
23.3084 -26.6171 1.2726 70 10 93 255 
27.8542 -31.8652 1.12305 70 8 92 255 
23.2557 -26.6509 0.60505 70 8 92 255 
0 -0 0 69 4 87 255 
0 -0 -0 68 1 84 255 
0 -0 -0 68 2 86 255 
0 -0 -0 68 2 86 255 
0 -0 -0 68 2 86 255 
0 -0 -0 68 1 84 255 
18.9904 -21.7556 -1.31639 70 11 94 255 
18.3136 -21.0094 -1.53382 72 24 106 255 
12.3021 -14.1434 -1.2089 71 17 100 255 
10.8828 -12.4495 -1.19979 72 27 109 255 
9.77093 -11.2016 -1.21684 72 33 115 255 
8.90705 -10.229 -1.23915 70 50 126 255 
8.1465 -9.36576 -1.25211 62 73 137 255 
7.48232 -8.56854 -1.23981 72 41 121 255 
6.88342 -7.89407 -1.24149 71 42 122 255 
6.37498 -7.32373 -1.24384 72 38 119 255 
5.94911 -6.84431 -1.24867 70 51 127 255 
5.56138 -6.37546 -1.23572 68 57 131 255 
5.2347 -6.00752 -1.23924 67 62 133 255 
4.90157 -5.63303 -1.23214 67 62 133 255 
4.61398 -5.30828 -1.23003 68 57 131 255 
4.40405 -5.05583 -1.2306 62 74 137 255 
4.18388 -4.80663 -1.22945 63 71 136 255 
3.97314 -4.56605 -1.22813 49 103 142 255 
3.79015 -4.35894 -1.23095 53 94 141 255 
3.62786 -4.16916 -1.22623 66 65 134 255 
3.48647 -4.00824 -1.23037 62 73 137 255 
3.34396 -3.84568 -1.23196 66 63 133 255 
3.20783 -3.68664 -1.23294 66 65 134 255 
3.10123 -3.57024 -1.23624 64 70 136 255 
2.95936 -3.40704 -1.22442 66 63 133 255 
2.86103 -3.29146 -1.22914 66 63 133 255 
2.76212 -3.17217 -1.23236 68 59 132 255 
7.27821 -8.41501 3.34215 72 31 112 255 
7.47491 -8.62745 3.30131 59 81 139 255 
10.1586 -11.7165 4.32095 71 46 124 255 
8.79278 -10.1416 3.6041 72 33 115 255 
8.73571 -10.0895 3.46389 72 41 121 255 
10.2461 -11.83 3.89625 66 64 134 255 
8.26516 -9.54611 3.01516 69 53 129 255 
10.6427 -12.2969 3.7247 72 38 119 255 
8.47428 -9.7841 2.85535 66 63 133 255 
8.54186 -9.86587 2.7429 58 83 139 255 
8.65145 -10.0028 2.64985 72 32 113 255 
9.09443 -10.5228 2.65313 72 40 120 255 
9.88641 -11.4145 2.75516 72 29 111 255 
9.31872 -10.7669 2.45704 71 17 100 255 
9.21076 -10.657 2.2915 71 19 101 255 
9.28939 -10.7673 2.18115 71 19 101 255 
8.63356 -9.97151 1.91477 51 99 141 255 
9.11035 -10.5299 1.88507 65 66 135 255 
8.60487 -9.96655 1.6564 58 84 140 255 
8.62732 -10.007 1.54042 61 77 138 255 
9.59986 -11.0876 1.59065 71 47 125 255 
10.0927 -11.6776 1.52698 70 51 127 255 
9.87685 -11.4439 1.35179 70 50 126 255 
22.929 -26.6239 2.81467 71 13 96 255 
22.7354 -26.268 2.50852 70 10 93 255 
22.7859 -26.3736 2.18669 72 27 109 255 
22.5356 -26.1386 1.8389 71 17 100 255 
25.6768 -29.8356 1.72552 69 4 87 255 
23.2303 -26.8587 1.27731 70 8 92 255 
23.0833 -26.7366 0.937292 71 19 101 255 
27.6838 -32.1212 0.725372 70 7 90 255 
32.6252 -37.936 0.392986 70 10 93 255 
32.5646 -37.6642 -0.00868999 70 7 90 255 
0 -0 -0 68 2 86 255 
0 -0 -0 68 1 84 255 
0 -0 -0 68 2 86 255 
0 -0 -0 68 2 86 255 
18.8546 -21.8694 -1.31626 71 14 97 255 
18.2214 -21.1645 -1.53696 72 22 104 255 
12.258 -14.2685 -1.21315 72 20 103 255 
10.8127 -12.5236 -1.20051 72 24 106 255 
9.73845 -11.3036 -1.22141 72 29 111 255 
8.84802 -10.288 -1.2397 71 42 122 255 
8.10508 -9.43443 -1.25462 68 57 131 255 
7.41662 -8.59924 -1.23764 72 40 120 255 
6.84198 -7.94444 -1.24279 72 40 120 255 
6.34091 -7.3755 -1.246 71 44 122 255 
5.91217 -6.8867 -1.24976 71 47 125 255 
5.5312 -6.41996 -1.23775 67 61 132 255 
5.19774 -6.03952 -1.23924 67 62 133 255 
4.87334 -5.67049 -1.23377 66 64 134 255 
4.58197 -5.33723 -1.2302 67 61 132 255 
4.37872 -5.08947 -1.23222 63 71 136 255 
4.13638 -4.81136 -1.22415 62 73 137 255 
3.96804 -4.6171 -1.23529 47 107 142 255 
3.77544 -4.39621 -1.23491 53 94 141 255 
3.6003 -4.18912 -1.22558 55 90 140 255 
3.458 -4.02512 -1.22901 62 73 137 255 
3.32346 -3.86982 -1.23314 65 68 135 255 
3.1902 -3.71213 -1.23489 65 68 135 255 
3.06667 -3.57451 -1.23118 64 69 136 255 
2.93589 -3.42221 -1.22337 68 57 131 255 
2.83451 -3.30165 -1.22642 64 69 136 255 
2.74073 -3.18687 -1.23152 65 66 135 255 
7.23764 -8.47261 3.34733 54 92 141 255 
7.74223 -9.04758 3.44383 69 53 129 255 
10.0678 -11.7567 4.3129 72 27 109 255 
10.3548 -12.0924 4.27471 69 55 129 255 
10.2589 -11.9967 4.09697 72 26 108 255 
10.1209 -11.8315 3.8762 67 61 132 255 
8.04713 -9.41036 2.95663 70 51 127 255 
10.5633 -12.3576 3.72337 72 38 119 255 
8.4471 -9.8745 2.86656 71 42 122 255 
8.53586 -9.98206 2.76059 64 70 136 255 
8.47145 -9.91707 2.61331 64 70 136 255 
9.02969 -10.5784 2.65313 71 47 125 255 
9.22402 -10.7827 2.58895 63 72 137 255 
9.6341 -11.2704 2.55838 71 17 100 255 
9.19133 -10.7674 2.30306 72 28 110 255 
9.10326 -10.6834 2.1528 72 41 121 255 
8.70792 -10.183 1.94509 70 51 127 255 
9.10608 -10.6564 1.89768 56 89 140 255 
8.57896 -10.0607 1.66327 62 73 137 255 
9.76542 -11.4686 1.75617 72 33 115 255 
8.54179 -9.98871 1.42546 60 79 138 255 
9.74687 -11.4184 1.48524 72 26 108 255 
9.81226 -11.5111 1.35259 70 10 93 255 
22.2143 -26.1164 2.74655 71 13 96 255 
22.5628 -26.3941 2.50729 72 23 105 255 
22.7649 -26.6784 2.20034 71 17 100 255 
22.5664 -26.5015 1.85465 72 20 103 255 
23.043 -27.1098 1.55967 70 8 92 255 
22.8872 -26.7925 1.26746 72 20 103 255 
22.6853 -26.6039 0.927743 72 22 104 255 
23.7214 -27.8677 0.626018 70 8 92 255 
32.7213 -38.5234 0.396983 69 5 89 255 
33.7901 -39.5698 -0.00908165 69 5 89 255 
0 -0 -0 68 2 86 255 
0 -0 -0 68 1 84 255 
0 -0 -0 68 1 84 255 
0 -0 -0 68 2 86 255 
18.7453 -22.0144 -1.31803 71 16 99 255 
18.9851 -22.3272 -1.6129 70 11 94 255 
12.2019 -14.3808 -1.2163 71 14 97 255 
10.7557 -12.6132 -1.20275 72 24 106 255 
9.69022 -11.3882 -1.2241 72 29 111 255 
8.79311 -10.352 -1.24088 72 38 119 255 
8.08953 -9.53406 -1.26125 71 46 124 255 
7.39466 -8.68091 -1.24284 72 38 119 255 
6.79247 -7.98551 -1.24267 71 44 122 255 
6.30324 -7.42334 -1.24752 71 44 122 255 
5.8935 -6.9508 -1.25481 72 40 120 255 
5.49748 -6.46056 -1.23905 69 55 129 255 
5.15931 -6.0698 -1.23893 66 64 134 255 
4.84868 -5.71232 -1.23637 67 62 133 255 
4.55486 -5.37201 -1.23175 68 57 131 255 
4.3455 -5.11399 -1.23168 66 65 134 255 
4.10551 -4.83516 -1.22377 63 72 137 255 
3.9352 -4.63613 -1.23389 46 109 142 255 
3.73574 -4.40438 -1.23074 53 94 141 255 
3.59601 -4.23644 -1.23294 49 103 142 255 
3.44521 -4.06038 -1.2333 59 81 139 255 
3.30657 -3.89829 -1.23572 62 73 137 255 
3.18368 -3.75086 -1.24126 66 63 133 255 
3.03092 -3.57702 -1.22562 65 68 135 255 
2.92357 -3.45047 -1.22704 67 62 133 255 
2.83163 -3.33953 -1.23402 66 64 134 255 
2.72112 -3.20363 -1.23152 68 59 132 255 
7.94143 -9.41284 3.69947 68 58 131 255 
8.06421 -9.54173 3.61302 68 59 132 255 
10.0738 -11.9109 4.34672 71 45 123 255 
8.59345 -10.161 3.57324 71 45 123 255 
8.87542 -10.5087 3.57016 65 68 135 255 
9.98864 -11.8229 3.85325 70 52 128 255 
8.56913 -10.1462 3.17124 68 57 131 255 
10.1986 -12.0803 3.62089 66 64 134 255 
9.28378 -10.9884 3.17331 71 42 122 255 
8.51297 -10.0799 2.77314 62 73 137 255 
8.45217 -10.0183 2.62627 52 96 141 255 
8.4562 -10.0306 2.50266 64 69 136 255 
9.45608 -11.1923 2.67331 70 48 126 255 
9.081 -10.7562 2.42899 72 22 104 255 
22.3823 -26.5485 5.64902 71 19 101 255 
8.51247 -10.1152 2.02773 70 50 126 255 
8.83875 -10.4653 1.98862 72 40 120 255 
9.25079 -10.9612 1.94182 62 76 138 255 
9.3 -11.0428 1.81616 71 45 123 255 
8.38879 -9.97526 1.51958 70 8 92 255 
8.48226 -10.0432 1.42578 66 63 133 255 
21.9549 -26.0419 3.36979 71 14 97 255 
22.2913 -26.478 3.09512 71 16 99 255 
21.9895 -26.1759 2.73857 71 19 101 255 
22.3978 -26.529 2.50701 70 11 94 255 
22.395 -26.5734 2.1803 72 26 108 255 
22.6103 -26.8855 1.87178 71 17 100 255 
22.8756 -27.25 1.55963 71 16 99 255 
22.9228 -27.17 1.27864 71 16 99 255 
22.7129 -26.9697 0.935621 71 16 99 255 
26.0155 -30.9455 0.691559 70 8 92 255 
31.7054 -37.795 0.387464 70 7 90 255 
33.6195 -39.8627 -0.00910137 70 7 90 255 
0 -0 -0 68 2 86 255 
0 -0 -0 69 4 87 255 
25.9402 -30.9444 -1.14199 69 5 89 255 
0 -0 -0 68 1 84 255 
25.9434 -30.8494 -1.83743 71 13 96 255 
18.3931 -21.9019 -1.57399 72 23 105 255 
12.1807 -14.5357 -1.22306 72 22 104 255 
10.7224 -12.7316 -1.20775 72 24 106 255 
9.63106 -11.4604 -1.22549 72 31 112 255 
8.76334 -10.4462 -1.2457 72 36 117 255 
8.03471 -9.58809 -1.26185 71 47 125 255 
7.36622 -8.75578 -1.24707 72 40 120 255 
6.77911 -8.06962 -1.24926 72 37 118 255 
6.27669 -7.48468 -1.25133 72 37 118 255 
5.85074 -6.98683 -1.25481 72 41 121 255 
5.47046 -6.50932 -1.24194 69 56 130 255 
5.11053 -6.08772 -1.23617 68 58 131 255 
4.79959 -5.72533 -1.23279 67 61 132 255 
4.52688 -5.4059 -1.23313 68 59 132 255 
4.28243 -5.10289 -1.22266 62 74 137 255 
4.08902 -4.87606 -1.22775 61 77 138 255 
3.88653 -4.63616 -1.22753 52 97 141 255 
3.71367 -4.43322 -1.23241 55 91 141 255 
3.58061 -4.27114 -1.23663 51 99 141 255 
3.42461 -4.08667 -1.23488 62 74 137 255 
3.28883 -3.92596 -1.23807 61 77 138 255 
3.14316 -3.74952 -1.23441 66 65 134 255 
3.00705 -3.59333 -1.22486 65 68 135 255 
2.92959 -3.50091 -1.23856 65 66 135 255 
2.78698 -3.32807 -1.22344 68 57 131 255 
2.70326 -3.22247 -1.23236 68 59 132 255 
7.91173 -9.49523 3.7127 69 55 129 255 
8.02767 -9.61759 3.62302 71 47 125 255 
8.05836 -9.64735 3.50255 72 24 106 255 
8.66839 -10.3781 3.63081 72 37 118 255 
8.81326 -10.566 3.57116 64 69 136 255 
10.1615 -12.1783 3.94868 68 59 132 255 
8.5497 -10.2501 3.18727 70 51 127 255 
8.86587 -10.6333 3.17082 71 47 125 255 
8.60744 -10.3156 2.96371 72 33 115 255 
8.6177 -10.3318 2.82785 66 65 134 255 
9.44313 -11.3333 2.95573 67 62 133 255 
8.46866 -10.1713 2.52478 70 50 126 255 
9.6053 -11.5114 2.73541 69 55 129 255 
21.5195 -25.809 5.79828 72 22 104 255 
24.0651 -28.9025 6.11837 70 10 93 255 
22.2644 -26.7882 5.34259 70 8 92 255 
22.49 -26.9626 5.0971 71 19 101 255 
9.81276 -11.7729 2.07491 72 28 110 255 
9.37863 -11.2759 1.845 62 74 137 255 
22.2122 -26.7443 4.05326 70 11 94 255 
9.41708 -11.2899 1.59453 70 51 127 255 
22.1704 -26.6274 3.42788 71 19 101 255 
21.8788 -26.314 3.0602 72 20 103 255 
21.8011 -26.2773 2.73514 71 13 96 255 
14.8814 -17.8473 1.67791 72 35 116 255 
22.4179 -26.9343 2.19858 70 7 90 255 
22.2778 -26.8225 1.85784 70 7 90 255 
23.8225 -28.7342 1.63618 70 7 90 255 
22.7582 -27.3132 1.27878 70 8 92 255 
23.5231 -28.2821 0.976126 70 7 90 255 
25.4758 -30.6837 0.682203 71 14 97 255 
25.6209 -30.9253 0.315421 70 10 93 255 
25.7423 -30.9054 -0.00702006 70 8 92 255 
25.7619 -30.9959 -0.386904 71 14 97 255 
25.7726 -31.0633 -0.760912 70 8 92 255 
25.7779 -31.1369 -1.14323 70 7 90 255 
25.782 -30.9861 -1.46399 70 7 90 255 
25.7473 -31.0003 -1.83698 70 8 92 255 
18.2405 -21.9928 -1.57245 70 10 93 255 
12.1766 -14.7132 -1.23169 71 13 96 255 
10.6492 -12.8033 -1.20833 72 23 105 255 
9.60257 -11.5699 -1.23088 72 29 111 255 
8.70925 -10.512 -1.24716 72 32 113 255 
7.96875 -9.62878 -1.26074 71 42 122 255 
7.33459 -8.82758 -1.25086 71 42 122 255 
6.76371 -8.15233 -1.25562 72 41 121 255 
6.2509 -7.54749 -1.2554 71 44 122 255 
5.80271 -7.0165 -1.25372 71 46 124 255 
5.43484 -6.54809 -1.24295 69 56 130 255 
5.1084 -6.16156 -1.24477 69 56 130 255 
4.78639 -5.78127 -1.23849 65 68 135 255 
4.50492 -5.44724 -1.23623 66 64 134 255 
4.26547 -5.14649 -1.22681 62 74 137 255 
4.06153 -4.90408 -1.22851 63 72 137 255 
3.87801 -4.68408 -1.23389 47 107 142 255 
3.69325 -4.46421 -1.2347 52 97 141 255 
3.56118 -4.30131 -1.23901 50 101 142 255 
3.4032 -4.1121 -1.23623 54 93 141 255 
3.24919 -3.92734 -1.2322 66 65 134 255 
3.11268 -3.75977 -1.23147 66 63 133 255 
2.99358 -3.62215 -1.2284 66 64 134 255 
2.90375 -3.51361 -1.23673 66 64 134 255 
2.76221 -3.33991 -1.22154 65 66 135 255 
2.67916 -3.23383 -1.2304 68 58 131 255 
7.70118 -9.35872 3.64078 69 56 130 255 
9.33967 -11.33 4.24644 72 36 117 255 
10.0581 -12.1927 4.40416 72 33 115 255 
9.74088 -11.8086 4.1103 71 42 122 255 
8.4707 -10.2829 3.45786 69 53 129 255 
10.1452 -12.3116 3.97163 68 57 131 255 
8.69259 -10.5524 3.26461 64 70 136 255 
8.78373 -10.6672 3.16479 71 19 101 255 
9.48359 -11.5084 3.28963 72 29 111 255 
8.50561 -10.3256 2.81181 69 53 129 255 
9.55222 -11.6083 3.01212 72 37 118 255 
8.42793 -10.2497 2.53133 64 70 136 255 
9.33679 -11.3303 2.67869 71 13 96 255 
