ply
format ascii 1.0
comment VTK generated PLY File
obj_info vtkPolyData points and polygons: vtk4.0
element vertex 1175
property float x
property float y
property float z
property uchar red
property uchar green
property uchar blue
property uchar alpha
element face 0
property list uchar int vertex_indices
end_header
-18.6059 -3.80126 -1.0451 64 69 136 255 
-18.6053 -3.78059 -1.22441 68 59 132 255 
-18.616 -3.83053 -1.37904 72 28 110 255 
-18.0737 -3.69892 -1.51024 72 33 115 255 
-17.9343 -3.65425 -1.67213 72 22 104 255 
-15.8042 -3.21139 -1.62676 72 22 104 255 
-14.1827 -2.91058 -1.57796 72 33 115 255 
-12.7219 -2.60132 -1.53919 71 44 122 255 
-11.6032 -2.36215 -1.5169 71 46 124 255 
-10.6952 -2.16938 -1.50266 71 46 124 255 
-9.87047 -2.02024 -1.47159 71 47 125 255 
-9.11232 -1.85994 -1.4464 66 64 134 255 
-8.48711 -1.72623 -1.42914 66 65 134 255 
-7.97026 -1.61666 -1.42229 66 63 133 255 
-7.50555 -1.53075 -1.40588 65 68 135 255 
-7.08245 -1.44176 -1.39445 63 72 137 255 
-6.71391 -1.36557 -1.39019 61 77 138 255 
-6.36914 -1.29305 -1.38498 62 74 137 255 
-6.05188 -1.23098 -1.37027 65 68 135 255 
-5.77881 -1.17428 -1.36575 63 71 136 255 
-5.46678 -1.10993 -1.34851 62 73 137 255 
-5.2259 -1.06285 -1.34547 66 65 134 255 
-5.03612 -1.0198 -1.34322 67 62 133 255 
-4.84213 -0.98042 -1.34042 67 61 132 255 
-4.69099 -0.951565 -1.34904 64 69 136 255 
-4.48072 -0.912917 -1.33977 68 57 131 255 
-18.9176 -3.78889 5.79561 71 19 101 255 
-18.8391 -3.78998 5.55746 72 23 105 255 
-18.8901 -3.80727 5.36938 71 19 101 255 
-18.9323 -3.81539 5.18572 71 17 100 255 
-18.8933 -3.79429 5.00163 72 22 104 255 
-18.8625 -3.79126 4.78987 71 19 101 255 
-18.8978 -3.7951 4.60264 71 19 101 255 
-18.755 -3.76266 4.38106 70 8 92 255 
-18.7798 -3.77491 4.22562 70 10 93 255 
-18.8573 -3.78679 4.04267 70 8 92 255 
-18.8208 -3.76938 3.84589 70 7 90 255 
-18.7348 -3.74503 3.64457 72 31 112 255 
-18.6818 -3.7552 3.4767 62 74 137 255 
-18.6415 -3.74009 3.2807 62 76 138 255 
-18.6461 -3.72763 3.09339 63 72 137 255 
-18.6461 -3.7104 2.91599 63 71 136 255 
-18.6657 -3.7486 2.76383 62 76 138 255 
-18.6466 -3.73771 2.57465 62 74 137 255 
-18.6472 -3.71769 2.39193 63 71 136 255 
-18.6206 -3.69859 2.21336 65 66 135 255 
-18.6423 -3.74388 2.06228 65 66 135 255 
-18.6082 -3.71988 1.87737 62 73 137 255 
-18.6077 -3.70646 1.69666 65 68 135 255 
-18.6243 -3.6892 1.52092 66 65 134 255 
-18.6234 -3.73671 1.37154 63 71 136 255 
-18.6415 -3.72315 1.19265 59 82 139 255 
-18.6771 -3.7101 1.01461 52 96 141 255 
-0 -0 0 68 2 86 255 
-18.6219 -3.72966 0.683118 70 48 126 255 
-40.0613 -7.98667 1.08395 70 10 93 255 
-31.6461 -6.28059 0.551892 69 4 87 255 
-49.2887 -9.72765 0.394588 69 4 87 255 
-0 -0 -0 68 1 84 255 
-23.5197 -4.68039 -0.230207 69 4 87 255 
-23.3137 -4.61846 -0.448046 69 4 87 255 
-18.5568 -3.65566 -0.534907 71 13 96 255 
-18.5635 -3.70451 -0.687497 71 14 97 255 
-18.6303 -3.70064 -0.865847 71 13 96 255 
-18.5858 -3.67849 -1.04268 70 11 94 255 
-18.5969 -3.66019 -1.22235 70 11 94 255 
-18.5423 -3.69693 -1.37188 72 28 110 255 
-18.0667 -3.58214 -1.50779 72 33 115 255 
-17.9388 -3.54067 -1.67049 71 19 101 255 
-15.8236 -3.11436 -1.62676 72 23 105 255 
-14.1827 -2.82001 -1.57601 72 31 112 255 
-12.7181 -2.51935 -1.53683 70 50 126 255 
-11.6068 -2.28879 -1.5155 71 45 123 255 
-10.6879 -2.0997 -1.4998 71 42 122 255 
-9.84483 -1.95214 -1.46596 71 44 122 255 
-9.09157 -1.79767 -1.44132 68 58 131 255 
-8.46462 -1.66764 -1.42361 65 68 135 255 
-7.95007 -1.56183 -1.41695 62 73 137 255 
-7.50225 -1.48219 -1.40354 69 56 130 255 
-7.06323 -1.39276 -1.38896 62 73 137 255 
-6.68659 -1.31734 -1.38284 64 69 136 255 
-6.36352 -1.2513 -1.38206 63 71 136 255 
-6.06028 -1.19402 -1.37049 65 68 135 255 
-5.76679 -1.13503 -1.36123 67 61 132 255 
-5.49829 -1.08124 -1.35462 62 73 137 255 
-5.22947 -1.0302 -1.34473 68 59 132 255 
-5.02614 -0.985718 -1.33893 66 65 134 255 
-4.83953 -0.94902 -1.33807 67 62 133 255 
-4.68351 -0.920166 -1.34524 66 63 133 255 
-4.48812 -0.885778 -1.34033 69 55 129 255 
-18.9236 -3.66946 5.79043 71 17 100 255 
-18.8478 -3.67156 5.5533 72 20 103 255 
-18.8828 -3.68538 5.36079 72 22 104 255 
-18.9041 -3.68916 5.17171 71 19 101 255 
-18.8012 -3.65593 4.97124 71 16 99 255 
-18.874 -3.67323 4.78697 71 19 101 255 
-18.851 -3.66552 4.58569 72 24 106 255 
-18.7978 -3.65141 4.38575 70 7 90 255 
-18.7317 -3.6458 4.20968 69 5 89 255 
-18.7716 -3.64991 4.01942 70 10 93 255 
-18.8127 -3.64785 3.83961 70 8 92 255 
-18.7671 -3.63187 3.64644 68 58 131 255 
-18.6822 -3.63618 3.47257 61 78 138 255 
-18.6419 -3.62131 3.27679 61 78 138 255 
-18.6279 -3.60527 3.08664 63 71 136 255 
-18.6481 -3.59199 2.9128 61 78 138 255 
-18.6602 -3.62852 2.75967 62 74 137 255 
-18.6293 -3.61549 2.56915 59 82 139 255 
-18.6112 -3.59192 2.38444 64 70 136 255 
-18.6254 -3.58089 2.21128 66 64 134 255 
-18.6298 -3.62259 2.0584 65 66 135 255 
-18.6297 -3.60545 1.87727 59 81 139 255 
-18.6223 -3.5907 1.69595 62 76 138 255 
-18.6348 -3.5726 1.51996 63 71 136 255 
-18.6176 -3.61685 1.36945 61 77 138 255 
-18.5993 -3.59619 1.18852 58 83 139 255 
-18.6661 -3.58902 1.0128 48 106 142 255 
-0 -0 0 68 2 86 255 
-18.5826 -3.60334 0.680854 72 37 118 255 
-39.8023 -7.68141 1.07565 71 13 96 255 
-18.5933 -3.57165 0.32387 71 16 99 255 
-49.5282 -9.45956 0.396033 69 5 89 255 
-0 -0 -0 68 2 86 255 
-23.3929 -4.5061 -0.22869 70 7 90 255 
-23.2287 -4.45368 -0.445879 71 14 97 255 
-18.5877 -3.54341 -0.535162 70 11 94 255 
-18.5957 -3.59243 -0.68786 71 14 97 255 
-18.6419 -3.58418 -0.865346 70 8 92 255 
-18.5815 -3.55931 -1.0412 70 10 93 255 
-18.5837 -3.53929 -1.22004 70 11 94 255 
-18.551 -3.58044 -1.37086 72 29 111 255 
-18.0727 -3.46821 -1.50649 72 40 120 255 
-17.921 -3.42306 -1.66685 71 19 101 255 
-15.8365 -3.01609 -1.62616 72 22 104 255 
-14.1763 -2.72842 -1.57341 72 35 116 255 
-12.7294 -2.44052 -1.53636 72 41 121 255 
-11.6148 -2.21642 -1.51474 71 47 125 255 
-10.6539 -2.0252 -1.49325 70 48 126 255 
-9.83718 -1.88796 -1.46307 71 45 123 255 
-9.1034 -1.74203 -1.44148 68 57 131 255 
-8.46791 -1.61438 -1.42247 66 63 133 255 
-7.95079 -1.51137 -1.41539 63 72 137 255 
-7.51314 -1.4365 -1.4039 68 59 132 255 
-7.06007 -1.34719 -1.38669 65 68 135 255 
-6.68877 -1.27519 -1.38164 64 69 136 255 
-6.36915 -1.21186 -1.38164 62 73 137 255 
-6.08188 -1.15955 -1.37374 65 66 135 255 
-5.7679 -1.09853 -1.35988 65 66 135 255 
-5.50386 -1.0473 -1.35438 64 70 136 255 
-5.26332 -1.00336 -1.35183 67 61 132 255 
-5.0397 -0.956302 -1.34095 67 62 133 255 
-4.85759 -0.921646 -1.34147 68 59 132 255 
-4.6834 -0.890332 -1.34361 68 58 131 255 
-4.49158 -0.857863 -1.33977 69 55 129 255 
-18.8224 -3.53015 5.75275 71 17 100 255 
-18.853 -3.55264 5.5483 71 19 101 255 
-18.8909 -3.56677 5.35677 71 17 100 255 
-18.8638 -3.56127 5.1546 71 19 101 255 
-18.8138 -3.53871 4.96872 72 22 104 255 
-18.8647 -3.55143 4.779 72 22 104 255 
-18.8875 -3.55248 4.58917 72 22 104 255 
-18.8151 -3.5351 4.38463 70 8 92 255 
-18.7451 -3.52917 4.20774 70 7 90 255 
-18.7677 -3.52977 4.01387 70 10 93 255 
-18.8145 -3.52856 3.83548 70 8 92 255 
-18.6732 -3.49497 3.62395 66 63 133 255 
-18.6462 -3.51055 3.46181 63 72 137 255 
-18.6395 -3.50231 3.27254 60 79 138 255 
-18.6332 -3.48782 3.08391 61 77 138 255 
-18.6008 -3.46465 2.90204 63 72 137 255 
-18.6209 -3.50243 2.75062 60 80 139 255 
-18.6034 -3.49215 2.56257 60 79 138 255 
-18.587 -3.46911 2.37858 62 73 137 255 
-18.5953 -3.45692 2.20514 66 65 134 255 
-18.592 -3.497 2.05182 63 72 137 255 
-18.6035 -3.4821 1.87245 62 74 137 255 
-18.6205 -3.47199 1.69381 61 77 138 255 
-18.577 -3.44347 1.5135 64 70 136 255 
-18.608 -3.49665 1.36715 61 77 138 255 
-18.5975 -3.4776 1.18702 58 83 139 255 
-18.6583 -3.46894 1.01121 50 102 142 255 
-0 -0 0 68 1 84 255 
-18.6417 -3.49626 0.68222 72 24 106 255 
-39.5784 -7.38661 1.06836 71 14 97 255 
-18.5991 -3.45458 0.323596 72 40 120 255 
-50.1055 -9.25153 0.400188 69 5 89 255 
-0 -0 -0 68 1 84 255 
-23.4879 -4.37512 -0.229353 70 7 90 255 
-23.3922 -4.3364 -0.448499 71 14 97 255 
-18.6081 -3.42911 -0.535134 70 11 94 255 
-18.5722 -3.46982 -0.686191 71 13 96 255 
-18.5889 -3.45585 -0.861885 70 11 94 255 
-18.5755 -3.44014 -1.03966 70 10 93 255 
-18.5864 -3.42176 -1.21881 71 13 96 255 
-18.5569 -3.46361 -1.36971 72 24 106 255 
-18.0221 -3.34398 -1.50053 72 32 113 255 
-17.9123 -3.30761 -1.66412 72 22 104 255 
-15.8283 -2.914 -1.62345 71 19 101 255 
-14.1762 -2.6383 -1.57156 72 33 115 255 
-12.7471 -2.36291 -1.53671 72 36 117 255 
-11.6174 -2.14313 -1.51334 71 45 123 255 
-10.6496 -1.95675 -1.49093 71 47 125 255 
-9.8301 -1.82414 -1.46032 70 52 128 255 
-9.11975 -1.68722 -1.4424 69 55 129 255 
-8.49512 -1.56561 -1.4254 65 66 135 255 
-7.9667 -1.4638 -1.4166 64 69 136 255 
-7.52858 -1.39163 -1.40516 66 65 134 255 
-7.08945 -1.30776 -1.39086 62 74 137 255 
-6.70611 -1.2359 -1.38363 63 71 136 255 
-6.38224 -1.17382 -1.38289 63 71 136 255 
-6.09368 -1.1231 -1.37482 64 69 136 255 
-5.76399 -1.06118 -1.3574 65 68 135 255 
-5.47864 -1.00771 -1.34663 66 65 134 255 
-5.27605 -0.972274 -1.35354 66 65 134 255 
-5.06831 -0.92955 -1.34702 65 66 135 255 
-4.84417 -0.888341 -1.33623 69 55 129 255 
-4.65848 -0.856012 -1.33493 70 52 128 255 
-4.49676 -0.830287 -1.33977 69 55 129 255 
-18.8183 -3.40998 5.74498 71 14 97 255 
-18.8593 -3.43414 5.54385 71 19 101 255 
-18.8773 -3.44439 5.34684 72 22 104 255 
-18.8634 -3.44147 5.14863 71 17 100 255 
-18.8085 -3.41836 4.96169 71 16 99 255 
-18.8011 -3.42015 4.7575 71 17 100 255 
-18.8467 -3.42522 4.57407 72 26 108 255 
-18.7741 -3.40827 4.37012 70 7 90 255 
-18.751 -3.41129 4.2043 70 8 92 255 
-18.7514 -3.40773 4.00585 70 8 92 255 
-18.8127 -3.40885 3.83077 70 8 92 255 
-18.6546 -3.37316 3.61627 67 61 132 255 
-18.6316 -3.38956 3.45516 63 71 136 255 
-18.6287 -3.38206 3.26693 60 79 138 255 
-18.6416 -3.37114 3.08183 61 78 138 255 
-18.612 -3.3487 2.90052 63 72 137 255 
-18.604 -3.3812 2.74501 63 72 137 255 
-18.5816 -3.37016 2.55667 60 79 138 255 
-18.5787 -3.34971 2.37483 61 77 138 255 
-18.5976 -3.33942 2.20294 62 76 138 255 
-18.5877 -3.37824 2.04901 62 76 138 255 
-18.5991 -3.36328 1.86989 59 82 139 255 
-18.5513 -3.34143 1.68561 62 74 137 255 
-18.5566 -3.32205 1.51014 63 72 137 255 
-18.5536 -3.36869 1.3616 62 74 137 255 
-18.586 -3.35757 1.18495 59 82 139 255 
-18.636 -3.34663 1.00887 51 99 141 255 
-0 -0 0 68 1 84 255 
-18.6048 -3.37129 0.680099 71 16 99 255 
-39.3702 -7.09804 1.06154 70 11 94 255 
-18.5964 -3.33615 0.323186 72 31 112 255 
-50.6407 -9.02939 0.404013 69 4 87 255 
-0 -0 -0 68 1 84 255 
-23.9217 -4.30422 -0.233327 70 7 90 255 
-23.9351 -4.28529 -0.458394 70 10 93 255 
-18.5757 -3.30542 -0.533607 71 13 96 255 
-18.5931 -3.3558 -0.686191 71 13 96 255 
-18.5743 -3.33537 -0.860246 70 8 92 255 
-18.5501 -3.31783 -1.03707 70 11 94 255 
-18.5992 -3.30626 -1.2183 70 10 93 255 
-18.5287 -3.34084 -1.36609 72 27 109 255 
-18.0148 -3.22841 -1.49825 72 31 112 255 
-17.9391 -3.19886 -1.66476 72 23 105 255 
-15.8518 -2.81787 -1.62405 72 23 105 255 
-14.1843 -2.54985 -1.5707 72 33 115 255 
-12.7496 -2.28255 -1.5353 72 38 119 255 
-11.6206 -2.07007 -1.51207 71 42 122 255 
-10.6506 -1.88947 -1.48943 71 46 124 255 
-9.85084 -1.76553 -1.46177 70 50 126 255 
-9.12798 -1.63088 -1.44209 68 58 131 255 
-8.51331 -1.51501 -1.42686 66 64 134 255 
-7.96874 -1.41369 -1.41539 68 59 132 255 
-7.52536 -1.34333 -1.40299 65 66 135 255 
-7.1012 -1.26493 -1.39161 62 74 137 255 
-6.72707 -1.19713 -1.38642 62 76 138 255 
-6.38932 -1.13464 -1.38289 61 78 138 255 
-6.08027 -1.08209 -1.37027 62 73 137 255 
-5.79917 -1.03091 -1.36417 66 63 133 255 
-5.51152 -0.978831 -1.35321 64 70 136 255 
-5.28192 -0.939882 -1.35354 66 64 134 255 
-5.07106 -0.897928 -1.34626 64 69 136 255 
-4.84192 -0.857255 -1.33414 68 58 131 255 
-4.69966 -0.833801 -1.34524 68 57 131 255 
-4.48949 -0.800489 -1.33612 68 59 132 255 
-18.8049 -3.28851 5.73462 72 20 103 255 
-18.8469 -3.31253 5.53413 72 20 103 255 
-18.882 -3.32566 5.34227 71 19 101 255 
-18.8433 -3.31846 5.13748 71 19 101 255 
-18.8653 -3.30925 4.97124 71 16 99 255 
-18.7759 -3.29667 4.7459 72 20 103 255 
-18.7917 -3.29624 4.55573 72 38 119 255 
-18.763 -3.28746 4.36275 70 7 90 255 
-18.7562 -3.29347 4.20085 70 7 90 255 
-18.7151 -3.28263 3.99371 70 11 94 255 
-18.7115 -3.27207 3.80601 70 10 93 255 
-18.6614 -3.25627 3.61365 69 56 130 255 
-18.62 -3.26956 3.44924 60 79 138 255 
-18.618 -3.26225 3.26149 61 78 138 255 
-18.6143 -3.24838 3.07396 60 80 139 255 
-18.6079 -3.23021 2.89673 63 72 137 255 
-18.5854 -3.26015 2.73927 62 74 137 255 
-18.5716 -3.25078 2.55251 59 81 139 255 
-18.5627 -3.22936 2.37021 62 73 137 255 
-18.5795 -3.21863 2.19842 63 71 136 255 
-18.5865 -3.26034 2.04664 62 73 137 255 
-18.6047 -3.24653 1.86841 59 82 139 255 
-18.5577 -3.22515 1.68437 60 80 139 255 
-18.5678 -3.2066 1.50942 62 73 137 255 
-18.5552 -3.25151 1.36024 60 79 138 255 
-18.5827 -3.23935 1.18345 59 82 139 255 
-18.6159 -3.22523 1.00668 52 97 141 255 
-0 -0 0 68 1 84 255 
-18.4942 -3.23418 0.675318 70 11 94 255 
-39.4081 -6.85548 1.06141 70 7 90 255 
-0 -0 0 68 1 84 255 
-50.9475 -8.76189 0.406023 69 4 87 255 
-0 -0 -0 68 1 84 255 
-24.6364 -4.27692 -0.240037 70 7 90 255 
-24.2378 -4.18616 -0.46369 69 4 87 255 
-18.5503 -3.1836 -0.532306 70 11 94 255 
-18.5592 -3.23222 -0.684195 71 14 97 255 
-18.56 -3.21537 -0.858652 71 13 96 255 
-18.5465 -3.19987 -1.03576 70 10 93 255 
-18.5276 -3.17639 -1.21231 70 10 93 255 
-18.5066 -3.21973 -1.36298 72 29 111 255 
-18.0362 -3.11815 -1.49841 72 31 112 255 
-17.9015 -3.07894 -1.65948 72 23 105 255 
-15.8011 -2.70895 -1.61713 72 22 104 255 
-14.1478 -2.45377 -1.56495 72 28 110 255 
-12.734 -2.19921 -1.53177 72 35 116 255 
-11.6585 -2.00309 -1.51537 72 35 116 255 
-10.6191 -1.81673 -1.48343 70 50 126 255 
-9.85077 -1.7032 -1.46018 70 50 126 255 
-9.13782 -1.57485 -1.44209 68 58 131 255 
-8.52148 -1.46258 -1.4267 64 69 136 255 
-7.97921 -1.3651 -1.41574 66 64 134 255 
-7.54509 -1.29913 -1.40516 65 66 135 255 
-7.11367 -1.22216 -1.39256 61 77 138 255 
-6.72656 -1.15451 -1.38482 65 66 135 255 
-6.39231 -1.09475 -1.38206 62 76 138 255 
-6.0791 -1.04344 -1.36854 66 65 134 255 
-5.80251 -0.994814 -1.36349 63 72 137 255 
-5.51742 -0.944995 -1.35321 67 62 133 255 
-5.28472 -0.906963 -1.35281 67 61 132 255 
-5.06694 -0.865167 -1.34373 62 73 137 255 
-4.86612 -0.830778 -1.33937 69 55 129 255 
-4.68097 -0.800891 -1.33846 70 50 126 255 
-4.5085 -0.775367 -1.34033 69 55 129 255 
-18.7681 -3.16351 5.71736 71 46 124 255 
-18.722 -3.17227 5.49162 72 32 113 255 
-18.752 -3.18426 5.29986 72 27 109 255 
-18.7595 -3.18516 5.10922 72 23 105 255 
-18.7135 -3.16438 4.92602 72 31 112 255 
-18.7546 -3.17444 4.73551 72 26 108 255 
-18.7147 -3.16449 4.53227 68 58 131 255 
-18.7107 -3.1601 4.34601 71 13 96 255 
-18.7144 -3.16789 4.18706 71 13 96 255 
-18.7031 -3.16235 3.98692 70 11 94 255 
-18.709 -3.15345 3.80149 71 13 96 255 
-18.6239 -3.13209 3.60259 66 64 134 255 
-18.6165 -3.15131 3.44493 61 78 138 255 
-18.6144 -3.14402 3.25741 61 77 138 255 
-18.5862 -3.12608 3.06609 61 77 138 255 
-18.5493 -3.10293 2.8846 64 69 136 255 
-18.5797 -3.14176 2.73553 61 78 138 255 
-18.5541 -3.1305 2.54741 61 78 138 255 
-18.5645 -3.11245 2.36797 61 77 138 255 
-18.5558 -3.09737 2.19333 63 72 137 255 
-18.5484 -3.13646 2.04028 61 78 138 255 
-18.583 -3.12538 1.86427 62 76 138 255 
-18.5712 -3.11023 1.68383 59 82 139 255 
-18.5606 -3.08819 1.50727 64 69 136 255 
-18.5532 -3.13395 1.35865 61 77 138 255 
-18.5353 -3.11402 1.17919 60 80 139 255 
-18.6097 -3.10667 1.0053 51 98 141 255 
-0 -0 0 68 1 84 255 
-18.5009 -3.11848 0.674851 70 8 92 255 
-18.5397 -3.10811 0.498819 70 10 93 255 
-18.559 -3.09487 0.321852 72 23 105 255 
-18.523 -3.06866 0.147465 72 36 117 255 
-0 -0 -0 68 1 84 255 
-25.3594 -4.24232 -0.246823 70 8 92 255 
-18.524 -3.08238 -0.354011 71 14 97 255 
-18.5014 -3.05847 -0.530356 72 32 113 255 
-18.5087 -3.10653 -0.681618 71 13 96 255 
-18.5547 -3.09732 -0.857514 71 16 99 255 
-18.5215 -3.07865 -1.03328 71 17 100 255 
-18.5359 -3.06086 -1.21161 71 19 101 255 
-18.4877 -3.09969 -1.36015 72 37 118 255 
-18.054 -3.00726 -1.49833 72 35 116 255 
-17.9486 -2.97376 -1.66212 72 23 105 255 
-15.7939 -2.60806 -1.61472 72 24 106 255 
-14.1478 -2.36446 -1.56333 72 31 112 255 
-12.7502 -2.12152 -1.53212 71 42 122 255 
-11.7048 -1.93719 -1.51982 72 40 120 255 
-10.6232 -1.75041 -1.48247 71 45 123 255 
-9.85127 -1.6411 -1.45873 70 51 127 255 
-9.14048 -1.51761 -1.44102 65 68 135 255 
-8.50206 -1.40559 -1.42198 65 68 135 255 
-7.98549 -1.31579 -1.41539 67 61 132 255 
-7.56651 -1.25507 -1.40769 63 72 137 255 
-7.12297 -1.17881 -1.39294 62 73 137 255 
-6.71902 -1.11082 -1.38184 64 69 136 255 
-6.40566 -1.05663 -1.38352 62 76 138 255 
-6.09695 -1.00803 -1.37114 63 71 136 255 
-5.80562 -0.958715 -1.36281 65 68 135 255 
-5.53366 -0.912863 -1.35579 66 65 134 255 
-5.2787 -0.872622 -1.34987 68 59 132 255 
-5.07024 -0.833747 -1.34322 62 74 137 255 
-4.87017 -0.800748 -1.33911 68 58 131 255 
-4.6782 -0.770902 -1.33629 70 51 127 255 
-4.48761 -0.743454 -1.33274 69 53 129 255 
-18.7729 -3.04599 5.71304 71 19 101 255 
-18.743 -3.05765 5.49218 72 24 106 255 
-18.7569 -3.06681 5.29584 72 32 113 255 
-18.773 -3.06905 5.10766 71 44 122 255 
-18.7354 -3.04996 4.92677 72 28 110 255 
-18.7307 -3.05228 4.72464 72 33 115 255 
-18.7434 -3.05116 4.53459 61 77 138 255 
-18.7057 -3.04132 4.34043 72 33 115 255 
-18.6873 -3.04546 4.17672 71 42 122 255 
-18.697 -3.04344 3.98158 71 44 122 255 
-18.6661 -3.02855 3.78892 72 41 121 255 
-18.603 -3.01132 3.59491 64 69 136 255 
-18.5685 -3.0261 3.43255 63 72 137 255 
-18.5847 -3.02183 3.24891 59 81 139 255 
-18.5923 -3.00993 3.064 60 79 138 255 
-18.5475 -2.98576 2.88142 62 73 137 255 
-18.5576 -3.02102 2.7295 59 81 139 255 
-18.5524 -3.01326 2.5446 61 77 138 255 
-18.5451 -2.99231 2.3631 61 77 138 255 
-18.547 -2.97905 2.19008 65 68 135 255 
-18.5378 -3.0178 2.03705 63 72 137 255 
-18.5419 -3.0016 1.85827 62 74 137 255 
-18.5496 -2.98973 1.68018 61 78 138 255 
-18.5309 -2.96652 1.50335 64 69 136 255 
-18.5356 -3.01412 1.35599 61 77 138 255 
-18.5136 -2.9937 1.17662 61 77 138 255 
-18.5545 -2.98054 1.00131 59 81 139 255 
-0 -0 0 68 1 84 255 
-18.5789 -3.0145 0.677008 49 103 142 255 
-18.5781 -2.99748 0.49935 50 102 142 255 
-18.5934 -2.98347 0.322125 54 92 141 255 
-18.577 -2.96061 0.147748 57 85 140 255 
-18.5904 -3.01305 -0.00328698 55 91 141 255 
-18.5621 -2.98825 -0.180483 54 93 141 255 
-18.5484 -2.96961 -0.354124 58 84 140 255 
-18.5317 -2.94677 -0.530695 55 90 140 255 
-18.558 -2.99785 -0.682743 56 88 140 255 
-18.5556 -2.98056 -0.856694 55 90 140 255 
-18.5242 -2.96242 -1.0324 56 88 140 255 
-18.5504 -2.94644 -1.21135 57 86 140 255 
-18.4758 -2.98126 -1.35791 72 31 112 255 
-17.9767 -2.88113 -1.49042 72 31 112 255 
-17.9261 -2.85715 -1.65839 72 23 105 255 
-15.8047 -2.51032 -1.61422 72 24 106 255 
-14.1915 -2.28234 -1.56658 72 35 116 255 
-12.7718 -2.04466 -1.53318 72 37 118 255 
-11.6802 -1.85956 -1.51512 71 42 122 255 
-10.6611 -1.68954 -1.48629 72 41 121 255 
-9.85627 -1.57984 -1.45801 69 55 129 255 
-9.1545 -1.46228 -1.44179 65 66 135 255 
-8.50371 -1.35232 -1.42084 66 65 134 255 
-7.9866 -1.26569 -1.41419 68 57 131 255 
-7.56727 -1.20753 -1.40642 60 79 138 255 
-7.12231 -1.13385 -1.39142 61 78 138 255 
-6.75087 -1.07357 -1.38701 62 76 138 255 
-6.41782 -1.01822 -1.38477 63 71 136 255 
-6.0818 -0.967231 -1.36638 63 71 136 255 
-5.79407 -0.920324 -1.35875 64 70 136 255 
-5.52476 -0.876607 -1.35227 65 68 135 255 
-5.26576 -0.837323 -1.34522 67 62 133 255 
-5.07717 -0.802923 -1.34373 62 76 138 255 
-4.86927 -0.769946 -1.33754 68 59 132 255 
-4.68284 -0.742183 -1.33629 70 50 126 255 
-4.49967 -0.717113 -1.33499 70 52 128 255 
-18.7723 -2.9278 5.70729 71 19 101 255 
-18.7472 -2.94035 5.48801 72 20 103 255 
-18.7792 -2.95226 5.29691 71 19 101 255 
-18.7867 -2.95306 5.10636 71 17 100 255 
-18.7653 -2.93674 4.92978 71 17 100 255 
-18.7385 -2.93564 4.72198 72 23 105 255 
-18.7166 -2.92903 4.52367 57 85 140 255 
-18.723 -2.92634 4.34021 70 11 94 255 
-18.7326 -2.93498 4.18275 70 7 90 255 
-18.7627 -2.93608 3.99166 70 7 90 255 
-18.6765 -2.91275 3.78735 69 4 87 255 
-18.5552 -2.88685 3.58217 66 63 133 255 
-18.5565 -2.90739 3.42698 62 73 137 255 
-18.5737 -2.90318 3.24381 62 76 138 255 
-18.551 -2.88653 3.05421 61 77 138 255 
-18.5684 -2.87235 2.88188 59 81 139 255 
-18.5435 -2.90204 2.72476 59 81 139 255 
-18.549 -2.89601 2.54165 59 82 139 255 
-18.5278 -2.87299 2.35861 62 74 137 255 
-18.5394 -2.86125 2.18707 62 73 137 255 
-18.5324 -2.9003 2.03446 62 73 137 255 
-18.5325 -2.88348 1.85551 62 73 137 255 
-18.5164 -2.86792 1.67555 62 73 137 255 
-18.5281 -2.84958 1.50168 62 73 137 255 
-18.536 -2.89756 1.35469 61 77 138 255 
-18.5218 -2.87852 1.176 58 83 139 255 
-18.53 -2.86009 0.999022 63 71 136 255 
-0 -0 0 68 1 84 255 
-18.5239 -2.88905 0.674348 72 28 110 255 
-40.222 -6.23662 1.08005 70 8 92 255 
-0 -0 0 68 2 86 255 
-52.2922 -8.00511 0.415495 69 4 87 255 
-18.5008 -2.88215 -0.00326795 72 35 116 255 
-18.5495 -2.86956 -0.180186 71 19 101 255 
-18.5347 -2.85088 -0.353521 70 7 90 255 
-18.5316 -2.83029 -0.530186 71 19 101 255 
-18.5119 -2.87396 -0.680384 71 46 124 255 
-18.5064 -2.85629 -0.853597 72 31 112 255 
-18.5144 -2.84446 -1.03087 71 19 101 255 
-18.508 -2.82338 -1.20742 71 14 97 255 
-18.4267 -2.85745 -1.35299 72 31 112 255 
-17.9822 -2.76895 -1.48944 72 33 115 255 
-17.9325 -2.74545 -1.65739 72 27 109 255 
-15.8011 -2.41044 -1.61231 72 26 108 255 
-14.2053 -2.19522 -1.56658 72 33 115 255 
-12.7596 -1.96248 -1.53024 72 35 116 255 
-11.6787 -1.78591 -1.51347 71 44 122 255 
-10.6781 -1.62513 -1.48725 71 42 122 255 
-9.856 -1.51783 -1.45656 70 48 126 255 
-9.15061 -1.40413 -1.43979 66 64 134 255 
-8.51282 -1.30026 -1.421 65 66 135 255 
-8.00785 -1.21874 -1.4166 66 64 134 255 
-7.57259 -1.16078 -1.40606 61 78 138 255 
-7.1039 -1.08627 -1.3865 62 74 137 255 
-6.74958 -1.03094 -1.38542 61 78 138 255 
-6.41814 -0.977938 -1.38352 62 74 137 255 
-6.08955 -0.93019 -1.36681 65 68 135 255 
-5.78131 -0.881963 -1.35446 65 68 135 255 
-5.55406 -0.846352 -1.35814 64 70 136 255 
-5.26601 -0.804265 -1.344 66 64 134 255 
-5.08392 -0.772045 -1.34424 62 73 137 255 
-4.86246 -0.738315 -1.3344 66 64 134 255 
-4.68445 -0.713001 -1.33547 70 48 126 255 
-4.51822 -0.691668 -1.33921 70 51 127 255 
-18.7852 -2.81185 5.70585 72 20 103 255 
-18.7354 -2.82083 5.4794 71 17 100 255 
-18.7865 -2.83539 5.29396 72 22 104 255 
-18.8293 -2.84148 5.11311 71 19 101 255 
-18.7724 -2.81996 4.92702 71 19 101 255 
-18.7648 -2.82191 4.72416 71 19 101 255 
-18.7082 -2.81023 4.5174 56 89 140 255 
-18.7194 -2.80822 4.33529 69 5 89 255 
-18.7232 -2.81591 4.17672 70 7 90 255 
-18.7223 -2.81218 3.97931 70 10 93 255 
-0 -0 0 68 2 86 255 
-18.5356 -2.76743 3.57505 64 69 136 255 
-18.5497 -2.78982 3.4225 63 72 137 255 
-18.5599 -2.78448 3.23836 59 82 139 255 
-18.5439 -2.76901 3.05019 61 78 138 255 
-18.5358 -2.75096 2.87414 62 76 138 255 
-18.5502 -2.78659 2.72318 61 77 138 255 
-18.5468 -2.7792 2.53896 58 83 139 255 
-18.5333 -2.7575 2.35711 60 79 138 255 
-18.5242 -2.74264 2.18325 65 68 135 255 
-18.5263 -2.78299 2.03187 61 78 138 255 
-18.5291 -2.76663 1.85345 61 77 138 255 
-18.5041 -2.74986 1.67288 62 74 137 255 
-18.5226 -2.7325 1.49984 62 73 137 255 
-18.4973 -2.77534 1.35059 61 78 138 255 
-18.5164 -2.76143 1.17456 58 84 140 255 
-18.5294 -2.7437 0.998065 70 52 128 255 
-0 -0 0 68 1 84 255 
-0 -0 0 68 1 84 255 
-40.4286 -6.01486 1.08459 70 10 93 255 
-0 -0 0 68 1 84 255 
-52.4848 -7.70531 0.416642 69 4 87 255 
-0 -0 -0 68 1 84 255 
-0 -0 -0 68 1 84 255 
-0 -0 -0 68 2 86 255 
-18.5457 -2.71609 -0.530101 70 10 93 255 
-18.5262 -2.75988 -0.680275 71 16 99 255 
-18.4989 -2.73902 -0.852459 71 13 96 255 
-18.5039 -2.72673 -1.02933 71 13 96 255 
-18.4272 -2.69547 -1.20105 71 13 96 255 
-18.3966 -2.73729 -1.34952 72 35 116 255 
-17.9821 -2.65609 -1.48805 72 33 115 255 
-17.8712 -2.62393 -1.6502 72 27 109 255 
-15.8451 -2.31777 -1.61532 72 22 104 255 
-14.2185 -2.10801 -1.56658 72 32 113 255 
-12.739 -1.87937 -1.52635 72 37 118 255 
-11.6462 -1.70788 -1.50788 72 37 118 255 
-10.682 -1.55872 -1.48643 71 45 123 255 
-9.85338 -1.45559 -1.45483 70 51 127 255 
-9.14341 -1.34566 -1.43733 65 68 135 255 
-8.52356 -1.24843 -1.42149 64 70 136 255 
-7.96839 -1.16275 -1.40833 67 61 132 255 
-7.56497 -1.11215 -1.40336 62 74 137 255 
-7.1114 -1.0428 -1.38669 62 73 137 255 
-6.76063 -0.990218 -1.38642 58 84 140 255 
-6.41725 -0.937549 -1.38206 64 70 136 255 
-6.10288 -0.89394 -1.36854 64 69 136 255 
-5.80493 -0.849152 -1.35875 63 72 137 255 
-5.53125 -0.808182 -1.35133 66 63 133 255 
-5.29291 -0.77517 -1.34963 66 64 134 255 
-5.06462 -0.737352 -1.33791 63 72 137 255 
-4.87549 -0.709717 -1.33676 67 62 133 255 
-4.68016 -0.682993 -1.33303 67 61 132 255 
-4.53377 -0.665605 -1.34258 68 57 131 255 
-18.8372 -2.70156 5.7165 71 19 101 255 
-18.7143 -2.70033 5.46829 72 20 103 255 
-18.7711 -2.71538 5.28483 71 19 101 255 
-18.7842 -2.7169 5.09625 72 24 106 255 
-18.7481 -2.6988 4.91622 72 23 105 255 
-18.7856 -2.70727 4.72513 72 23 105 255 
-18.6982 -2.69151 4.5109 61 78 138 255 
-18.6938 -2.6872 4.32547 70 10 93 255 
-18.7227 -2.69847 4.17284 70 8 92 255 
-18.7373 -2.69697 3.9789 70 8 92 255 
-18.7254 -2.68543 3.79029 69 4 87 255 
-18.5279 -2.65017 3.57036 65 68 135 255 
-18.5441 -2.67272 3.41837 59 82 139 255 
-18.5503 -2.66676 3.23377 59 82 139 255 
-18.5234 -2.64986 3.04409 61 77 138 255 
-18.5338 -2.63453 2.87126 59 81 139 255 
-18.5386 -2.66863 2.71901 59 82 139 255 
-18.5135 -2.65817 2.53212 61 78 138 255 
-18.5086 -2.63785 2.35187 61 78 138 255 
-18.4984 -2.62293 2.17827 63 71 136 255 
-18.5194 -2.66586 2.02928 60 80 139 255 
-18.5014 -2.64655 1.84901 61 78 138 255 
-18.5088 -2.63459 1.67181 61 78 138 255 
-18.4827 -2.61085 1.49529 63 72 137 255 
-18.4942 -2.65895 1.34914 62 74 137 255 
-18.5004 -2.6431 1.17249 57 86 140 255 
-18.533 -2.62813 0.997373 72 38 119 255 
-0 -0 0 68 2 86 255 
-33.9633 -4.87089 1.23414 69 4 87 255 
-40.8695 -5.82437 1.09544 70 7 90 255 
-18.5254 -2.62375 0.320056 69 55 129 255 
-53.0589 -7.45731 0.420828 69 5 89 255 
-0 -0 -0 68 1 84 255 
-0 -0 -0 68 1 84 255 
-0 -0 -0 68 2 86 255 
-18.5303 -2.59781 -0.529197 70 11 94 255 
-18.5121 -2.64177 -0.67915 70 8 92 255 
-18.4827 -2.62083 -0.850956 71 14 97 255 
-18.4659 -2.60546 -1.0263 71 13 96 255 
-18.4513 -2.58345 -1.20157 71 13 96 255 
-18.4012 -2.62267 -1.34865 72 33 115 255 
-17.9388 -2.53733 -1.48315 72 33 115 255 
-17.88 -2.51326 -1.64956 72 27 109 255 
-15.7704 -2.20808 -1.60629 72 27 109 255 
-14.1199 -2.00494 -1.55434 72 32 113 255 
-12.7493 -1.80103 -1.52624 71 42 122 255 
-11.6506 -1.63556 -1.50711 71 42 122 255 
-10.6698 -1.49014 -1.48343 71 46 124 255 
-9.85037 -1.39344 -1.45309 69 53 129 255 
-9.13486 -1.28719 -1.43472 65 68 135 255 
-8.52227 -1.19488 -1.42002 66 64 134 255 
-7.98123 -1.11465 -1.40937 68 59 132 255 
-7.55802 -1.06379 -1.40083 64 70 136 255 
-7.10892 -0.997917 -1.38498 64 69 136 255 
-6.76075 -0.947901 -1.38522 62 76 138 255 
-6.41804 -0.897479 -1.38102 66 64 134 255 
-6.10631 -0.856206 -1.36811 63 71 136 255 
-5.79845 -0.811897 -1.35604 64 70 136 255 
-5.51878 -0.771804 -1.3471 67 62 133 255 
-5.2726 -0.739179 -1.34327 66 65 134 255 
-5.06234 -0.705327 -1.33614 63 72 137 255 
-4.87497 -0.679122 -1.33545 67 61 132 255 
-4.67664 -0.653199 -1.33086 68 58 131 255 
-4.52826 -0.636438 -1.33977 70 50 126 255 
-18.6997 -2.56485 5.66989 72 20 103 255 
-18.7182 -2.58375 5.46467 71 19 101 255 
-18.7235 -2.5913 5.26685 72 24 106 255 
-18.7259 -2.59127 5.07602 71 17 100 255 
-18.7672 -2.5841 4.91697 71 19 101 255 
-18.7778 -2.58864 4.71909 72 23 105 255 
-18.6719 -2.57089 4.50068 68 58 131 255 
-18.7129 -2.57285 4.32614 70 8 92 255 
-18.6809 -2.57554 4.15992 70 8 92 255 
-18.6885 -2.573 3.96512 70 8 92 255 
-18.5084 -2.5385 3.74314 69 4 87 255 
-18.5205 -2.53324 3.56587 64 69 136 255 
-18.5397 -2.55606 3.4146 61 77 138 255 
-18.541 -2.54939 3.22935 59 81 139 255 
-18.5168 -2.53307 3.0404 61 78 138 255 
-18.5104 -2.51544 2.8652 61 78 138 255 
-18.5154 -2.54943 2.71326 59 82 139 255 
-18.5157 -2.54263 2.53024 60 79 138 255 
-18.5018 -2.52116 2.34899 60 79 138 255 
-18.4817 -2.50497 2.17445 62 74 137 255 
-18.4704 -2.54323 2.02217 63 71 136 255 
-18.4927 -2.5296 1.84655 59 81 139 255 
-18.4743 -2.51412 1.66727 61 78 138 255 
-18.4559 -2.49165 1.49186 62 76 138 255 
-18.4835 -2.54175 1.3472 60 79 138 255 
-18.5034 -2.52778 1.17168 57 85 140 255 
-18.5646 -2.51651 0.998224 72 22 104 255 
-0 -0 0 68 1 84 255 
-33.9896 -4.662 1.23403 70 10 93 255 
-33.9661 -4.62809 0.909626 70 7 90 255 
-18.5431 -2.5103 0.32009 69 56 130 255 
-53.5169 -7.1871 0.424103 69 4 87 255 
-0 -0 -0 68 1 84 255 
-0 -0 -0 68 1 84 255 
-0 -0 -0 68 1 84 255 
-18.4548 -2.47185 -0.526596 70 11 94 255 
-18.4706 -2.5203 -0.677045 71 16 99 255 
-18.4806 -2.50496 -0.850137 71 17 100 255 
-18.4726 -2.49091 -1.02581 71 16 99 255 
-18.4698 -2.47059 -1.20176 70 11 94 255 
-18.4317 -2.51173 -1.34973 71 44 122 255 
-17.9284 -2.42374 -1.48103 72 32 113 255 
-17.828 -2.39449 -1.64338 72 27 109 255 
-15.758 -2.10785 -1.60368 72 27 109 255 
-14.1339 -1.91853 -1.55455 72 38 119 255 
-12.7473 -1.72104 -1.52471 71 44 122 255 
-11.6221 -1.5589 -1.50216 71 42 122 255 
-10.6699 -1.42346 -1.4822 71 46 124 255 
-9.84893 -1.33164 -1.45165 70 50 126 255 
-9.13181 -1.22966 -1.43303 66 63 133 255 
-8.52651 -1.14217 -1.41953 62 74 137 255 
-8.0299 -1.07126 -1.41677 66 65 134 255 
-7.55173 -1.01569 -1.39848 65 68 135 255 
-7.11491 -0.954279 -1.38498 61 78 138 255 
-6.75187 -0.904448 -1.38224 61 78 138 255 
-6.39337 -0.854067 -1.37456 68 58 131 255 
-6.09887 -0.817037 -1.36529 67 62 133 255 
-5.78595 -0.773978 -1.35198 66 65 134 255 
-5.52438 -0.738056 -1.34733 68 59 132 255 
-5.26839 -0.705654 -1.34106 64 70 136 255 
-5.08288 -0.676422 -1.34044 62 73 137 255 
-4.87235 -0.648306 -1.33361 66 65 134 255 
-4.68819 -0.625509 -1.33303 66 64 134 255 
-4.55016 -0.611068 -1.34511 69 55 129 255 
-18.7208 -2.4508 5.67162 72 22 104 255 
-18.7289 -2.46822 5.46328 72 22 104 255 
-18.7295 -2.47511 5.26416 72 22 104 255 
-18.7482 -2.4772 5.07784 71 17 100 255 
-18.7232 -2.46108 4.9014 72 20 103 255 
-18.7472 -2.46729 4.70749 71 19 101 255 
-18.6256 -2.44816 4.48582 71 42 122 255 
-18.6858 -2.4524 4.31632 70 7 90 255 
-18.6973 -2.46099 4.16014 70 7 90 255 
-18.7127 -2.45943 3.96697 70 7 90 255 
-18.687 -2.44627 3.77615 69 4 87 255 
-18.5045 -2.41549 3.55987 62 74 137 255 
-18.5092 -2.43622 3.40616 62 76 138 255 
-18.5143 -2.43007 3.22204 60 80 139 255 
-18.4831 -2.41302 3.03237 58 83 139 255 
-18.4912 -2.39736 2.85989 64 70 136 255 
-18.5062 -2.43255 2.70967 61 78 138 255 
-18.4897 -2.42356 2.52461 62 74 137 255 
-18.4835 -2.40323 2.34475 59 81 139 255 
-18.4543 -2.38605 2.16947 63 72 137 255 
-18.4768 -2.42869 2.0212 62 73 137 255 
-18.4792 -2.41235 1.8437 60 79 138 255 
-18.4736 -2.39867 1.66584 61 78 138 255 
-18.4521 -2.37594 1.49034 62 73 137 255 
-18.477 -2.42543 1.34562 62 76 138 255 
-18.4879 -2.4102 1.16974 56 88 140 255 
-18.5817 -2.40281 0.998331 71 17 100 255 
-18.3198 -2.35243 0.809659 70 8 92 255 
-33.9898 -4.44972 1.23302 70 11 94 255 
-33.9839 -4.4183 0.909361 70 10 93 255 
-18.4927 -2.38803 0.318961 72 24 106 255 
-53.8278 -6.89289 0.426223 69 4 87 255 
-0 -0 -0 68 1 84 255 
-0 -0 -0 68 1 84 255 
-0 -0 -0 68 1 84 255 
-18.4706 -2.35869 -0.526624 71 13 96 255 
-18.455 -2.40292 -0.675919 71 17 100 255 
-18.4867 -2.39037 -0.849727 71 13 96 255 
-18.4747 -2.37586 -1.0251 71 14 97 255 
-18.5103 -2.36049 -1.20343 70 11 94 255 
-18.3934 -2.39164 -1.34582 72 31 112 255 
-17.9301 -2.31203 -1.47997 72 35 116 255 
-17.8305 -2.28353 -1.64228 72 28 110 255 
-15.7252 -2.00533 -1.59906 72 24 106 255 
-14.0794 -1.82322 -1.54729 72 38 119 255 
-12.7547 -1.64241 -1.52435 72 33 115 255 
-11.6186 -1.48593 -1.50051 72 41 121 255 
-10.6775 -1.35784 -1.48206 72 40 120 255 
-9.85004 -1.2703 -1.45064 69 55 129 255 
-9.11664 -1.17071 -1.42949 65 66 135 255 
-8.5265 -1.08896 -1.4184 64 70 136 255 
-8.01873 -1.01973 -1.41367 64 69 136 255 
-7.55002 -0.968331 -1.39704 64 69 136 255 
-7.13621 -0.912597 -1.38801 59 81 139 255 
-6.7573 -0.863002 -1.38224 59 82 139 255 
-6.40819 -0.816058 -1.37664 66 65 134 255 
-6.09796 -0.778857 -1.36399 67 62 133 255 
-5.81088 -0.741049 -1.35672 64 69 136 255 
-5.52398 -0.703531 -1.34616 69 55 129 255 
-5.26493 -0.672332 -1.33911 64 69 136 255 
-5.07542 -0.64376 -1.33741 62 73 137 255 
-4.87432 -0.618155 -1.33309 65 66 135 255 
-4.7034 -0.598188 -1.33629 66 63 133 255 
-4.53383 -0.580577 -1.33921 70 52 128 255 
-18.7022 -2.33174 5.66155 72 23 105 255 
-18.7237 -2.35074 5.45745 72 20 103 255 
-18.7481 -2.36062 5.26524 72 22 104 255 
-18.7362 -2.35874 5.07058 71 19 101 255 
-18.6756 -2.33833 4.88507 72 22 104 255 
-18.7331 -2.34859 4.70024 72 22 104 255 
-18.6181 -2.33105 4.48047 72 23 105 255 
-18.7111 -2.33903 4.31877 70 10 93 255 
-18.6704 -2.341 4.15087 70 10 93 255 
-18.5837 -2.32657 3.93653 70 7 90 255 
-0 -0 0 68 2 86 255 
-18.4995 -2.29948 3.55612 65 68 135 255 
-18.5013 -2.31979 3.40204 61 78 138 255 
-18.4995 -2.31275 3.21694 59 81 139 255 
-18.4711 -2.29628 3.02803 62 73 137 255 
-18.4987 -2.28301 2.85883 63 72 137 255 
-18.4805 -2.31391 2.70378 62 74 137 255 
-18.4747 -2.30639 2.52058 61 77 138 255 
-18.4566 -2.28466 2.33951 59 81 139 255 
-18.4578 -2.27143 2.1682 61 78 138 255 
-18.4706 -2.31267 2.01893 62 76 138 255 
-18.467 -2.2956 1.84104 58 83 139 255 
-18.4801 -2.28429 1.66513 60 80 139 255 
-18.4465 -2.26026 1.48874 63 71 136 255 
-18.4519 -2.30707 1.34274 61 78 138 255 
-18.4518 -2.29044 1.16654 58 84 140 255 
-18.6615 -2.2968 1.00184 71 13 96 255 
-18.5015 -2.26045 0.81706 69 5 89 255 
-33.9927 -4.23811 1.23216 70 8 92 255 
-33.9925 -4.20748 0.908883 70 10 93 255 
-33.9496 -4.1724 0.585107 69 4 87 255 
-36.4017 -4.43456 0.288018 69 5 89 255 
-0 -0 -0 68 1 84 255 
-0 -0 -0 68 2 86 255 
-0 -0 -0 68 2 86 255 
-18.4579 -2.24206 -0.525861 71 14 97 255 
-18.4118 -2.2825 -0.673814 71 16 99 255 
-18.4743 -2.27359 -0.848497 71 19 101 255 
-18.4968 -2.26343 -1.02554 71 13 96 255 
-18.468 -2.24002 -1.19976 70 10 93 255 
-18.3939 -2.27702 -1.34481 72 29 111 255 
-17.937 -2.20112 -1.4794 72 40 120 255 
-17.8066 -2.16951 -1.63883 72 29 111 255 
-15.7204 -1.90676 -1.59736 72 31 112 255 
-14.0883 -1.73655 -1.54708 72 38 119 255 
-12.729 -1.55977 -1.52012 72 36 117 255 
-11.6275 -1.41461 -1.50051 72 41 121 255 
-10.6984 -1.29384 -1.48384 72 38 119 255 
-9.83899 -1.20755 -1.44789 69 55 129 255 
-9.11777 -1.11403 -1.42857 67 62 133 255 
-8.54184 -1.03769 -1.41986 64 69 136 255 
-8.01506 -0.969329 -1.41195 64 69 136 255 
-7.58218 -0.925204 -1.40191 64 70 136 255 
-7.15337 -0.870216 -1.39029 63 72 137 255 
-6.75371 -0.82046 -1.38045 61 77 138 255 
-6.4092 -0.776252 -1.37581 66 64 134 255 
-6.09972 -0.741073 -1.36334 66 65 134 255 
-5.80951 -0.704677 -1.35537 68 57 131 255 
-5.49731 -0.665883 -1.33864 70 52 128 255 
-5.2651 -0.639547 -1.33813 65 66 135 255 
-5.06486 -0.610868 -1.33361 63 71 136 255 
-4.86365 -0.586502 -1.32916 66 64 134 255 
-4.71176 -0.569896 -1.33764 67 62 133 255 
-4.52302 -0.551006 -1.33499 69 56 130 255 
-18.6981 -2.2148 5.65608 72 20 103 255 
-18.732 -2.23513 5.45578 72 23 105 255 
-18.7068 -2.2389 5.24967 72 20 103 255 
-18.6832 -2.2357 5.05242 72 24 106 255 
-18.7193 -2.22724 4.89285 72 23 105 255 
-18.7211 -2.23051 4.69372 72 23 105 255 
-18.6301 -2.21654 4.48001 71 16 99 255 
-18.6854 -2.21946 4.30962 70 7 90 255 
-18.6553 -2.22293 4.14441 71 13 96 255 
-18.5607 -2.20811 3.92871 70 7 90 255 
-0 -0 0 68 2 86 255 
-18.483 -2.18235 3.55031 62 74 137 255 
-18.5054 -2.20506 3.40024 58 83 139 255 
-18.4752 -2.19466 3.21031 61 78 138 255 
-18.4633 -2.18035 3.0245 62 73 137 255 
-18.4819 -2.1659 2.85413 61 77 138 255 
-18.4776 -2.19848 2.70134 60 80 139 255 
-18.4728 -2.19112 2.51844 58 83 139 255 
-18.4476 -2.1687 2.33664 62 73 137 255 
-18.4625 -2.1571 2.16716 62 76 138 255 
-18.4677 -2.1973 2.0171 61 77 138 255 
-18.4333 -2.17665 1.83631 60 80 139 255 
-18.4393 -2.16447 1.66023 58 84 140 255 
-18.4521 -2.14611 1.4881 62 76 138 255 
-18.4429 -2.1911 1.34108 62 74 137 255 
-18.4467 -2.17496 1.16535 58 83 139 255 
-18.8429 -2.20184 1.01083 70 10 93 255 
-18.4535 -2.13975 0.814345 72 22 104 255 
-18.4768 -2.18859 0.669243 70 48 126 255 
-18.4484 -2.16864 0.492904 68 57 131 255 
-18.468 -2.15477 0.318055 63 72 137 255 
-18.4386 -2.13151 0.145784 62 76 138 255 
-18.4137 -2.17786 -0.00323619 72 35 116 255 
-18.4211 -2.1589 -0.178045 71 44 122 255 
-18.4324 -2.1441 -0.349827 68 57 131 255 
-18.4504 -2.12636 -0.525267 64 69 136 255 
-18.4166 -2.16844 -0.673488 72 33 115 255 
-18.4095 -2.15104 -0.8449 72 37 118 255 
-18.4033 -2.13745 -1.0196 70 52 128 255 
-18.4358 -2.12142 -1.1968 68 59 132 255 
-18.3887 -2.1619 -1.34344 72 33 115 255 
-17.9284 -2.08848 -1.47761 72 35 116 255 
-17.8117 -2.05929 -1.6381 72 29 111 255 
-15.719 -1.80879 -1.59605 72 28 110 255 
-14.1333 -1.65412 -1.55087 72 37 118 255 
-12.7206 -1.47957 -1.518 72 37 118 255 
-11.6321 -1.34278 -1.5 72 38 119 255 
-10.6884 -1.22614 -1.48138 71 45 123 255 
-9.82459 -1.14464 -1.44471 69 55 129 255 
-9.12345 -1.05795 -1.42842 67 61 132 255 
-8.54903 -0.98537 -1.42002 64 70 136 255 
-7.98856 -0.916427 -1.40626 68 58 131 255 
-7.56915 -0.876513 -1.39848 61 77 138 255 
-7.15565 -0.825969 -1.38972 62 76 138 255 
-6.74985 -0.777995 -1.37866 63 72 137 255 
-6.40218 -0.735572 -1.3733 66 65 134 255 
-6.09251 -0.70229 -1.36074 68 59 132 255 
-5.78566 -0.665787 -1.34882 66 65 134 255 
-5.49261 -0.631141 -1.33652 70 52 128 255 
-5.26026 -0.60623 -1.33593 62 73 137 255 
-5.05698 -0.57846 -1.33058 65 66 135 255 
-4.88346 -0.558512 -1.33361 63 71 136 255 
-4.69796 -0.538999 -1.33276 68 57 131 255 
-4.53394 -0.524125 -1.33724 68 57 131 255 
-18.6799 -2.09651 5.64659 72 22 104 255 
-18.6977 -2.11475 5.44189 72 26 108 255 
-18.6876 -2.12038 5.24054 72 23 105 255 
-18.6994 -2.12135 5.0532 71 19 101 255 
-18.6971 -2.10833 4.88356 72 20 103 255 
-18.7103 -2.11287 4.68768 72 28 110 255 
-18.6395 -2.10175 4.47908 70 11 94 255 
-18.6696 -2.1015 4.30292 70 7 90 255 
-18.5677 -2.09702 4.12201 70 11 94 255 
-18.5856 -2.0955 3.93118 71 13 96 255 
-18.6411 -2.09205 3.75847 69 5 89 255 
-18.456 -2.06442 3.54263 63 72 137 255 
-18.4717 -2.08618 3.39163 60 80 139 255 
-18.4902 -2.08148 3.21065 60 80 139 255 
-18.4626 -2.06549 3.02225 61 78 138 255 
-18.4693 -2.04962 2.85019 61 78 138 255 
-18.4593 -2.08152 2.69674 57 86 140 255 
-18.4869 -2.07784 2.51857 58 84 140 255 
-18.4447 -2.05371 2.33464 58 84 140 255 
-18.4517 -2.04115 2.16438 65 68 135 255 
-18.462 -2.08183 2.01505 62 73 137 255 
-18.4285 -2.06151 1.83454 61 77 138 255 
-18.4414 -2.05008 1.65925 60 79 138 255 
-18.456 -2.03186 1.48738 64 70 136 255 
-18.4511 -2.07734 1.34072 62 76 138 255 
-18.418 -2.05708 1.16272 58 84 140 255 
-18.458 -2.04215 0.989498 66 64 134 255 
-18.4504 -2.02474 0.813644 69 55 129 255 
-18.477 -2.07373 0.668776 56 88 140 255 
-18.4534 -2.05452 0.492692 54 92 141 255 
-18.456 -2.03867 0.317627 60 79 138 255 
-18.4424 -2.01736 0.145713 66 65 134 255 
-18.4585 -2.06839 -0.00324177 51 99 141 255 
-18.4688 -2.04969 -0.178381 53 95 141 255 
-18.4631 -2.03293 -0.350166 56 88 140 255 
-18.4562 -2.01235 -0.525069 59 82 139 255 
-18.4444 -2.05705 -0.674032 53 94 141 255 
-18.4472 -2.04078 -0.846038 51 98 141 255 
-8.06911 -0.887044 -0.446745 72 37 118 255 
-18.4137 -2.00448 -1.19455 67 61 132 255 
-18.3818 -2.04683 -1.34199 72 31 112 255 
-17.8973 -1.97363 -1.47402 72 31 112 255 
-17.7101 -1.93751 -1.62764 72 24 106 255 
-15.6467 -1.70326 -1.58762 72 27 109 255 
-14.1323 -1.56616 -1.54968 72 36 117 255 
-12.6909 -1.39725 -1.51341 72 40 120 255 
-11.6578 -1.27332 -1.50228 72 35 116 255 
-10.68 -1.15883 -1.4792 71 44 122 255 
-9.81766 -1.08281 -1.44269 68 58 131 255 
-9.12486 -1.00141 -1.42765 66 63 133 255 
-8.54903 -0.932253 -1.41905 67 62 133 255 
-7.99697 -0.867712 -1.40678 67 62 133 255 
-7.54603 -0.826946 -1.39325 64 69 136 255 
-7.14985 -0.780875 -1.38763 64 70 136 255 
-6.77009 -0.738264 -1.38184 60 79 138 255 
-6.39685 -0.695218 -1.37122 67 62 133 255 
-6.0773 -0.662777 -1.35641 69 53 129 255 
-5.77414 -0.628587 -1.34521 67 61 132 255 
-5.49348 -0.597112 -1.33582 69 55 129 255 
-5.25424 -0.572891 -1.33348 64 70 136 255 
-5.08064 -0.549605 -1.33589 67 62 133 255 
-4.88392 -0.528226 -1.33283 64 70 136 255 
-4.70596 -0.510682 -1.33412 69 55 129 255 
-4.49033 -0.491182 -1.32346 69 53 129 255 
-18.6877 -1.98134 5.64515 71 16 99 255 
-18.6922 -1.99804 5.43661 72 22 104 255 
-18.6945 -2.00506 5.23893 72 20 103 255 
-18.6833 -2.00348 5.04542 72 22 104 255 
-18.6432 -1.98649 4.86622 72 20 103 255 
-18.7036 -1.99597 4.68285 72 23 105 255 
-18.6434 -1.98641 4.47699 70 10 93 255 
-18.5649 -1.97443 4.27591 70 8 92 255 
-18.589 -1.98398 4.12395 70 11 94 255 
-18.6545 -1.98743 3.94311 69 5 89 255 
-18.5415 -1.96574 3.73588 69 5 89 255 
-18.4566 -1.9499 3.54038 62 76 138 255 
-18.4626 -1.9705 3.38768 62 76 138 255 
-18.4752 -1.96507 3.20589 59 82 139 255 
-18.4602 -1.95061 3.01985 61 78 138 255 
-18.457 -1.93368 2.8464 62 73 137 255 
-18.452 -1.96612 2.69387 58 83 139 255 
-18.4727 -1.96154 2.51495 59 82 139 255 
-18.4343 -1.93811 2.33177 59 82 139 255 
-18.4421 -1.92563 2.16183 62 73 137 255 
-18.4359 -1.9644 2.01084 63 72 137 255 
-18.4299 -1.94725 1.83346 60 80 139 255 
-18.4268 -1.93408 1.65685 59 81 139 255 
-18.4186 -1.91343 1.48339 61 77 138 255 
-18.4288 -1.96039 1.3382 62 76 138 255 
-18.4015 -1.941 1.16091 59 82 139 255 
-19.0284 -1.98714 1.0194 72 27 109 255 
-31.1792 -3.2281 1.37407 70 7 90 255 
-33.886 -3.59274 1.22569 70 7 90 255 
-33.8286 -3.55631 0.902597 70 11 94 255 
-33.8356 -3.5275 0.581926 70 11 94 255 
-36.2783 -3.74325 0.286447 70 8 92 255 
-36.345 -3.84704 -0.00637883 70 8 92 255 
-36.3324 -3.80671 -0.350686 69 5 89 255 
-36.326 -3.77432 -0.688496 70 8 92 255 
-18.4622 -1.89846 -0.5249 71 19 101 255 
-18.4448 -1.94259 -0.673597 71 17 100 255 
-8.00313 -0.8357 -0.366803 71 17 100 255 
-8.09227 -0.839371 -0.447734 52 97 141 255 
-18.3354 -1.88218 -1.18869 70 11 94 255 
-18.3533 -1.92972 -1.33902 72 35 116 255 
-17.8763 -1.86037 -1.47132 72 32 113 255 
-17.8247 -1.83944 -1.6371 72 33 115 255 
-15.6539 -1.60692 -1.58732 72 33 115 255 
-14.1149 -1.47663 -1.54675 72 40 120 255 
-12.6904 -1.31843 -1.51235 72 33 115 255 
-11.6457 -1.19973 -1.49974 72 36 117 255 
-10.675 -1.09207 -1.47756 71 47 125 255 
-9.8133 -1.02143 -1.4411 68 57 131 255 
-9.11511 -0.943775 -1.42519 66 65 134 255 
-8.57912 -0.882304 -1.42312 66 64 134 255 
-8.00803 -0.819228 -1.40781 67 62 133 255 
-7.56466 -0.782045 -1.39577 63 71 136 255 
-7.1506 -0.736587 -1.38688 62 74 137 255 
-6.78326 -0.697612 -1.38363 62 76 138 255 
-6.42143 -0.658048 -1.3756 67 62 133 255 
-6.08999 -0.626374 -1.35836 66 65 134 255 
-5.78371 -0.593743 -1.34657 66 63 133 255 
-5.4864 -0.562303 -1.33323 66 65 134 255 
-5.25862 -0.54074 -1.33373 64 69 136 255 
-5.08969 -0.519009 -1.33741 66 63 133 255 
-4.88323 -0.497858 -1.33178 63 72 137 255 
-4.69943 -0.480818 -1.33141 69 53 129 255 
-4.50185 -0.464507 -1.32599 69 55 129 255 
-18.6852 -1.86521 5.64083 72 20 103 255 
-18.6811 -1.881 5.42995 72 24 106 255 
-18.7017 -1.88983 5.23759 71 19 101 255 
-18.6751 -1.88677 5.03998 72 22 104 255 
-18.6329 -1.86984 4.86045 72 23 105 255 
-18.6818 -1.87777 4.67439 72 22 104 255 
-18.6455 -1.87101 4.47467 70 10 93 255 
-18.5709 -1.8599 4.27457 71 14 97 255 
-18.5804 -1.86784 4.11942 70 10 93 255 
-18.5953 -1.8658 3.9281 70 8 92 255 
-18.6 -1.85661 3.74531 69 4 87 255 
-18.4458 -1.83438 3.53607 65 68 135 255 
-18.4499 -1.85472 3.38319 61 77 138 255 
-18.4683 -1.84981 3.20266 59 81 139 255 
-18.4492 -1.83505 3.01615 60 80 139 255 
-18.437 -1.81729 2.84155 59 81 139 255 
-18.4372 -1.85019 2.68999 57 86 140 255 
-18.4311 -1.84283 2.5077 60 80 139 255 
-18.4192 -1.82233 2.3284 59 81 139 255 
-18.42 -1.80913 2.15789 62 73 137 255 
-18.4031 -1.84677 2.00599 61 78 138 255 
-18.4316 -1.83314 1.83248 58 83 139 255 
-18.4057 -1.81775 1.65391 62 76 138 255 
-18.4121 -1.79864 1.48195 61 77 138 255 
-18.4077 -1.844 1.33582 60 79 138 255 
-18.3922 -1.82598 1.15959 58 84 140 255 
-18.9051 -1.85707 1.01216 70 7 90 255 
-31.2044 -3.03731 1.37434 69 5 89 255 
-33.8627 -3.38028 1.22407 70 10 93 255 
-33.8558 -3.34926 0.902756 70 10 93 255 
-33.8547 -3.31963 0.581892 71 13 96 255 
-36.8908 -3.57782 0.291105 71 13 96 255 
-36.75 -3.66203 -0.00644585 70 8 92 255 
-0 -0 -0 68 2 86 255 
-36.8111 -3.59656 -0.69726 70 7 90 255 
-18.4357 -1.78149 -0.523825 71 19 101 255 
-7.96171 -0.789158 -0.290577 72 22 104 255 
-8.05881 -0.791558 -0.369126 50 101 142 255 
-18.354 -1.79001 -1.01487 70 11 94 255 
-18.3992 -1.77472 -1.19211 71 13 96 255 
-18.3499 -1.8156 -1.33794 72 32 113 255 
-17.8904 -1.75094 -1.47157 72 31 112 255 
-17.798 -1.72638 -1.63364 72 28 110 255 
-15.6605 -1.51055 -1.58702 72 27 109 255 
-14.1128 -1.38892 -1.54556 72 38 119 255 
-12.6794 -1.23871 -1.51011 71 42 122 255 
-11.6242 -1.12548 -1.49606 72 36 117 255 
-10.6628 -1.02474 -1.47497 72 41 121 255 
-9.81642 -0.960905 -1.44066 68 58 131 255 
-9.10893 -0.886679 -1.42334 66 65 134 255 
-8.55099 -0.826419 -1.41758 66 64 134 255 
-8.04134 -0.772809 -1.41281 67 62 133 255 
-7.55855 -0.734568 -1.39379 58 83 139 255 
-7.14032 -0.691279 -1.38404 64 70 136 255 
-6.79132 -0.656354 -1.38443 60 79 138 255 
-6.43508 -0.619572 -1.37768 66 63 133 255 
-6.09663 -0.589277 -1.35901 66 65 134 255 
-5.78239 -0.557776 -1.34544 66 63 133 255 
-5.50329 -0.529933 -1.33652 65 68 135 255 
-5.27342 -0.509582 -1.33666 63 72 137 255 
-5.08989 -0.487493 -1.33665 68 57 131 255 
-4.88331 -0.467609 -1.331 64 69 136 255 
-4.70325 -0.452066 -1.33168 68 57 131 255 
-4.50748 -0.437154 -1.32684 68 57 131 255 
-18.6152 -1.74294 5.61638 72 31 112 255 
-18.6483 -1.76218 5.41717 72 20 103 255 
-18.6775 -1.77168 5.22766 72 20 103 255 
-18.6863 -1.77214 5.03998 72 23 105 255 
-18.6238 -1.75357 4.85517 72 27 109 255 
-18.6108 -1.75536 4.65386 72 22 104 255 
-18.6208 -1.75319 4.46607 70 10 93 255 
-18.6382 -1.7512 4.28752 70 10 93 255 
-18.5721 -1.75196 4.11511 71 16 99 255 
-18.5976 -1.75084 3.92625 70 8 92 255 
-18.4266 -1.72517 3.70817 69 4 87 255 
-18.4332 -1.71898 3.53158 64 69 136 255 
-18.4482 -1.74028 3.38086 61 78 138 255 
-18.4567 -1.73433 3.19875 59 82 139 255 
-18.4366 -1.71962 3.0123 59 81 139 255 
-18.4202 -1.70158 2.8373 62 73 137 255 
-18.4176 -1.73415 2.68554 57 85 140 255 
-18.3937 -1.72517 2.50113 61 78 138 255 
-18.3974 -1.70625 2.32428 60 80 139 255 
-18.3902 -1.69234 2.15314 62 73 137 255 
-18.3933 -1.73186 2.00373 62 73 137 255 
-18.3811 -1.71428 1.82637 63 71 136 255 
-18.4085 -1.70404 1.65319 62 74 137 255 
-18.395 -1.68309 1.47972 62 76 138 255 
-18.3938 -1.72868 1.33402 59 82 139 255 
-18.3912 -1.71198 1.15884 55 90 140 255 
-18.9927 -1.74809 1.01626 70 7 90 255 
-32.0373 -2.92006 1.4102 69 5 89 255 
-33.8659 -3.17086 1.22346 71 14 97 255 
-33.7801 -3.1326 0.900209 70 11 94 255 
-33.8555 -3.1101 0.581567 70 11 94 255 
-36.8901 -3.3494 0.290932 70 8 92 255 
-36.9241 -3.45071 -0.00647255 71 14 97 255 
-36.8942 -3.4084 -0.355678 70 8 92 255 
-36.9062 -3.37737 -0.698655 70 10 93 255 
-8.02005 -0.725354 -0.227748 56 89 140 255 
-7.99725 -0.743157 -0.291702 47 107 142 255 
-7.99189 -0.735503 -0.365847 72 35 116 255 
-18.3487 -1.6759 -1.014 71 19 101 255 
-18.3938 -1.66036 -1.19108 71 13 96 255 
-18.3607 -1.70297 -1.33794 72 40 120 255 
-17.8611 -1.63749 -1.4683 72 29 111 255 
-17.7805 -1.61462 -1.63109 72 29 111 255 
-15.6576 -1.41336 -1.58582 72 29 111 255 
-14.1072 -1.30102 -1.54404 72 38 119 255 
-12.6888 -1.16107 -1.51035 72 40 120 255 
-11.62 -1.05315 -1.49466 72 40 120 255 
-10.6245 -0.955306 -1.46883 71 42 122 255 
-9.83494 -0.901829 -1.44254 69 53 129 255 
-9.11124 -0.830502 -1.42288 67 62 133 255 
-8.53722 -0.772247 -1.41449 67 61 132 255 
-8.02533 -0.721601 -1.40919 65 66 135 255 
-7.56095 -0.687998 -1.39343 59 82 139 255 
-7.14443 -0.647454 -1.38404 66 65 134 255 
-6.78741 -0.613965 -1.38284 61 78 138 255 
-6.40466 -0.577004 -1.37039 69 53 129 255 
-6.08166 -0.550186 -1.3549 66 64 134 255 
-5.77018 -0.520884 -1.34183 69 55 129 255 
-5.52096 -0.497464 -1.34005 64 70 136 255 
-5.26872 -0.476517 -1.3347 65 66 135 255 
-5.08315 -0.45539 -1.33412 67 61 132 255 
