ply
format ascii 1.0
comment VTK generated PLY File
obj_info vtkPolyData points and polygons: vtk4.0
element vertex 1249
property float x
property float y
property float z
property uchar red
property uchar green
property uchar blue
property uchar alpha
element face 0
property list uchar int vertex_indices
end_header
4.50304 -5.44496 -1.23571 66 65 134 255 
4.27677 -5.16012 -1.23006 62 74 137 255 
4.06278 -4.90559 -1.22889 61 77 138 255 
3.86739 -4.67124 -1.23051 50 101 142 255 
3.69513 -4.46647 -1.23533 55 91 141 255 
3.55309 -4.29153 -1.23619 50 100 142 255 
3.40382 -4.11286 -1.23646 55 91 141 255 
3.25477 -3.93408 -1.23431 64 70 136 255 
3.1133 -3.76052 -1.23171 64 69 136 255 
3.0133 -3.64602 -1.2365 67 62 133 255 
2.91113 -3.52254 -1.23987 68 59 132 255 
2.77142 -3.35104 -1.22561 68 59 132 255 
2.67426 -3.22791 -1.22815 68 58 131 255 
7.67866 -9.33136 3.63013 68 59 132 255 
9.30972 -11.2937 4.23283 72 31 112 255 
10.0648 -12.2008 4.40711 72 32 113 255 
9.704 -11.7639 4.09474 72 37 118 255 
8.47932 -10.2934 3.46137 68 58 131 255 
10.1458 -12.3123 3.97187 67 61 132 255 
8.68331 -10.5411 3.26112 65 66 135 255 
8.78373 -10.6672 3.16479 71 17 100 255 
9.44633 -11.4632 3.27671 72 26 108 255 
8.50561 -10.3256 2.81181 70 52 128 255 
9.57527 -11.6363 3.01939 72 36 117 255 
8.44165 -10.2663 2.53546 61 77 138 255 
9.36494 -11.3644 2.68677 71 14 97 255 
21.8224 -26.5012 5.9236 70 10 93 255 
21.3446 -25.9574 5.4671 72 20 103 255 
24.5297 -29.885 5.93006 70 8 92 255 
22.3996 -27.1917 5.11434 71 19 101 255 
9.39332 -11.4113 2.00098 72 24 106 255 
9.32627 -11.3539 1.84837 72 36 117 255 
22.8634 -27.8747 4.20322 70 11 94 255 
9.41526 -11.4295 1.60607 72 28 110 255 
21.9901 -26.7429 3.42532 71 16 99 255 
14.6591 -17.8525 2.06567 72 27 109 255 
14.5619 -17.7726 1.84057 72 35 116 255 
14.7444 -17.9051 1.67482 71 44 122 255 
23.9532 -29.1407 2.36665 70 7 90 255 
23.6435 -28.8248 1.98645 71 13 96 255 
23.6774 -28.9185 1.63837 70 11 94 255 
23.6678 -28.7618 1.33978 70 11 94 255 
25.0198 -30.4598 1.04597 70 7 90 255 
26.5125 -32.334 0.715264 69 5 89 255 
25.5257 -31.198 0.316599 70 10 93 255 
25.6176 -31.1423 -0.00703804 69 5 89 255 
25.5427 -31.1186 -0.386472 69 4 87 255 
0 -0 -0 68 2 86 255 
0 -0 -0 68 1 84 255 
25.5635 -31.1097 -1.46239 69 4 87 255 
25.715 -31.3508 -1.84836 69 4 87 255 
21.8451 -26.6703 -1.89726 71 17 100 255 
12.136 -14.8486 -1.23677 71 16 99 255 
10.6312 -12.9424 -1.21527 72 20 103 255 
9.53392 -11.6317 -1.2312 72 32 113 255 
8.6635 -10.5884 -1.24989 72 37 118 255 
7.924 -9.69521 -1.26305 72 40 120 255 
7.34776 -8.95465 -1.26245 68 59 132 255 
6.72426 -8.20674 -1.25762 72 38 119 255 
6.19693 -7.57649 -1.25387 72 33 115 255 
5.7608 -7.0535 -1.25399 70 48 126 255 
5.39268 -6.57902 -1.24251 69 56 130 255 
5.06173 -6.18208 -1.24262 68 58 131 255 
4.7577 -5.81893 -1.24028 64 69 136 255 
4.47141 -5.47478 -1.23623 66 63 133 255 
4.25437 -5.19768 -1.23277 62 74 137 255 
4.02887 -4.92587 -1.22775 56 88 140 255 
3.84361 -4.70095 -1.2321 46 109 142 255 
3.67446 -4.49739 -1.23762 54 92 141 255 
3.52607 -4.31249 -1.23598 50 101 142 255 
3.38345 -4.1397 -1.23826 60 79 138 255 
3.22442 -3.94645 -1.23196 66 65 134 255 
3.08648 -3.77504 -1.23025 66 63 133 255 
2.99454 -3.66893 -1.23801 65 68 135 255 
2.88458 -3.53435 -1.23778 68 59 132 255 
2.76054 -3.37991 -1.22995 65 66 135 255 
2.65865 -3.24946 -1.23012 69 56 130 255 
9.39279 -11.5582 4.47394 72 35 116 255 
9.3567 -11.4937 4.28617 66 63 133 255 
9.3132 -11.4319 4.10864 71 47 125 255 
9.96164 -12.2283 4.23503 72 27 109 255 
8.44898 -10.3857 3.47494 72 37 118 255 
9.68051 -11.8957 3.81822 72 36 117 255 
8.76026 -10.7685 3.31477 66 63 133 255 
8.4469 -10.3874 3.06634 72 27 109 255 
8.70272 -10.6938 3.04147 72 35 116 255 
8.5551 -10.5165 2.84945 62 73 137 255 
9.12463 -11.2284 2.89896 72 33 115 255 
8.37664 -10.3157 2.53489 67 61 132 255 
8.62875 -10.6029 2.49418 71 44 122 255 
9.53491 -11.7251 2.6077 68 57 131 255 
21.0574 -25.9308 5.43418 71 14 97 255 
22.9193 -28.275 5.58258 70 8 92 255 
24.623 -30.2673 5.66429 70 8 92 255 
9.20686 -11.3257 1.97603 72 23 105 255 
23.8952 -29.4569 4.7715 69 5 89 255 
22.6888 -28.0106 4.20264 69 5 89 255 
22.6167 -27.8012 3.88701 70 10 93 255 
14.4841 -17.8366 2.27314 72 20 103 255 
14.5104 -17.8941 2.06015 71 42 122 255 
14.5191 -17.9437 1.84903 72 32 113 255 
14.6443 -18.0076 1.67597 72 35 116 255 
21.3894 -26.3496 2.12927 72 23 105 255 
21.5686 -26.6267 1.82581 72 23 105 255 
24.629 -30.46 1.71711 70 7 90 255 
23.4795 -28.8926 1.33913 70 10 93 255 
25.0295 -30.8558 1.05427 70 10 93 255 
23.2833 -28.7538 0.632894 70 7 90 255 
30.5443 -37.8028 0.381715 70 7 90 255 
30.9072 -38.0462 -0.00855525 70 8 92 255 
0 -0 -0 68 1 84 255 
0 -0 -0 68 2 86 255 
0 -0 -0 68 2 86 255 
0 -0 -0 68 2 86 255 
26.4389 -32.6398 -1.91475 70 7 90 255 
21.59 -26.6913 -1.8893 71 14 97 255 
12.0014 -14.8692 -1.23233 72 29 111 255 
10.6371 -13.1127 -1.22512 72 20 103 255 
9.46614 -11.6946 -1.23169 72 31 112 255 
8.6572 -10.7142 -1.25844 72 36 117 255 
7.86811 -9.7483 -1.26365 72 37 118 255 
7.31271 -9.02428 -1.26592 69 56 130 255 
6.69689 -8.27641 -1.26198 71 44 122 255 
6.18648 -7.65913 -1.26124 72 41 121 255 
5.71679 -7.08795 -1.25386 70 48 126 255 
5.36529 -6.62814 -1.24555 66 64 134 255 
5.02743 -6.21763 -1.24354 68 59 132 255 
4.71075 -5.83419 -1.23735 65 68 135 255 
4.4433 -5.50901 -1.23778 67 62 133 255 
4.22425 -5.22598 -1.23331 64 70 136 255 
4.00227 -4.95508 -1.22889 62 76 138 255 
3.8264 -4.73894 -1.23588 49 103 142 255 
3.65171 -4.52594 -1.23929 49 103 142 255 
3.4977 -4.33177 -1.23533 50 101 142 255 
3.34697 -4.14673 -1.2342 66 64 134 255 
3.21174 -3.98053 -1.23643 66 65 134 255 
3.05961 -3.78939 -1.22878 65 66 135 255 
2.97744 -3.69402 -1.24029 64 69 136 255 
2.85194 -3.53846 -1.23306 66 64 134 255 
2.73854 -3.39528 -1.22941 68 59 132 255 
2.64409 -3.27243 -1.23265 69 56 130 255 
7.60433 -9.47567 3.6497 66 65 134 255 
9.52796 -11.8518 4.39785 70 51 127 255 
9.77667 -12.1523 4.34591 72 41 121 255 
8.50374 -10.5705 3.64274 72 35 116 255 
8.48452 -10.5611 3.51614 65 68 135 255 
8.81225 -10.9655 3.50223 72 36 117 255 
8.47898 -10.5544 3.23279 66 65 134 255 
8.32868 -10.3714 3.04647 67 62 133 255 
10.0023 -12.446 3.52229 68 59 132 255 
8.55232 -10.6458 2.87022 57 85 140 255 
9.05495 -11.2834 2.89876 71 44 122 255 
8.96458 -11.1792 2.73352 71 47 125 255 
8.95116 -11.138 2.60708 65 66 135 255 
9.41281 -11.7212 2.59392 62 74 137 255 
9.46927 -11.8081 2.46235 65 68 135 255 
21.6829 -27.0878 5.32182 71 13 96 255 
22.8154 -28.3996 5.28847 71 13 96 255 
22.3712 -27.8674 4.83805 70 7 90 255 
22.2085 -27.7236 4.46858 71 13 96 255 
21.9395 -27.4279 4.09494 71 13 96 255 
22.1929 -27.6248 3.84324 70 10 93 255 
14.3763 -17.9275 2.27344 71 13 96 255 
14.3873 -17.9665 2.05828 72 23 105 255 
14.3794 -17.9959 1.84528 72 38 119 255 
14.5229 -18.0839 1.67475 72 20 103 255 
21.409 -26.7069 2.14749 71 19 101 255 
21.3936 -26.7445 1.82485 72 27 109 255 
23.6786 -29.655 1.66351 70 10 93 255 
26.5368 -33.0672 1.52505 69 5 89 255 
23.2141 -28.9795 0.985278 70 10 93 255 
23.2407 -29.064 0.636571 71 13 96 255 
0 -0 0 68 2 86 255 
30.5311 -38.058 -0.00851564 71 13 96 255 
0 -0 -0 68 2 86 255 
0 -0 -0 68 2 86 255 
0 -0 -0 68 1 84 255 
0 -0 -0 68 1 84 255 
26.2437 -32.8084 -1.91516 70 8 92 255 
21.5742 -27.0089 -1.90238 71 13 96 255 
11.9491 -14.9918 -1.23638 72 24 106 255 
10.5789 -13.2057 -1.22772 72 26 108 255 
9.4278 -11.7945 -1.2361 72 35 116 255 
8.58881 -10.764 -1.25807 72 32 113 255 
7.80319 -9.79017 -1.26285 72 35 116 255 
7.24788 -9.05734 -1.26429 69 56 130 255 
6.66582 -8.34217 -1.26574 71 47 125 255 
6.15792 -7.72021 -1.26506 71 46 124 255 
5.70467 -7.16241 -1.26081 70 52 128 255 
5.3517 -6.69494 -1.25191 69 56 130 255 
4.99844 -6.25995 -1.24585 65 66 135 255 
4.68347 -5.87379 -1.23963 66 64 134 255 
4.42783 -5.55929 -1.24295 67 62 133 255 
4.20192 -5.2641 -1.2362 63 71 136 255 
3.97792 -4.98722 -1.23078 55 91 141 255 
3.80091 -4.76692 -1.23708 47 107 142 255 
3.63484 -4.56203 -1.24304 50 102 142 255 
3.47654 -4.36002 -1.23728 53 94 141 255 
3.3239 -4.17024 -1.23511 55 90 140 255 
3.20603 -4.02373 -1.24371 62 74 137 255 
3.03267 -3.80354 -1.22731 66 65 134 255 
2.93242 -3.68421 -1.23093 66 64 134 255 
2.82476 -3.5491 -1.23071 65 66 135 255 
2.71766 -3.41202 -1.22941 67 61 132 255 
2.63534 -3.30285 -1.23799 69 53 129 255 
7.52285 -9.49288 3.63848 70 10 93 255 
9.48074 -11.9424 4.4098 68 58 131 255 
9.55811 -12.031 4.2815 72 32 113 255 
8.38345 -10.5529 3.61888 62 76 138 255 
8.48934 -10.701 3.54528 69 55 129 255 
8.72791 -10.9981 3.49547 61 77 138 255 
8.41708 -10.61 3.23395 68 57 131 255 
8.27034 -10.4292 3.04848 61 78 138 255 
8.32802 -10.4939 2.95531 71 45 123 255 
8.48136 -10.6912 2.86837 62 73 137 255 
9.17677 -11.58 2.96045 71 47 125 255 
9.31963 -11.7692 2.86375 70 52 128 255 
8.86491 -11.1704 2.60187 62 73 137 255 
9.35908 -11.8019 2.59902 62 74 137 255 
9.18647 -11.6006 2.40727 66 65 134 255 
21.6591 -27.401 5.35714 71 13 96 255 
21.7157 -27.373 5.07239 70 7 90 255 
21.5546 -27.1903 4.69745 72 26 108 255 
21.9186 -27.7084 4.44437 70 8 92 255 
21.5916 -27.3352 4.06125 70 11 94 255 
14.3348 -18.0692 2.50156 71 14 97 255 
14.2827 -18.0364 2.2761 72 35 116 255 
14.2576 -18.0302 2.05551 72 27 109 255 
14.1595 -17.9453 1.83114 72 20 103 255 
21.3176 -26.8808 2.47726 71 17 100 255 
24.1047 -30.4507 2.43659 70 10 93 255 
23.5496 -29.813 2.02433 70 11 94 255 
0 -0 0 69 4 87 255 
23.2157 -29.2952 1.34449 71 13 96 255 
24.5535 -31.0399 1.05019 70 8 92 255 
26.1694 -33.1414 0.722345 69 5 89 255 
24.439 -31.0177 0.310151 70 10 93 255 
0 -0 -0 69 4 87 255 
0 -0 -0 68 1 84 255 
0 -0 -0 68 2 86 255 
59.8731 -76.0447 -2.7373 69 4 87 255 
0 -0 -0 68 1 84 255 
26.0308 -32.9547 -1.91434 70 11 94 255 
21.4247 -27.1619 -1.90386 71 14 97 255 
11.8075 -15.0021 -1.23124 71 16 99 255 
10.5032 -13.2774 -1.22837 72 23 105 255 
9.37872 -11.8819 -1.2392 72 37 118 255 
8.50905 -10.7993 -1.25607 72 33 115 255 
7.77005 -9.87226 -1.26727 72 38 119 255 
7.19771 -9.10866 -1.26527 68 58 131 255 
6.62804 -8.40006 -1.26833 71 42 122 255 
6.127 -7.77888 -1.26849 72 41 121 255 
5.65878 -7.19494 -1.2604 71 47 125 255 
5.31604 -6.73464 -1.25321 67 61 132 255 
4.95871 -6.28895 -1.24554 66 65 134 255 
4.66687 -5.92722 -1.24484 65 68 135 255 
4.39607 -5.58945 -1.24364 68 59 132 255 
4.18233 -5.30601 -1.23999 64 70 136 255 
3.96 -5.02773 -1.23476 60 79 138 255 
3.78068 -4.80171 -1.24006 49 103 142 255 
3.61161 -4.5904 -1.24471 52 97 141 255 
3.4461 -4.37667 -1.23598 52 97 141 255 
3.29403 -4.1852 -1.23353 54 93 141 255 
3.17647 -4.03722 -1.24183 59 81 139 255 
3.03927 -3.86017 -1.23954 66 65 134 255 
2.91096 -3.70365 -1.23144 65 68 135 255 
2.7922 -3.5527 -1.22599 67 61 132 255 
2.70441 -3.43847 -1.23293 67 62 133 255 
2.61146 -3.31443 -1.2363 69 55 129 255 
0 -0 0 68 1 84 255 
9.52641 -12.1523 4.46564 72 38 119 255 
0 -0 0 69 4 87 255 
8.34179 -10.6338 3.62899 72 32 113 255 
8.39009 -10.7102 3.53122 69 56 130 255 
8.51003 -10.8597 3.43483 70 51 127 255 
8.13049 -10.3789 3.14825 68 59 132 255 
8.09501 -10.3377 3.00718 70 48 126 255 
8.28877 -10.577 2.96435 64 70 136 255 
8.37517 -10.6914 2.85459 50 102 142 255 
9.12367 -11.6593 2.96634 68 59 132 255 
9.17887 -11.7387 2.84257 70 50 126 255 
9.17849 -11.7124 2.71495 69 53 129 255 
9.27495 -11.8443 2.59579 70 48 126 255 
9.11572 -11.6575 2.40743 71 46 124 255 
9.30392 -11.92 2.31927 66 65 134 255 
22.0179 -28.1064 5.18316 70 10 93 255 
22.0379 -28.1531 4.84033 71 19 101 255 
21.9717 -28.1285 4.49005 71 19 101 255 
21.4583 -27.5118 4.06785 70 11 94 255 
21.2018 -27.0646 3.72883 72 24 106 255 
14.0112 -17.9183 2.2503 71 42 122 255 
13.8555 -17.7445 2.01321 72 40 120 255 
13.8708 -17.803 1.80791 72 27 109 255 
21.1467 -27.004 2.47661 69 5 89 255 
23.781 -30.4235 2.42269 70 8 92 255 
23.3822 -29.9774 2.02571 70 10 93 255 
23.3166 -29.948 1.66377 70 7 90 255 
23.0398 -29.4426 1.34474 71 17 100 255 
22.9749 -29.4134 0.990371 70 7 90 255 
26.1272 -33.5087 0.726843 70 7 90 255 
24.3219 -31.2618 0.311093 70 7 90 255 
0 -0 -0 68 2 86 255 
0 -0 -0 69 4 87 255 
0 -0 -0 68 2 86 255 
0 -0 -0 68 2 86 255 
0 -0 -0 68 2 86 255 
25.6991 -32.9484 -1.90478 71 14 97 255 
21.1834 -27.1976 -1.89721 70 8 92 255 
18.3772 -23.6463 -1.93139 72 22 104 255 
10.4455 -13.3723 -1.23119 72 22 104 255 
9.32096 -11.9589 -1.24124 72 28 110 255 
8.49827 -10.9228 -1.26435 72 33 115 255 
7.73985 -9.95903 -1.27229 71 44 122 255 
7.13863 -9.14873 -1.26473 68 58 131 255 
6.65205 -8.53771 -1.28293 69 56 130 255 
6.10473 -7.84922 -1.27382 71 42 122 255 
5.61817 -7.23422 -1.26122 71 46 124 255 
5.28678 -6.78275 -1.2561 70 52 128 255 
4.93035 -6.33251 -1.24815 67 61 132 255 
4.62921 -5.95419 -1.24451 65 68 135 255 
4.35685 -5.61009 -1.24226 67 61 132 255 
4.15513 -5.33855 -1.24161 63 71 136 255 
3.91099 -5.02868 -1.22908 60 80 139 255 
3.74634 -4.81862 -1.23847 47 108 142 255 
3.58098 -4.60938 -1.24387 53 94 141 255 
3.42936 -4.41083 -1.23966 51 99 141 255 
3.27606 -4.21533 -1.23646 54 92 141 255 
3.16476 -4.07352 -1.247 62 73 137 255 
3.0179 -3.8818 -1.24052 65 66 135 255 
2.90123 -3.73826 -1.237 68 58 131 255 
2.7881 -3.59264 -1.23385 67 62 133 255 
2.69034 -3.46412 -1.23619 68 59 132 255 
2.59402 -3.33418 -1.23771 68 58 131 255 
0 -0 0 68 2 86 255 
0 -0 0 68 1 84 255 
9.70707 -12.5312 4.41678 70 7 90 255 
8.30418 -10.7206 3.64118 72 40 120 255 
8.21466 -10.6198 3.48474 65 66 135 255 
8.4664 -10.9416 3.44425 66 65 134 255 
8.19341 -10.5925 3.19772 72 40 120 255 
0 -0 0 68 2 86 255 
8.22252 -10.6262 2.96392 65 66 135 255 
8.27827 -10.7024 2.84389 61 78 138 255 
8.52199 -11.0292 2.79267 61 77 138 255 
9.08205 -11.7629 2.83489 72 40 120 255 
9.10465 -11.7662 2.71441 72 22 104 255 
9.19246 -11.8885 2.59307 71 42 122 255 
9.04101 -11.7093 2.40663 70 50 126 255 
9.12863 -11.8446 2.29365 71 44 122 255 
21.2419 -27.4613 5.04007 72 23 105 255 
21.6054 -27.9522 4.78291 71 14 97 255 
21.755 -28.2062 4.48106 71 14 97 255 
21.1285 -27.4344 4.03716 71 14 97 255 
20.9264 -27.0535 3.70953 72 24 106 255 
13.862 -17.9535 2.244 72 27 109 255 
13.9368 -18.0761 2.04109 72 33 115 255 
20.7717 -27.0003 2.72891 71 17 100 255 
25.2642 -32.6731 2.98226 70 7 90 255 
23.5957 -30.5712 2.42288 70 8 92 255 
23.5793 -30.6156 2.05902 70 8 92 255 
22.7707 -29.6201 1.63776 70 10 93 255 
13.7335 -17.7738 0.807923 72 22 104 255 
22.6414 -29.356 0.983739 71 16 99 255 
0 -0 0 68 2 86 255 
0 -0 0 68 2 86 255 
0 -0 -0 68 2 86 255 
0 -0 -0 69 4 87 255 
0 -0 -0 68 2 86 255 
0 -0 -0 68 2 86 255 
0 -0 -0 68 2 86 255 
25.4489 -33.0437 -1.90123 71 13 96 255 
21.2121 -27.5819 -1.9149 71 13 96 255 
18.2263 -23.7515 -1.93081 72 22 104 255 
10.4314 -13.5246 -1.2393 71 19 101 255 
9.26503 -12.0387 -1.2436 72 31 112 255 
8.41956 -10.9597 -1.26262 72 35 116 255 
7.6677 -9.99213 -1.27048 72 36 117 255 
7.08722 -9.19866 -1.26559 71 45 123 255 
6.59954 -8.57837 -1.28293 67 62 133 255 
6.06008 -7.89125 -1.27459 71 45 123 255 
5.60924 -7.31494 -1.26927 70 51 127 255 
5.2517 -6.82368 -1.25769 69 53 129 255 
4.90766 -6.38379 -1.2523 68 58 131 255 
4.58898 -5.97779 -1.24354 65 68 135 255 
4.33014 -5.64688 -1.2445 66 65 134 255 
4.1181 -5.35849 -1.24035 64 70 136 255 
3.90757 -5.08841 -1.23779 50 100 142 255 
3.71551 -4.83996 -1.23807 48 105 142 255 
3.55263 -4.63127 -1.24387 50 100 142 255 
3.4171 -4.45115 -1.24507 50 102 142 255 
3.25725 -4.24463 -1.23917 52 96 141 255 
3.13438 -4.08592 -1.24488 51 98 141 255 
2.9834 -3.8864 -1.23612 66 65 134 255 
2.88765 -3.76828 -1.24105 67 62 133 255 
2.75543 -3.59589 -1.22913 68 57 131 255 
2.6626 -3.47216 -1.2332 68 57 131 255 
2.57877 -3.35688 -1.24024 70 48 126 255 
7.32477 -9.60081 3.62754 55 90 140 255 
0 -0 0 68 1 84 255 
9.62063 -12.5783 4.41248 70 7 90 255 
8.37319 -10.9478 3.70082 70 51 127 255 
8.31091 -10.8816 3.55383 70 51 127 255 
8.34078 -10.917 3.42033 62 73 137 255 
7.90156 -10.3457 3.10853 71 14 97 255 
8.46145 -11.0832 3.19359 69 5 89 255 
0 -0 0 68 1 84 255 
8.20889 -10.7483 2.84266 60 80 139 255 
8.41134 -11.0251 2.77853 64 69 136 255 
8.67145 -11.3747 2.72846 72 33 115 255 
9.25625 -12.1149 2.78172 70 10 93 255 
8.99196 -11.7779 2.55685 71 45 123 255 
8.95283 -11.7434 2.40229 62 76 138 255 
8.99413 -11.8193 2.27803 72 23 105 255 
21.0082 -27.5062 5.02455 72 26 108 255 
21.0168 -27.5383 4.68994 71 16 99 255 
21.1806 -27.8127 4.39781 71 14 97 255 
21.5664 -28.3613 4.15401 71 13 96 255 
20.5488 -26.9048 3.67179 71 16 99 255 
13.7588 -18.0478 2.24518 71 47 125 255 
13.8931 -18.25 2.05106 72 38 119 255 
13.711 -18.0505 1.81581 71 14 97 255 
23.1676 -30.3446 2.7567 69 5 89 255 
21.9933 -28.8595 2.27648 71 17 100 255 
23.7427 -31.2223 2.08999 69 5 89 255 
13.5917 -17.9063 0.985447 72 35 116 255 
13.6454 -17.8855 0.809181 72 40 120 255 
22.5323 -29.5882 0.986869 69 5 89 255 
25.0406 -32.9409 0.707807 70 10 93 255 
25.0635 -33.0438 0.325741 69 5 89 255 
0 -0 -0 68 2 86 255 
0 -0 -0 68 2 86 255 
0 -0 -0 68 2 86 255 
0 -0 -0 68 2 86 255 
0 -0 -0 68 2 86 255 
25.1277 -33.0442 -1.89235 70 11 94 255 
21.1077 -27.7974 -1.92084 71 13 96 255 
18.0211 -23.785 -1.9245 71 19 101 255 
10.364 -13.609 -1.24118 72 22 104 255 
9.25069 -12.1739 -1.25168 72 31 112 255 
8.35396 -11.0136 -1.2629 72 35 116 255 
7.62667 -10.066 -1.27389 72 40 120 255 
7.04569 -9.26176 -1.2683 71 46 124 255 
6.55519 -8.62977 -1.28458 68 59 132 255 
6.0517 -7.98124 -1.2831 72 41 121 255 
5.58638 -7.37844 -1.27432 70 51 127 255 
5.21871 -6.8676 -1.25986 66 63 133 255 
4.85585 -6.39726 -1.24908 67 61 132 255 
4.57248 -6.03256 -1.24907 66 65 134 255 
4.30671 -5.68827 -1.24777 66 64 134 255 
4.0798 -5.37661 -1.23872 67 62 133 255 
3.87687 -5.11307 -1.23798 50 102 142 255 
3.6887 -4.86658 -1.23906 47 107 142 255 
3.52533 -4.65454 -1.24429 50 102 142 255 
3.38677 -4.46814 -1.24399 49 104 142 255 
3.2382 -4.27385 -1.24187 53 95 141 255 
3.1069 -4.10197 -1.24394 60 79 138 255 
2.95657 -3.90077 -1.23489 67 61 132 255 
2.85805 -3.77744 -1.23827 65 66 135 255 
2.73157 -3.61042 -1.22835 70 51 127 255 
2.64066 -3.48767 -1.23293 69 55 129 255 
2.55755 -3.37188 -1.23996 69 56 130 255 
7.26745 -9.64787 3.62841 62 76 138 255 
9.62573 -12.7558 4.6215 71 17 100 255 
9.77896 -12.9492 4.52146 72 36 117 255 
7.98168 -10.5697 3.55638 72 33 115 255 
8.12043 -10.7685 3.50057 68 57 131 255 
8.2187 -10.8952 3.39763 64 70 136 255 
8.74916 -11.6024 3.46992 69 5 89 255 
0 -0 0 68 1 84 255 
8.13326 -10.7816 2.97922 71 19 101 255 
8.14337 -10.7992 2.84287 57 85 140 255 
8.20017 -10.8862 2.73079 57 86 140 255 
8.60622 -11.434 2.72996 72 40 120 255 
23.1836 -30.7327 7.02377 71 14 97 255 
21.5185 -28.5469 6.16845 70 8 92 255 
20.8247 -27.6661 5.63329 71 13 96 255 
22.2668 -29.6368 5.68567 70 10 93 255 
22.2922 -29.5618 5.37495 71 17 100 255 
21.5208 -28.5603 4.8414 70 10 93 255 
20.5009 -27.2657 4.29135 72 20 103 255 
20.3877 -27.1555 3.95899 71 19 101 255 
13.6045 -18.0409 2.45067 72 26 108 255 
13.5581 -18.0126 2.23042 72 29 111 255 
13.6427 -18.151 2.03049 72 32 113 255 
13.6101 -18.1478 1.81717 71 45 123 255 
13.6888 -18.1593 1.64205 72 40 120 255 
13.652 -18.1439 1.42458 71 44 122 255 
13.4164 -17.8694 1.19062 72 40 120 255 
13.4779 -17.9846 0.985184 72 29 111 255 
13.6359 -18.1022 0.815184 72 36 117 255 
22.2548 -29.5988 0.982652 70 11 94 255 
22.2188 -29.6041 0.633168 70 11 94 255 
24.8327 -33.1601 0.325379 69 5 89 255 
0 -0 -0 69 4 87 255 
0 -0 -0 68 2 86 255 
0 -0 -0 69 4 87 255 
0 -0 -0 68 2 86 255 
0 -0 -0 69 4 87 255 
24.9149 -33.185 -1.89162 70 8 92 255 
20.8751 -27.8441 -1.91518 71 13 96 255 
17.8808 -23.9031 -1.92515 72 20 103 255 
10.3468 -13.7608 -1.24921 72 20 103 255 
9.19615 -12.2576 -1.25446 72 29 111 255 
8.32503 -11.1164 -1.26881 72 36 117 255 
7.56297 -10.1102 -1.27359 72 31 112 255 
7.02037 -9.34694 -1.27404 71 42 122 255 
6.51224 -8.68333 -1.28658 68 58 131 255 
6.02877 -8.05316 -1.28869 71 45 123 255 
5.55168 -7.42687 -1.27677 71 45 123 255 
5.1842 -6.90978 -1.26174 68 58 131 255 
4.81769 -6.42851 -1.24938 68 58 131 255 
4.53715 -6.06288 -1.24956 66 64 134 255 
4.27644 -5.7209 -1.24915 67 62 133 255 
4.06383 -5.42436 -1.24396 63 71 136 255 
3.85013 -5.14305 -1.23949 50 101 142 255 
3.6576 -4.88755 -1.23867 47 107 142 255 
3.4926 -4.6706 -1.24283 51 98 141 255 
3.34993 -4.47634 -1.24053 54 92 141 255 
3.23468 -4.32406 -1.25067 49 103 142 255 
3.08051 -4.1194 -1.24347 63 71 136 255 
2.94768 -3.93903 -1.24126 65 68 135 255 
2.82961 -3.78793 -1.23599 66 64 134 255 
2.75557 -3.68897 -1.2493 68 59 132 255 
2.62267 -3.50843 -1.23456 66 65 134 255 
2.52991 -3.37829 -1.23658 70 52 128 255 
7.17897 -9.65309 3.61373 69 53 129 255 
9.54556 -12.8123 4.62066 72 24 106 255 
9.58013 -12.8491 4.4659 69 55 129 255 
9.52726 -12.7787 4.2799 71 42 122 255 
7.92299 -10.6419 3.44354 66 64 134 255 
8.44962 -11.3454 3.5218 59 82 139 255 
8.5233 -11.4483 3.40814 70 8 92 255 
8.23926 -11.0713 3.16078 70 11 94 255 
8.0722 -10.8384 2.98116 72 24 106 255 
8.08806 -10.8639 2.84677 62 74 137 255 
8.16775 -10.9828 2.74238 66 65 134 255 
8.5318 -11.4811 2.72865 71 19 101 255 
20.4661 -27.4794 6.25142 71 13 96 255 
0 -0 0 69 4 87 255 
22.3483 -30.0726 6.09525 70 8 92 255 
0 -0 0 69 4 87 255 
22.1075 -29.694 5.37423 70 10 93 255 
22.0348 -29.6188 4.99783 70 11 94 255 
20.2966 -27.3416 4.28361 70 10 93 255 
21.7544 -29.3492 4.25927 70 11 94 255 
21.2614 -28.5577 3.86146 69 4 87 255 
13.4515 -18.101 2.2311 72 35 116 255 
13.5655 -18.2807 2.03565 72 35 116 255 
13.508 -18.2438 1.81845 72 37 118 255 
13.5455 -18.2006 1.63823 71 44 122 255 
13.2256 -17.8035 1.39146 72 41 121 255 
13.3606 -18.0243 1.19546 72 32 113 255 
13.5117 -18.2621 0.995826 72 35 116 255 
13.6993 -18.4205 0.825716 72 35 116 255 
12.7902 -17.2301 0.569405 71 19 101 255 
22.1992 -29.9592 0.637837 71 14 97 255 
23.2502 -31.4472 0.307166 70 8 92 255 
0 -0 -0 68 2 86 255 
0 -0 -0 68 2 86 255 
0 -0 -0 68 2 86 255 
0 -0 -0 68 2 86 255 
0 -0 -0 68 2 86 255 
24.6168 -33.2104 -1.88443 70 8 92 255 
20.4104 -27.5752 -1.88803 71 14 97 255 
17.6888 -23.9513 -1.92025 72 23 105 255 
10.2842 -13.8537 -1.25189 72 23 105 255 
9.15458 -12.3594 -1.25911 72 35 116 255 
8.26791 -11.1825 -1.27054 72 33 115 255 
7.51853 -10.1804 -1.2766 72 36 117 255 
6.98538 -9.42019 -1.27816 69 55 129 255 
6.46061 -8.72552 -1.28693 67 62 133 255 
5.99104 -8.10595 -1.29123 69 56 130 255 
5.50659 -7.46159 -1.27691 72 41 121 255 
5.16055 -6.9669 -1.26636 67 62 133 255 
4.80989 -6.50085 -1.25768 68 59 132 255 
4.494 -6.08267 -1.24793 66 64 134 255 
4.24418 -5.75099 -1.25001 68 59 132 255 
4.03749 -5.45869 -1.24612 64 69 136 255 
3.82084 -5.16974 -1.24025 49 103 142 255 
3.6287 -4.91148 -1.23906 47 108 142 255 
3.47143 -4.70217 -1.24554 52 97 141 255 
3.3224 -4.49681 -1.24053 51 99 141 255 
3.20056 -4.33364 -1.24774 47 107 142 255 
3.05287 -4.1351 -1.24253 53 94 141 255 
2.93325 -3.9703 -1.24541 64 69 136 255 
2.80115 -3.79821 -1.23371 65 68 135 255 
2.73747 -3.71202 -1.25139 68 59 132 255 
2.60052 -3.52368 -1.23429 66 64 134 255 
2.51255 -3.39838 -1.23827 68 57 131 255 
7.1111 -9.68537 3.60942 71 13 96 255 
9.43318 -12.825 4.60427 71 13 96 255 
9.47542 -12.8727 4.45382 69 4 87 255 
8.31167 -11.2922 3.76488 71 17 100 255 
7.91086 -10.7628 3.4669 66 63 133 255 
8.49194 -11.5495 3.56891 70 50 126 255 
8.26798 -11.2488 3.33359 71 46 124 255 
8.3472 -11.3612 3.22887 72 28 110 255 
8.09058 -11.0033 3.01282 59 82 139 255 
8.0821 -10.9961 2.86837 71 47 125 255 
14.5361 -19.7986 4.92131 72 35 116 255 
20.2442 -27.5943 6.52855 70 10 93 255 
20.2505 -27.5411 6.23707 70 8 92 255 
23.9602 -32.6111 6.98259 69 5 89 255 
20.6074 -28.0883 5.66733 71 17 100 255 
16.343 -22.3174 4.24269 70 11 94 255 
16.3651 -22.265 4.01142 72 24 106 255 
21.6444 -29.4699 4.9502 70 10 93 255 
20.278 -27.6697 4.31544 69 5 89 255 
14.5885 -19.9361 2.88016 70 8 92 255 
14.7216 -20.0289 2.69597 71 13 96 255 
13.3743 -18.2297 2.23681 72 36 117 255 
13.2282 -18.0567 2.00163 72 37 118 255 
13.3517 -18.266 1.81246 72 41 121 255 
13.4838 -18.3516 1.64435 70 48 126 255 
12.8953 -17.5833 1.36804 72 37 118 255 
12.5881 -17.2018 1.13577 72 40 120 255 
13.4843 -18.4608 1.00213 72 24 106 255 
13.6434 -18.5824 0.829203 72 32 113 255 
12.6553 -17.2687 0.568105 72 23 105 255 
21.9689 -30.0319 0.636503 71 17 100 255 
0 -0 0 68 2 86 255 
57.1098 -77.8124 -0.0168461 69 4 87 255 
0 -0 -0 68 2 86 255 
0 -0 -0 68 2 86 255 
0 -0 -0 68 2 86 255 
0 -0 -0 69 4 87 255 
24.4037 -33.3487 -1.88374 70 8 92 255 
20.2414 -27.7007 -1.88809 71 17 100 255 
17.5433 -24.0618 -1.92045 72 20 103 255 
10.2108 -13.9326 -1.25334 72 28 110 255 
9.08916 -12.4298 -1.26057 72 33 115 255 
8.20619 -11.2427 -1.27163 72 32 113 255 
7.45944 -10.2312 -1.2772 72 38 119 255 
6.94213 -9.48292 -1.28087 70 50 126 255 
6.41399 -8.77462 -1.28834 68 58 131 255 
5.95229 -8.15778 -1.29364 64 69 136 255 
5.46712 -7.50404 -1.27841 71 44 122 255 
5.12588 -7.00962 -1.26839 66 64 134 255 
4.77691 -6.53981 -1.25953 67 61 132 255 
4.48334 -6.1468 -1.25542 65 66 135 255 
4.21172 -5.78091 -1.25087 69 56 130 255 
4.00276 -5.48177 -1.24576 61 78 138 255 
3.80293 -5.21212 -1.2448 51 99 141 255 
3.59965 -4.93523 -1.23946 49 104 142 255 
3.44597 -4.72812 -1.24679 50 100 142 255 
3.2936 -4.51553 -1.24009 51 99 141 255 
3.15152 -4.3225 -1.23894 47 108 142 255 
3.02171 -4.1459 -1.24018 55 90 140 255 
2.90312 -3.98039 -1.24297 65 66 135 255 
2.77722 -3.81455 -1.23346 68 57 131 255 
2.7101 -3.72251 -1.2493 69 56 130 255 
2.57602 -3.53568 -1.23293 69 56 130 255 
2.49675 -3.42071 -1.2408 67 61 132 255 
0 -0 0 68 2 86 255 
0 -0 0 68 1 84 255 
8.43584 -11.609 3.99859 72 26 108 255 
8.23201 -11.3289 3.76021 72 33 115 255 
8.21758 -11.3251 3.63171 71 46 124 255 
8.51496 -11.731 3.60877 72 24 106 255 
8.50784 -11.7253 3.45924 69 55 129 255 
7.92364 -10.9246 3.0909 70 48 126 255 
8.09175 -11.1476 3.03867 65 66 135 255 
14.3588 -19.7893 5.139 72 31 112 255 
20.3614 -28.0924 6.95172 71 14 97 255 
19.8936 -27.4682 6.46971 71 17 100 255 
20.0985 -27.6887 6.24245 71 16 99 255 
19.9965 -27.5693 5.87667 70 7 90 255 
16.0096 -22.1045 4.44009 72 32 113 255 
16.1652 -22.3612 4.23208 72 32 113 255 
16.2509 -22.3962 4.01703 72 35 116 255 
20.9263 -28.8617 4.82638 71 13 96 255 
21.46 -29.6626 4.60563 69 5 89 255 
14.3897 -19.9197 2.86499 72 24 106 255 
14.613 -20.139 2.69867 72 28 110 255 
13.2785 -18.334 2.23957 72 24 106 255 
12.6584 -17.5032 1.93162 72 35 116 255 
13.1501 -18.2239 1.80024 72 27 109 255 
13.3054 -18.3436 1.63629 72 32 113 255 
12.5677 -17.359 1.34456 70 51 127 255 
12.4846 -17.282 1.13598 70 50 126 255 
12.4277 -17.2353 0.931449 72 36 117 255 
12.5291 -17.2861 0.767915 72 31 112 255 
12.5339 -17.325 0.567415 71 16 99 255 
22.5692 -31.2532 0.659438 71 14 97 255 
0 -0 0 68 2 86 255 
0 -0 -0 68 2 86 255 
0 -0 -0 68 2 86 255 
0 -0 -0 68 2 86 255 
0 -0 -0 68 1 84 255 
0 -0 -0 69 4 87 255 
24.1817 -33.4744 -1.88242 70 10 93 255 
19.9548 -27.6633 -1.87715 70 11 94 255 
17.2979 -24.0338 -1.9097 71 19 101 255 
10.1128 -13.978 -1.25182 72 28 110 255 
9.03372 -12.5145 -1.26351 72 35 116 255 
8.14811 -11.3082 -1.27336 72 33 115 255 
7.42965 -10.3228 -1.28292 72 32 113 255 
6.88498 -9.52695 -1.28109 71 45 123 255 
6.36235 -8.81703 -1.28881 68 58 131 255 
5.91256 -8.20864 -1.29593 66 63 133 255 
5.44006 -7.56399 -1.28291 71 42 122 255 
5.0932 -7.05538 -1.27099 66 64 134 255 
4.7338 -6.56499 -1.25876 68 58 131 255 
4.43805 -6.16378 -1.25331 66 64 134 255 
4.19975 -5.83943 -1.25794 68 58 131 255 
3.97365 -5.51261 -1.24721 62 74 137 255 
3.78178 -5.2505 -1.2484 50 101 142 255 
3.5819 -4.97472 -1.24384 47 107 142 255 
3.41061 -4.74044 -1.2445 53 94 141 255 
3.26811 -4.53882 -1.24096 51 99 141 255 
3.12437 -4.34096 -1.23872 49 104 142 255 
3.00246 -4.17304 -1.24277 55 90 140 255 
2.89847 -4.02566 -1.25153 67 62 133 255 
2.75715 -3.83623 -1.23498 68 57 131 255 
2.64778 -3.68421 -1.23097 70 52 128 255 
2.56214 -3.56236 -1.23673 67 61 132 255 
2.46561 -3.42195 -1.23574 70 52 128 255 
8.46629 -11.8328 4.37066 71 16 99 255 
8.44009 -11.7749 4.18977 71 42 122 255 
8.38298 -11.6864 4.00744 71 44 122 255 
8.13532 -11.3416 3.74776 71 45 123 255 
8.27926 -11.5587 3.69024 72 35 116 255 
8.31622 -11.6063 3.55466 64 69 136 255 
8.44083 -11.7844 3.46133 69 55 129 255 
8.37852 -11.7021 3.29629 72 31 112 255 
8.31669 -11.6066 3.14983 70 11 94 255 
14.0565 -19.6248 5.0738 72 26 108 255 
14.0559 -19.6453 4.83998 72 24 106 255 
19.8795 -27.8063 6.52049 71 14 97 255 
14.3266 -19.994 4.48776 71 17 100 255 
15.755 -22.0043 4.66974 72 24 106 255 
15.8358 -22.1494 4.42949 72 31 112 255 
16.0352 -22.4704 4.23405 72 32 113 255 
16.1258 -22.5132 4.02019 72 33 115 255 
16.1567 -22.5736 3.7582 72 32 113 255 
21.0821 -29.52 4.56332 71 13 96 255 
14.2407 -19.9705 2.85966 72 31 112 255 
14.4671 -20.1976 2.69457 72 36 117 255 
13.035 -18.2322 2.21732 72 23 105 255 
12.3106 -17.2441 1.89466 71 42 122 255 
12.5367 -17.6003 1.73101 72 20 103 255 
12.4894 -17.4428 1.54907 72 37 118 255 
12.4459 -17.4147 1.34293 71 42 122 255 
12.3517 -17.3208 1.13353 72 23 105 255 
12.2921 -17.2697 0.929216 72 35 116 255 
12.4176 -17.3553 0.767592 72 29 111 255 
24.4033 -34.171 1.11422 70 11 94 255 
22.1402 -31.0589 0.65246 71 13 96 255 
0 -0 0 68 2 86 255 
0 -0 -0 68 2 86 255 
0 -0 -0 68 2 86 255 
0 -0 -0 68 1 84 255 
0 -0 -0 68 2 86 255 
0 -0 -0 68 2 86 255 
23.9787 -33.6262 -1.88265 70 8 92 255 
19.8976 -27.9438 -1.88787 71 16 99 255 
17.1403 -24.1256 -1.9086 71 19 101 255 
11.1456 -15.6063 -1.39149 72 28 110 255 
8.97585 -12.5964 -1.2662 72 27 109 255 
8.10397 -11.3937 -1.27736 72 38 119 255 
7.37482 -10.3803 -1.28443 72 32 113 255 
6.84256 -9.59168 -1.28412 71 44 122 255 
6.31216 -8.86157 -1.28964 66 63 133 255 
5.8753 -8.26336 -1.29885 68 57 131 255 
5.41763 -7.63115 -1.28864 71 46 124 255 
5.04579 -7.08086 -1.26998 68 58 131 255 
4.70604 -6.61163 -1.26214 67 62 133 255 
4.39843 -6.18848 -1.25282 64 69 136 255 
4.15871 -5.85786 -1.25639 67 61 132 255 
3.9483 -5.54891 -1.24991 58 83 139 255 
3.7512 -5.276 -1.24897 48 105 142 255 
3.55812 -5.00619 -1.24622 46 111 142 255 
3.37976 -4.75889 -1.24387 54 93 141 255 
3.23907 -4.5572 -1.24053 51 98 141 255 
3.10953 -4.37673 -1.24345 48 105 142 255 
2.9813 -4.19772 -1.24465 55 91 141 255 
2.87597 -4.04653 -1.25251 60 79 138 255 
2.74699 -3.87201 -1.24105 66 64 134 255 
2.65472 -3.7421 -1.24485 70 51 127 255 
2.55249 -3.59528 -1.2427 68 57 131 255 
2.45625 -3.45344 -1.24164 70 50 126 255 
8.3891 -11.8783 4.36836 69 55 129 255 
8.38044 -11.8445 4.19616 71 46 124 255 
8.31668 -11.7454 4.01013 70 52 128 255 
8.05888 -11.3818 3.74465 71 47 125 255 
8.18471 -11.5761 3.67969 62 74 137 255 
8.26838 -11.6904 3.5648 62 74 137 255 
7.85457 -11.1092 3.24881 72 38 119 255 
8.38082 -11.8584 3.32576 72 35 116 255 
8.19907 -11.5921 3.13216 71 14 97 255 
8.22973 -11.6401 2.99631 72 27 109 255 
8.32168 -11.783 2.89031 65 66 135 255 
8.30694 -11.7713 2.74832 72 33 115 255 
14.1747 -20.0405 4.47861 70 8 92 255 
15.6555 -22.1513 4.68045 72 38 119 255 
15.7406 -22.3042 4.44105 72 31 112 255 
15.7035 -22.2936 4.1825 72 22 104 255 
15.7274 -22.2441 3.95482 72 29 111 255 
16.1854 -22.9094 3.79751 72 22 104 255 
16.3724 -23.2253 3.57467 72 28 110 255 
12.8801 -18.299 2.60895 71 17 100 255 
13.963 -19.7486 2.62319 72 29 111 255 
12.2475 -17.3549 2.10144 72 36 117 255 
12.208 -17.3242 1.89519 71 42 122 255 
12.1137 -17.2292 1.68717 71 47 125 255 
12.1179 -17.1453 1.51601 72 35 116 255 
12.3336 -17.4834 1.34237 71 44 122 255 
12.2141 -17.3522 1.13066 72 38 119 255 
12.167 -17.3179 0.927771 72 35 116 255 
15.6224 -22.12 0.974066 70 11 94 255 
15.624 -22.1641 0.719568 70 7 90 255 
0 -0 0 68 2 86 255 
0 -0 0 68 2 86 255 
0 -0 -0 68 2 86 255 
0 -0 -0 68 2 86 255 
0 -0 -0 68 1 84 255 
0 -0 -0 68 2 86 255 
0 -0 -0 68 2 86 255 
23.9387 -34.0096 -1.89586 70 8 92 255 
19.859 -28.2549 -1.90062 70 11 94 255 
16.9977 -24.2385 -1.90925 72 23 105 255 
10.918 -15.4877 -1.37492 71 46 124 255 
8.93394 -12.7018 -1.27126 72 24 106 255 
8.04249 -11.4554 -1.27873 72 35 116 255 
7.31784 -10.4352 -1.28563 72 37 118 255 
6.77671 -9.62373 -1.28282 71 44 122 255 
6.27423 -8.92369 -1.29305 68 59 132 255 
5.82449 -8.29925 -1.29885 68 59 132 255 
5.38265 -7.68129 -1.2915 70 48 126 255 
5.00453 -7.11492 -1.27055 68 59 132 255 
4.67333 -6.6517 -1.26429 68 57 131 255 
4.3802 -6.24362 -1.25852 68 59 132 255 
4.1289 -5.89214 -1.25828 68 59 132 255 
3.92831 -5.59315 -1.25443 58 83 139 255 
3.72496 -5.30776 -1.25105 50 101 142 255 
3.52621 -5.02633 -1.24583 48 105 142 255 
3.35723 -4.78915 -1.24637 52 96 141 255 
3.22002 -4.58977 -1.24399 50 100 142 255 
3.0815 -4.39413 -1.243 51 99 141 255 
2.96274 -4.22629 -1.2477 54 92 141 255 
2.85387 -4.06807 -1.25373 59 82 139 255 
2.72929 -3.89751 -1.24383 67 61 132 255 
2.63337 -3.76069 -1.24563 68 58 131 255 
2.52652 -3.60536 -1.2408 69 56 130 255 
2.43832 -3.47315 -1.24333 69 56 130 255 
8.34673 -11.9736 4.38447 68 58 131 255 
8.47977 -12.1422 4.28311 66 64 134 255 
8.1363 -11.6415 3.95752 71 47 125 255 
8.02596 -11.4841 3.76202 72 36 117 255 
8.01382 -11.4832 3.63447 65 66 135 255 
8.19983 -11.7457 3.56625 72 37 118 255 
0 -0 0 68 2 86 255 
8.304 -11.904 3.32419 72 29 111 255 
13.8223 -19.7989 5.32662 72 26 108 255 
8.18672 -11.7313 3.0068 61 78 138 255 
8.21278 -11.7815 2.87754 66 65 134 255 
13.9095 -19.9693 4.64237 71 14 97 255 
13.99 -20.0392 4.45905 71 19 101 255 
15.6287 -22.4037 4.71344 72 32 113 255 
15.4376 -22.1622 4.39385 72 36 117 255 
15.4688 -22.2492 4.15627 72 29 111 255 
15.5193 -22.2379 3.93672 72 31 112 255 
16.2151 -23.253 3.83789 72 20 103 255 
14.1935 -20.3991 3.12621 71 19 101 255 
12.7438 -18.3434 2.60408 72 22 104 255 
13.1383 -18.8262 2.48991 72 22 104 255 
12.155 -17.4501 2.10391 72 40 120 255 
12.7646 -18.3522 1.99905 72 35 116 255 
12.0487 -17.3622 1.69292 72 38 119 255 
12.0353 -17.252 1.5189 72 35 116 255 
12.0698 -17.3343 1.32521 72 29 111 255 
11.9593 -17.2136 1.11682 72 37 118 255 
11.8521 -17.0917 0.911742 72 41 121 255 
11.9568 -17.1523 0.752063 71 17 100 255 
15.4883 -22.2603 0.719594 72 28 110 255 
15.2321 -21.9326 0.45678 72 22 104 255 
0 -0 0 68 2 86 255 
0 -0 -0 68 2 86 255 
0 -0 -0 68 2 86 255 
0 -0 -0 68 1 84 255 
0 -0 -0 68 1 84 255 
0 -0 -0 68 2 86 255 
0 -0 -0 69 5 89 255 
19.5714 -28.2121 -1.88963 71 13 96 255 
16.852 -24.3473 -1.90963 72 22 104 255 
10.7311 -15.4226 -1.36327 70 50 126 255 
8.87459 -12.7834 -1.27396 72 36 117 255 
7.98226 -11.5193 -1.28036 72 32 113 255 
7.25707 -10.4848 -1.28624 72 35 116 255 
6.77881 -9.75329 -1.29452 69 55 129 255 
6.23635 -8.98649 -1.29658 68 57 131 255 
5.77402 -8.33565 -1.29898 62 73 137 255 
5.35401 -7.74106 -1.296 68 58 131 255 
4.97827 -7.17069 -1.27503 68 59 132 255 
4.62961 -6.67619 -1.26352 68 59 132 255 
4.34462 -6.27444 -1.25933 65 66 135 255 
4.12013 -5.95706 -1.26672 66 65 134 255 
3.90065 -5.62685 -1.25659 58 84 140 255 
3.694 -5.33294 -1.25162 51 98 141 255 
3.49642 -5.04948 -1.24622 51 99 141 255 
3.33557 -4.82092 -1.24929 50 102 142 255 
3.19957 -4.62068 -1.24702 50 102 142 255 
3.05337 -4.41136 -1.24255 49 103 142 255 
2.93731 -4.24518 -1.24794 53 94 141 255 
2.81119 -4.06 -1.2459 65 68 135 255 
2.71082 -3.92214 -1.24636 66 64 134 255 
2.61189 -3.77916 -1.24642 69 56 130 255 
2.49175 -3.60259 -1.23456 69 55 129 255 
2.42462 -3.49909 -1.24727 68 57 131 255 
8.34097 -12.1232 4.42043 67 61 132 255 
8.23174 -11.9425 4.19477 70 52 128 255 
7.93016 -11.4961 3.89149 64 69 136 255 
8.08914 -11.7271 3.8253 72 26 108 255 
8.0047 -11.6214 3.66261 70 51 127 255 
8.14687 -11.8238 3.57471 69 56 130 255 
8.15187 -11.8352 3.4316 67 62 133 255 
8.24739 -11.9788 3.33089 72 23 105 255 
7.79302 -11.3099 3.02984 72 31 112 255 
8.09404 -11.7515 2.99919 62 74 137 255 
8.12533 -11.8099 2.87224 72 20 103 255 
13.7812 -20.0462 4.6405 72 28 110 255 
15.5235 -22.529 4.99177 70 8 92 255 
15.4988 -22.5105 4.71582 71 16 99 255 
15.1917 -22.0971 4.36237 72 29 111 255 
15.3996 -22.4423 4.17462 72 31 112 255 
14.9879 -21.7598 3.83572 72 27 109 255 
14.8867 -21.6296 3.55481 72 29 111 255 
14.0378 -20.4416 3.11947 72 28 110 255 
13.919 -20.2997 2.86962 71 16 99 255 
13.3344 -19.3592 2.54954 72 26 108 255 
12.1165 -17.6244 2.11592 70 52 128 255 
12.3614 -18.0073 1.95318 71 45 123 255 
12.054 -17.5995 1.70881 72 36 117 255 
11.9315 -17.3288 1.51918 72 41 121 255 
11.8632 -17.2624 1.31413 70 48 126 255 
11.8438 -17.2727 1.11592 72 41 121 255 
11.769 -17.1963 0.91345 72 40 120 255 
15.1588 -22.0326 0.961952 72 28 110 255 
15.1092 -22.0023 0.708241 71 14 97 255 
14.978 -21.8516 0.453171 72 29 111 255 
0 -0 0 68 2 86 255 
0 -0 -0 68 1 84 255 
0 -0 -0 68 2 86 255 
0 -0 -0 68 1 84 255 
0 -0 -0 68 1 84 255 
0 -0 -0 69 4 87 255 
23.8325 -34.7572 -1.92108 70 11 94 255 
19.5497 -28.5533 -1.90441 70 11 94 255 
16.7761 -24.5582 -1.91807 71 19 101 255 
10.5239 -15.3245 -1.34886 71 42 122 255 
8.83373 -12.8927 -1.27942 72 31 112 255 
7.91143 -11.568 -1.28036 72 28 110 255 
7.20719 -10.5505 -1.28885 72 37 118 255 
6.71602 -9.7906 -1.29398 70 48 126 255 
6.18782 -9.03442 -1.298 68 59 132 255 
5.7306 -8.38239 -1.30076 60 79 138 255 
5.33154 -7.81058 -1.30214 65 66 135 255 
4.94369 -7.21498 -1.27749 68 57 131 255 
4.62093 -6.75176 -1.27243 67 61 132 255 
4.31383 -6.31238 -1.26161 66 65 134 255 
4.09849 -6.00419 -1.27137 65 66 135 255 
3.87271 -5.66042 -1.25876 60 80 139 255 
3.65789 -5.35064 -1.25048 53 95 141 255 
3.46648 -5.07246 -1.24662 49 104 142 255 
3.30428 -4.83887 -1.24867 52 97 141 255 
3.17447 -4.64506 -1.24832 50 100 142 255 
3.02899 -4.43403 -1.24368 50 102 142 255 
2.91559 -4.26955 -1.24982 54 93 141 255 
2.78075 -4.06917 -1.24346 61 77 138 255 
2.68016 -3.92911 -1.24332 67 62 133 255 
2.58539 -3.79034 -1.24485 68 58 131 255 
2.47774 -3.62973 -1.23863 69 55 129 255 
2.38739 -3.49093 -1.23911 69 53 129 255 
14.6832 -21.6242 7.85177 72 23 105 255 
7.92651 -11.652 4.07559 69 56 130 255 
7.86923 -11.5589 3.89632 68 57 131 255 
7.77083 -11.4149 3.70783 69 56 130 255 
7.94522 -11.6879 3.66813 72 35 116 255 
8.0578 -11.8494 3.56746 72 26 108 255 
8.05777 -11.8536 3.42254 69 56 130 255 
7.8264 -11.518 3.18935 71 44 122 255 
7.71853 -11.3502 3.0279 66 64 134 255 
8.05864 -11.8551 3.01297 72 38 119 255 
8.06868 -11.8831 2.87794 72 31 112 255 
13.6656 -20.1418 4.64312 71 13 96 255 
0 -0 0 68 2 86 255 
15.0917 -22.2099 4.63335 72 29 111 255 
15.2642 -22.497 4.42275 72 31 112 255 
13.2724 -19.599 3.63051 70 8 92 255 
14.7645 -21.7195 3.81259 72 23 105 255 
13.8038 -20.3221 3.32594 72 38 119 255 
12.2021 -18.0043 2.73604 72 38 119 255 
12.2594 -18.1167 2.55035 72 28 110 255 
12.1037 -17.8053 2.33508 72 23 105 255 
12.1294 -17.8771 2.13728 72 24 106 255 
12.2345 -18.0589 1.95059 72 33 115 255 
11.7716 -17.4154 1.6839 72 32 113 255 
11.8311 -17.4108 1.51998 70 52 128 255 
11.7699 -17.3539 1.31557 71 46 124 255 
11.7169 -17.3144 1.11395 70 48 126 255 
11.6432 -17.2383 0.911874 72 41 121 255 
12.0884 -17.8028 0.774026 72 23 105 255 
14.7855 -21.8165 0.699329 72 20 103 255 
14.7137 -21.7509 0.449203 72 27 109 255 
0 -0 0 68 2 86 255 
0 -0 -0 68 1 84 255 
0 -0 -0 68 1 84 255 
0 -0 -0 68 1 84 255 
0 -0 -0 68 2 86 255 
29.9476 -44.1707 -1.93818 70 7 90 255 
23.8097 -35.1849 -1.93661 70 7 90 255 
19.3842 -28.6876 -1.9054 71 13 96 255 
16.8175 -24.9461 -1.94027 71 17 100 255 
10.414 -15.3657 -1.34684 71 44 122 255 
8.8047 -13.021 -1.28677 72 35 116 255 
7.85534 -11.6386 -1.28282 72 33 115 255 
7.16401 -10.6267 -1.29276 72 32 113 255 
6.66362 -9.84315 -1.2955 70 50 126 255 
6.14228 -9.08703 -1.30011 69 56 130 255 
5.69626 -8.44288 -1.3047 66 63 133 255 
5.2968 -7.86287 -1.30542 66 65 134 255 
4.92205 -7.27878 -1.28342 68 59 132 255 
4.59158 -6.798 -1.27582 67 62 133 255 
4.29488 -6.36818 -1.26747 67 62 133 255 
4.05937 -6.02596 -1.27069 67 62 133 255 
3.84011 -5.68734 -1.25948 56 89 140 255 
3.62499 -5.37298 -1.25048 51 98 141 255 
3.44351 -5.10582 -1.2496 50 100 142 255 
3.27234 -4.85581 -1.24783 52 96 141 255 
3.1399 -4.65555 -1.24594 49 103 142 255 
3.01316 -4.4695 -1.24842 49 103 142 255 
2.89531 -4.29622 -1.2524 51 98 141 255 
2.76712 -4.10303 -1.24859 54 92 141 255 
2.66735 -3.96234 -1.24864 62 73 137 255 
2.57448 -3.82454 -1.25087 65 66 135 255 
2.46994 -3.66642 -1.24595 67 61 132 255 
2.36217 -3.49995 -1.23714 70 50 126 255 
12.5222 -18.6874 6.75738 72 23 105 255 
7.87253 -11.7267 4.08475 67 61 132 255 
7.8132 -11.6294 3.90383 60 79 138 255 
7.69311 -11.4511 3.7042 72 26 108 255 
14.383 -21.4401 6.70092 71 14 97 255 
14.7624 -21.9981 6.59546 72 22 104 255 
7.54868 -11.2526 3.23558 63 72 137 255 
7.77567 -11.5958 3.19761 71 47 125 255 
7.6482 -11.3965 3.02769 64 70 136 255 
7.6919 -11.4663 2.90211 60 79 138 255 
7.79039 -11.6261 2.80407 70 10 93 255 
21.4415 -32.0238 7.35172 70 8 92 255 
22.8334 -34.024 7.47608 70 10 93 255 
15.015 -22.3913 4.65189 72 27 109 255 
14.9375 -22.3089 4.36767 72 24 106 255 
15.2131 -22.7643 4.19948 72 23 105 255 
14.7363 -21.9667 3.84003 71 13 96 255 
12.3871 -18.4794 3.01187 72 31 112 255 
12.0925 -18.0804 2.73629 71 42 122 255 
12.6147 -18.8904 2.64832 72 22 104 255 
13.1978 -19.6733 2.56938 72 27 109 255 
13.0874 -19.5463 2.32719 72 22 104 255 
11.933 -17.8487 1.91995 72 32 113 255 
11.9278 -17.8821 1.72191 72 32 113 255 
12.8773 -19.2028 1.66949 72 22 104 255 
11.721 -17.5121 1.32208 72 41 121 255 
11.6016 -17.3727 1.1131 71 46 124 255 
11.5427 -17.3178 0.912311 72 29 111 255 
11.5734 -17.2715 0.747821 70 50 126 255 
14.6319 -21.8777 0.6984 72 23 105 255 
14.5538 -21.8017 0.4484 72 20 103 255 
0 -0 0 68 1 84 255 
0 -0 -0 68 1 84 255 
0 -0 -0 68 2 86 255 
0 -0 -0 68 1 84 255 
0 -0 -0 68 1 84 255 
0 -0 -0 69 4 87 255 
23.5956 -35.3337 -1.93679 70 8 92 255 
19.0449 -28.5618 -1.88924 70 11 94 255 
16.8062 -25.2624 -1.95681 72 20 103 255 
10.3212 -15.4318 -1.34706 71 47 125 255 
8.73847 -13.0955 -1.28881 72 33 115 255 
7.82187 -11.7438 -1.2891 72 36 117 255 
7.1356 -10.7259 -1.29948 72 35 116 255 
6.60807 -9.89129 -1.29647 70 52 128 255 
6.08531 -9.12289 -1.29988 69 53 129 255 
5.6427 -8.4752 -1.30432 72 37 118 255 
5.24297 -7.88697 -1.30405 66 64 134 255 
4.88224 -7.31625 -1.28472 68 59 132 255 
4.5602 -6.84167 -1.27874 69 55 129 255 
4.25354 -6.39113 -1.26682 65 68 135 255 
4.02451 -6.05404 -1.27137 66 64 134 255 
3.81496 -5.72553 -1.26273 52 97 141 255 
3.59848 -5.40493 -1.25275 53 95 141 255 
3.41103 -5.12522 -1.24921 48 106 142 255 
3.24302 -4.87661 -1.24804 50 101 142 255 
3.1156 -4.68123 -1.24767 51 99 141 255 
2.99755 -4.50574 -1.25338 50 102 142 255 
2.8732 -4.32038 -1.25428 50 101 142 255 
2.76445 -4.15384 -1.25887 53 94 141 255 
2.65102 -3.99072 -1.25243 63 72 137 255 
2.54616 -3.83303 -1.24851 66 64 134 255 
2.46552 -3.70876 -1.25518 67 62 133 255 
2.35342 -3.53355 -1.24389 70 51 127 255 
7.89454 -11.9391 4.2996 71 14 97 255 
7.94261 -11.9894 4.15921 70 51 127 255 
7.89074 -11.9019 3.97899 68 59 132 255 
0 -0 0 68 2 86 255 
14.2346 -21.5029 6.69313 72 22 104 255 
7.67069 -11.5834 3.45875 69 56 130 255 
7.53372 -11.3806 3.25903 66 65 134 255 
7.53816 -11.3921 3.12863 71 47 125 255 
7.45304 -11.2544 2.97771 61 78 138 255 
7.5555 -11.4137 2.87701 56 89 140 255 
7.65077 -11.5706 2.77931 72 26 108 255 
7.54016 -11.4124 2.60928 70 8 92 255 
21.5895 -32.6009 7.13415 70 10 93 255 
14.7256 -22.2537 4.60445 71 17 100 255 
14.8009 -22.401 4.36783 72 27 109 255 
14.2847 -21.6616 3.97981 72 31 112 255 
12.0627 -18.222 3.17242 71 44 122 255 
12.0007 -18.1427 2.94493 72 40 120 255 
12.0054 -18.1907 2.74178 72 38 119 255 
13.0063 -19.7379 2.7559 72 26 108 255 
12.9489 -19.5608 2.54426 72 31 112 255 
12.9508 -19.6013 2.32424 72 23 105 255 
13.8703 -21.0244 2.25236 70 10 93 255 
11.7423 -17.84 1.71089 72 24 106 255 
11.6683 -17.6329 1.52675 71 42 122 255 
11.6375 -17.6203 1.32484 70 51 127 255 
11.5173 -17.4777 1.11528 71 44 122 255 
11.4401 -17.3941 0.912618 71 42 122 255 
11.7974 -17.8415 0.769353 72 37 118 255 
14.4247 -21.857 0.694899 72 24 106 255 
14.3367 -21.7645 0.445817 72 29 111 255 
0 -0 0 68 1 84 255 
0 -0 -0 68 1 84 255 
0 -0 -0 68 1 84 255 
0 -0 -0 68 1 84 255 
0 -0 -0 68 1 84 255 
0 -0 -0 68 2 86 255 
23.5268 -35.703 -1.94909 69 5 89 255 
19.0949 -29.0209 -1.91183 71 19 101 255 
16.5616 -25.229 -1.94632 71 17 100 255 
10.1961 -15.449 -1.34307 71 42 122 255 
8.68646 -13.1921 -1.29305 72 37 118 255 
7.77756 -11.834 -1.29374 71 45 123 255 
7.07074 -10.7712 -1.29968 72 32 113 255 
6.56367 -9.95655 -1.29972 70 51 127 255 
6.03468 -9.16836 -1.30106 69 56 130 255 
5.58079 -8.49474 -1.30203 71 42 122 255 
5.1972 -7.92313 -1.30473 67 61 132 255 
4.83834 -7.34773 -1.28501 68 59 132 255 
4.51487 -6.86457 -1.27781 68 58 131 255 
4.2267 -6.43608 -1.27056 65 68 135 255 
3.9889 -6.08109 -1.27189 65 66 135 255 
3.78246 -5.75293 -1.26363 53 95 141 255 
3.57657 -5.44415 -1.25673 53 95 141 255 
3.38436 -5.15343 -1.251 48 106 142 255 
3.22699 -4.91768 -1.25346 53 94 141 255 
3.09861 -4.71821 -1.25244 46 109 142 255 
2.96023 -4.50939 -1.24932 50 101 142 255 
2.84771 -4.33956 -1.25475 50 101 142 255 
2.73199 -4.16018 -1.25569 54 93 141 255 
2.61906 -3.99558 -1.24889 62 73 137 255 
2.52312 -3.84939 -1.24877 67 62 133 255 
2.4538 -3.74072 -1.26087 66 64 134 255 
2.33064 -3.54631 -1.24333 71 47 125 255 
7.83056 -12.0018 4.30478 71 42 122 255 
7.98243 -12.2116 4.21922 72 38 119 255 
14.3932 -22.0017 7.32586 71 13 96 255 
7.68683 -11.7507 3.77032 72 29 111 255 
14.222 -21.773 6.74991 71 16 99 255 
7.64565 -11.7009 3.47976 70 51 127 255 
7.47864 -11.4494 3.26554 71 42 122 255 
7.41216 -11.3524 3.10519 71 47 125 255 
7.47359 -11.4372 3.0139 64 69 136 255 
7.5094 -11.4968 2.88627 58 84 140 255 
7.62678 -11.6896 2.7966 70 51 127 255 
7.72588 -11.851 2.69867 71 13 96 255 
21.5408 -32.965 7.18477 70 10 93 255 
14.5807 -22.3313 4.6019 71 19 101 255 
14.3958 -22.0813 4.28819 72 26 108 255 
14.2076 -21.835 3.99557 72 20 103 255 
12.7197 -19.473 3.37657 72 22 104 255 
11.9292 -18.2774 2.95486 72 40 120 255 
12.0798 -18.5501 2.78472 72 28 110 255 
12.7967 -19.6816 2.73703 72 31 112 255 
12.9358 -19.8038 2.5655 71 16 99 255 
11.4912 -17.6264 2.08166 72 20 103 255 
12.0049 -18.4421 1.96778 71 17 100 255 
11.6011 -17.8632 1.70626 72 26 108 255 
11.5397 -17.6732 1.52408 71 42 122 255 
11.5117 -17.6646 1.32283 69 55 129 255 
11.4169 -17.559 1.11597 70 50 126 255 
11.3935 -17.557 0.917479 71 45 123 255 
11.9356 -18.2935 0.785673 72 36 117 255 
14.2401 -21.868 0.692458 72 28 110 255 
0 -0 0 68 2 86 255 
0 -0 0 68 1 84 255 
0 -0 -0 68 1 84 255 
0 -0 -0 68 1 84 255 
0 -0 -0 68 1 84 255 
0 -0 -0 68 1 84 255 
0 -0 -0 68 2 86 255 
0 -0 -0 69 5 89 255 
18.9175 -29.1392 -1.91194 71 16 99 255 
16.3609 -25.2598 -1.94091 71 16 99 255 
9.96883 -15.3082 -1.32549 70 48 126 255 
8.84047 -13.6071 -1.32838 72 38 119 255 
7.69504 -11.8665 -1.2921 72 32 113 255 
7.00506 -10.8152 -1.29978 72 38 119 255 
6.49378 -9.98331 -1.29799 70 52 128 255 
5.98209 -9.21104 -1.30188 70 52 128 255 
5.52802 -8.52799 -1.3019 70 48 126 255 
5.15279 -7.96153 -1.30583 67 61 132 255 
4.79694 -7.38308 -1.28602 67 62 133 255 
4.48397 -6.90955 -1.28104 65 66 135 255 
4.19035 -6.46686 -1.27154 66 64 134 255 
3.94135 -6.08974 -1.26862 68 58 131 255 
3.75458 -5.78759 -1.26616 54 92 141 255 
3.54043 -5.46187 -1.25579 49 103 142 255 
3.35481 -5.17739 -1.25179 46 111 142 255 
3.19888 -4.94067 -1.25429 48 106 142 255 
3.06589 -4.7314 -1.25092 49 103 142 255 
2.92932 -4.52257 -1.24797 49 104 142 255 
2.81891 -4.35369 -1.25381 49 103 142 255 
2.70642 -4.17687 -1.25569 52 96 141 255 
2.60185 -4.02295 -1.25243 57 85 140 255 
2.51046 -3.88182 -1.25427 66 65 134 255 
2.42923 -3.75328 -1.26006 66 65 134 255 
2.31666 -3.57263 -1.24755 70 51 127 255 
7.69041 -11.9465 4.26795 63 72 137 255 
14.4204 -22.3588 7.69444 72 20 103 255 
7.68819 -11.9112 3.95027 72 38 119 255 
7.61301 -11.7953 3.76954 72 32 113 255 
7.55846 -11.7281 3.62141 72 37 118 255 
7.56109 -11.728 3.47397 68 59 132 255 
11.0692 -17.1756 4.87926 72 35 116 255 
7.31227 -11.351 3.09246 62 76 138 255 
7.43078 -11.5255 3.0251 60 80 139 255 
7.37245 -11.4398 2.86056 55 90 140 255 
7.54323 -11.718 2.79228 72 36 117 255 
14.6987 -22.852 5.18315 72 20 103 255 
15.4739 -24.0008 5.21021 70 8 92 255 
15.023 -23.32 4.78656 71 14 97 255 
14.4004 -22.3875 4.33042 71 19 101 255 
13.2259 -20.6017 3.75497 71 14 97 255 
12.0564 -18.7072 3.23089 72 40 120 255 
11.8137 -18.3452 2.95405 72 28 110 255 
12.0639 -18.7766 2.80756 72 27 109 255 
12.658 -19.7322 2.73321 72 36 117 255 
