ply
format ascii 1.0
comment VTK generated PLY File
obj_info vtkPolyData points and polygons: vtk4.0
element vertex 1154
property float x
property float y
property float z
property uchar red
property uchar green
property uchar blue
property uchar alpha
element face 0
property list uchar int vertex_indices
end_header
-18.6452 -6.1757 1.23229 58 84 140 255 
-18.6343 -6.15063 1.04558 63 71 136 255 
-18.6293 -6.13066 0.859715 62 76 138 255 
-18.638 -6.18445 0.70634 59 82 139 255 
-18.6414 -6.16722 0.521022 60 80 139 255 
-18.6183 -6.14173 0.335363 60 80 139 255 
-18.6098 -6.11706 0.153858 62 73 137 255 
-18.6018 -6.16883 -0.0034205 59 81 139 255 
-18.6113 -6.15005 -0.188163 62 73 137 255 
-18.6122 -6.13254 -0.369429 63 71 136 255 
-18.6459 -6.12172 -0.555036 67 62 133 255 
-18.5918 -6.15473 -0.711271 67 61 132 255 
-18.6111 -6.14278 -0.893397 63 71 136 255 
-18.5534 -6.10956 -1.07499 66 65 134 255 
-18.5475 -6.08583 -1.25891 69 55 129 255 
-18.5535 -6.13847 -1.41798 68 59 132 255 
-18.5742 -6.12343 -1.60105 64 69 136 255 
-17.8548 -5.86916 -1.71707 71 16 99 255 
-15.6098 -5.1219 -1.65717 72 26 108 255 
-13.9603 -4.61068 -1.60233 72 36 117 255 
-12.5404 -4.13182 -1.56508 70 51 127 255 
-11.3619 -3.73262 -1.53202 70 50 126 255 
-10.3957 -3.40704 -1.50634 67 61 132 255 
-9.55814 -3.15124 -1.47 64 69 136 255 
-8.93267 -2.93968 -1.46253 70 52 128 255 
-8.32807 -2.73435 -1.4464 66 63 133 255 
-7.77211 -2.54719 -1.43038 65 68 135 255 
-7.32793 -2.4103 -1.41581 62 73 137 255 
-6.90959 -2.26989 -1.40317 59 82 139 255 
-6.53091 -2.14429 -1.39477 63 72 137 255 
-6.18851 -2.02938 -1.38789 62 74 137 255 
-5.93811 -1.94972 -1.38674 57 85 140 255 
-5.66038 -1.85732 -1.37973 58 83 139 255 
-5.35414 -1.75585 -1.36214 64 69 136 255 
-5.11471 -1.67923 -1.35819 64 69 136 255 
-4.92285 -1.61162 -1.3541 64 69 136 255 
-4.72732 -1.5475 -1.34959 67 61 132 255 
-4.57224 -1.49855 -1.35609 68 59 132 255 
-4.32588 -1.42192 -1.33415 71 44 122 255 
-18.7292 -6.08738 5.91587 62 74 137 255 
-18.7608 -6.11546 5.70665 62 74 137 255 
-18.7201 -6.1096 5.48695 62 74 137 255 
-18.7281 -6.11182 5.28971 63 72 137 255 
-18.7176 -6.09443 5.10916 63 72 137 255 
-18.7206 -6.09875 4.90172 63 72 137 255 
-18.71 -6.09187 4.69856 63 71 136 255 
-18.7378 -6.09692 4.513 64 70 136 255 
-18.6914 -6.08951 4.33656 65 66 135 255 
-18.6982 -6.08784 4.13317 63 71 136 255 
-18.7049 -6.07938 3.94078 62 73 137 255 
-18.684 -6.06502 3.74725 66 65 134 255 
-18.6635 -6.08041 3.58135 64 69 136 255 
-18.6675 -6.07424 3.38732 59 81 139 255 
-18.6445 -6.05254 3.18893 59 82 139 255 
-18.6823 -6.04646 3.0118 59 81 139 255 
-18.6893 -6.0852 2.85334 54 92 141 255 
-18.6686 -6.07098 2.65769 56 89 140 255 
-18.6771 -6.05232 2.46981 57 85 140 255 
-18.6481 -6.02822 2.28493 60 80 139 255 
-18.6607 -6.0759 2.12848 57 86 140 255 
-18.672 -6.06129 1.94215 61 78 138 255 
-18.6511 -6.04029 1.75313 63 71 136 255 
-18.6313 -6.01203 1.56827 63 71 136 255 
-18.6636 -6.07326 1.4172 61 78 138 255 
-18.6505 -6.05071 1.23016 60 80 139 255 
-18.629 -6.02236 1.04318 62 76 138 255 
-18.6124 -5.99877 0.857219 61 78 138 255 
-18.6357 -6.057 0.70483 56 89 140 255 
-18.599 -6.02684 0.518793 61 78 138 255 
-18.5976 -6.00863 0.33432 62 74 137 255 
-18.5928 -5.98529 0.15341 63 71 136 255 
-18.6079 -6.04438 -0.00341474 60 79 138 255 
-18.604 -6.02126 -0.187712 62 76 138 255 
-18.5981 -6.00164 -0.368412 63 71 136 255 
-18.5594 -5.96742 -0.551361 70 52 128 255 
-18.6093 -6.03406 -0.710508 65 66 135 255 
-18.58 -6.00635 -0.890118 68 59 132 255 
-18.5525 -5.98335 -1.07279 66 65 134 255 
-18.5427 -5.95848 -1.25608 69 55 129 255 
-18.5662 -6.01651 -1.41609 69 56 130 255 
-18.5432 -5.9873 -1.59518 67 61 132 255 
-17.7749 -5.72227 -1.70597 71 14 97 255 
-15.6911 -5.04216 -1.66249 72 26 108 255 
-13.9684 -4.51851 -1.60006 72 40 120 255 
-12.557 -4.05205 -1.56402 71 44 122 255 
-11.3638 -3.65616 -1.52922 69 53 129 255 
-10.4409 -3.35106 -1.50989 67 61 132 255 
-9.56976 -3.0901 -1.46885 68 58 131 255 
-8.95806 -2.88724 -1.46376 70 51 127 255 
-8.33624 -2.68048 -1.44493 68 59 132 255 
-7.80353 -2.50457 -1.43331 66 65 134 255 
-7.31918 -2.35775 -1.4113 63 71 136 255 
-6.92712 -2.22865 -1.40393 63 72 137 255 
-6.54955 -2.10598 -1.39596 63 72 137 255 
-6.19712 -1.99018 -1.38706 62 73 137 255 
-5.94717 -1.91235 -1.38609 57 86 140 255 
-5.65961 -1.81868 -1.3768 58 83 139 255 
-5.3861 -1.7298 -1.36754 62 74 137 255 
-5.13599 -1.65138 -1.36112 64 69 136 255 
-4.93264 -1.58138 -1.3541 62 73 137 255 
-4.74132 -1.51994 -1.3509 65 66 135 255 
-4.55935 -1.46341 -1.34958 68 57 131 255 
-4.35096 -1.40064 -1.33921 71 46 124 255 
-18.7434 -5.96509 5.90868 64 70 136 255 
-18.7046 -5.97044 5.67832 60 80 139 255 
-18.7068 -5.97849 5.47219 62 76 138 255 
-18.7101 -5.97915 5.27415 62 74 137 255 
-18.6845 -5.95712 5.09007 64 70 136 255 
-18.6948 -5.96372 4.88529 61 77 138 255 
-18.6933 -5.95982 4.68509 63 72 137 255 
-18.6486 -5.94159 4.48264 64 70 136 255 
-18.7126 -5.96967 4.3329 62 73 137 255 
-18.6756 -5.95398 4.12001 62 74 137 255 
-18.6858 -5.94666 3.92899 63 71 136 255 
-18.6956 -5.94223 3.74219 66 63 133 255 
-18.6742 -5.9574 3.57632 63 72 137 255 
-18.6518 -5.94283 3.3778 56 89 140 255 
-18.6531 -5.92906 3.18411 57 85 140 255 
-18.6663 -5.91499 3.00331 61 78 138 255 
-18.6631 -5.95027 2.84371 58 83 139 255 
-18.6668 -5.94399 2.65219 54 92 141 255 
-18.6458 -5.916 2.46083 58 84 140 255 
-18.6308 -5.8966 2.27833 59 82 139 255 
-18.6351 -5.94135 2.12137 55 91 141 255 
-18.6368 -5.92369 1.93467 62 76 138 255 
-18.6393 -5.91038 1.74859 62 76 138 255 
-18.627 -5.88469 1.56484 63 71 136 255 
-18.6302 -5.93622 1.41187 64 69 136 255 
-18.634 -5.91924 1.22665 61 77 138 255 
-18.6399 -5.8998 1.04175 62 73 137 255 
-18.5917 -5.86642 0.854591 60 79 138 255 
-18.6335 -5.93011 0.703356 57 85 140 255 
-18.5975 -5.90051 0.517732 62 76 138 255 
-18.5883 -5.87993 0.333499 62 76 138 255 
-18.5748 -5.85396 0.152963 62 73 137 255 
-18.6075 -5.91827 -0.00340793 62 73 137 255 
-18.5776 -5.88706 -0.187078 62 73 137 255 
-18.5774 -5.86934 -0.367281 62 74 137 255 
-18.5709 -5.84563 -0.550626 68 58 131 255 
-18.5697 -5.89557 -0.707605 65 66 135 255 
-18.5803 -5.88078 -0.888388 66 64 134 255 
-18.5441 -5.85527 -1.07021 68 58 131 255 
-18.5399 -5.83231 -1.25344 68 59 132 255 
-18.5181 -5.87563 -1.40965 67 61 132 255 
-18.5444 -5.86229 -1.59216 64 69 136 255 
-17.821 -5.61669 -1.70706 72 24 106 255 
-15.6981 -4.93832 -1.65998 72 24 106 255 
-13.9637 -4.42251 -1.59638 72 33 115 255 
-12.5684 -3.97073 -1.56237 71 47 125 255 
-11.3718 -3.58189 -1.52732 70 50 126 255 
-10.4594 -3.28634 -1.50962 69 55 129 255 
-9.5876 -3.03103 -1.4687 68 58 131 255 
-8.97467 -2.83192 -1.46361 70 50 126 255 
-8.35253 -2.62928 -1.44493 64 69 136 255 
-7.85071 -2.46668 -1.43917 66 63 133 255 
-7.33445 -2.31309 -1.41148 65 68 135 255 
-6.96127 -2.19259 -1.40809 61 78 138 255 
-6.55487 -2.0634 -1.39437 62 74 137 255 
-6.21295 -1.95329 -1.38789 62 74 137 255 
-5.93738 -1.86908 -1.38111 59 81 139 255 
-5.65951 -1.78041 -1.37409 59 81 139 255 
-5.41052 -1.70109 -1.37106 62 73 137 255 
-5.14788 -1.62041 -1.36161 64 69 136 255 
-4.92287 -1.545 -1.34879 63 71 136 255 
-4.75608 -1.49255 -1.35247 67 61 132 255 
-4.57835 -1.43858 -1.35256 68 58 131 255 
-4.36039 -1.37421 -1.33949 70 50 126 255 
-18.6891 -5.82177 5.8802 63 72 137 255 
-18.7107 -5.8461 5.66915 60 79 138 255 
-18.7192 -5.85611 5.46521 62 76 138 255 
-18.6911 -5.84693 5.25859 63 72 137 255 
-18.6838 -5.83083 5.08002 62 73 137 255 
-18.695 -5.83762 4.87587 62 74 137 255 
-18.6887 -5.83225 4.67487 60 79 138 255 
-18.6512 -5.81661 4.4746 67 62 133 255 
-18.6492 -5.82359 4.30985 62 76 138 255 
-18.6716 -5.82674 4.11116 62 76 138 255 
-18.6592 -5.81235 3.91583 63 71 136 255 
-18.652 -5.8026 3.72626 65 68 135 255 
-18.6493 -5.82365 3.56465 63 72 137 255 
-18.6569 -5.81859 3.37218 58 84 140 255 
-18.6674 -5.80775 3.18042 57 86 140 255 
-18.6456 -5.78278 2.99422 58 83 139 255 
-18.6416 -5.81766 2.83495 54 92 141 255 
-18.631 -5.80694 2.642 56 89 140 255 
-18.6401 -5.78854 2.45534 57 86 140 255 
-18.6268 -5.76983 2.27346 61 77 138 255 
-18.637 -5.81624 2.11748 58 84 140 255 
-18.6034 -5.78765 1.92748 62 76 138 255 
-18.6096 -5.77553 1.74244 62 73 137 255 
-18.6075 -5.75321 1.56021 62 73 137 255 
-18.6168 -5.80635 1.40813 61 77 138 255 
-18.6147 -5.78761 1.22302 60 80 139 255 
-18.6156 -5.7667 1.0384 62 73 137 255 
-18.5844 -5.73896 0.852621 62 73 137 255 
-18.5875 -5.7901 0.700265 62 76 138 255 
-18.5923 -5.77354 0.516592 60 79 138 255 
-18.5792 -5.75186 0.332695 60 79 138 255 
-18.5779 -5.72986 0.152696 64 70 136 255 
-18.5881 -5.78674 -0.00339781 60 80 139 255 
-18.5571 -5.75548 -0.186512 62 76 138 255 
-18.551 -5.73604 -0.366056 63 71 136 255 
-18.5654 -5.71892 -0.54941 70 51 127 255 
-18.5569 -5.7664 -0.705754 66 63 133 255 
-18.5397 -5.74301 -0.884745 64 69 136 255 
-18.5282 -5.72545 -1.06724 68 59 132 255 
-18.5391 -5.70729 -1.25099 67 61 132 255 
-18.5205 -5.75155 -1.40712 68 59 132 255 
-18.5124 -5.72748 -1.58637 65 68 135 255 
-17.8799 -5.51487 -1.70943 71 19 101 255 
-15.7005 -4.83342 -1.65707 72 24 106 255 
-13.9782 -4.33292 -1.59497 72 36 117 255 
-12.5897 -3.89266 -1.56202 70 48 126 255 
-11.3822 -3.50854 -1.52579 70 52 128 255 
-10.4728 -3.22006 -1.50866 68 57 131 255 
-9.60129 -2.97068 -1.46798 66 63 133 255 
-8.96733 -2.76922 -1.45961 70 51 127 255 
-8.35247 -2.57304 -1.44217 66 65 134 255 
-7.82521 -2.40602 -1.43176 65 68 135 255 
-7.35414 -2.26979 -1.41256 62 73 137 255 
-6.98491 -2.15302 -1.41018 58 83 139 255 
-6.55148 -2.01823 -1.39099 65 68 135 255 
-6.22575 -1.91542 -1.3881 62 76 138 255 
-5.9422 -1.8306 -1.37959 59 82 139 255 
-5.65264 -1.7402 -1.36981 60 79 138 255 
-5.40785 -1.66386 -1.36777 60 79 138 255 
-5.1466 -1.58537 -1.35868 62 74 137 255 
-4.92116 -1.51136 -1.34575 62 73 137 255 
-4.77346 -1.46589 -1.35482 70 52 128 255 
-4.59261 -1.41215 -1.35419 69 55 129 255 
-4.36966 -1.34771 -1.33977 71 47 125 255 
-18.6842 -5.6947 5.86754 63 72 137 255 
-18.6993 -5.71686 5.65498 61 78 138 255 
-18.6912 -5.72169 5.44669 61 78 138 255 
-18.6777 -5.71715 5.24484 62 73 137 255 
-18.684 -5.70533 5.07047 62 76 138 255 
-18.6933 -5.71145 4.86621 59 82 139 255 
-18.6543 -5.69617 4.65745 62 73 137 255 
-18.6707 -5.69722 4.47081 67 61 132 255 
-18.6649 -5.70306 4.30533 62 73 137 255 
-18.6714 -5.7012 4.10335 60 79 138 255 
-18.6552 -5.68575 3.90758 62 74 137 255 
-18.629 -5.67031 3.71465 64 69 136 255 
-18.6189 -5.68898 3.55209 64 70 136 255 
-18.6404 -5.68819 3.36283 58 84 140 255 
-18.6338 -5.67212 3.16869 59 82 139 255 
-18.6249 -5.65133 2.98527 59 82 139 255 
-18.623 -5.6867 2.82676 55 91 141 255 
-18.6255 -5.68008 2.63623 55 91 141 255 
-18.6145 -5.6556 2.44735 57 85 140 255 
-18.6086 -5.6393 2.26698 62 74 137 255 
-18.6096 -5.68261 2.11037 57 86 140 255 
-18.6176 -5.66702 1.92531 61 77 138 255 
-18.5894 -5.64445 1.73727 63 72 137 255 
-18.5852 -5.62161 1.55542 65 68 135 255 
-18.5795 -5.66989 1.40266 62 73 137 255 
-18.6012 -5.65847 1.21983 57 85 140 255 
-18.6029 -5.63789 1.03574 61 77 138 255 
-18.6011 -5.61934 0.851789 61 78 138 255 
-18.5806 -5.66313 0.698683 59 81 139 255 
-18.5576 -5.63814 0.514655 60 79 138 255 
-18.5653 -5.62297 0.331823 63 72 137 255 
-18.5504 -5.59698 0.152185 62 76 138 255 
-18.5601 -5.65335 -0.00338629 61 78 138 255 
-18.5604 -5.63193 -0.186195 59 82 139 255 
-18.5485 -5.61082 -0.36532 64 70 136 255 
-18.5609 -5.59307 -0.548251 70 52 128 255 
-18.5393 -5.63644 -0.703758 65 66 135 255 
-18.5478 -5.62103 -0.88347 64 69 136 255 
-18.5305 -5.60184 -1.06537 67 62 133 255 
-18.5279 -5.57961 -1.2479 69 55 129 255 
-18.5039 -5.62214 -1.40321 66 64 134 255 
-18.5215 -5.60598 -1.58416 66 65 134 255 
-17.9334 -5.41109 -1.71134 72 20 103 255 
-15.6889 -4.72465 -1.65276 72 24 106 255 
-13.995 -4.24418 -1.59388 72 36 117 255 
-12.6019 -3.81189 -1.56061 71 46 124 255 
-11.3988 -3.4372 -1.52516 71 45 123 255 
-10.462 -3.14661 -1.5043 69 53 129 255 
-9.6146 -2.91028 -1.46726 67 61 132 255 
-8.97375 -2.711 -1.45792 71 47 125 255 
-8.35488 -2.51776 -1.43989 65 68 135 255 
-7.81907 -2.35171 -1.42797 66 65 134 255 
-7.3764 -2.22718 -1.41419 66 64 134 255 
-6.98859 -2.10729 -1.40828 59 81 139 255 
-6.58157 -1.98337 -1.39477 64 70 136 255 
-6.23645 -1.8769 -1.38789 66 65 134 255 
-5.94865 -1.7927 -1.37851 57 85 140 255 
-5.66601 -1.70633 -1.37048 59 81 139 255 
-5.40585 -1.62701 -1.36472 65 66 135 255 
-5.14045 -1.54901 -1.35452 66 63 133 255 
-4.95258 -1.48782 -1.35182 65 66 135 255 
-4.76203 -1.43047 -1.34906 70 52 128 255 
-4.58736 -1.37979 -1.35012 69 55 129 255 
-4.37509 -1.32004 -1.33893 71 47 125 255 
-18.6967 -5.57338 5.86063 61 77 138 255 
-18.7046 -5.59321 5.64609 62 73 137 255 
-18.702 -5.59971 5.43971 61 77 138 255 
-18.6911 -5.59607 5.23888 61 78 138 255 
-18.6565 -5.57203 5.05364 61 78 138 255 
-18.6546 -5.5747 4.84713 60 79 138 255 
-18.6582 -5.57242 4.64979 61 78 138 255 
-18.6511 -5.56638 4.45786 68 59 132 255 
-18.6715 -5.58004 4.29886 59 82 139 255 
-18.6441 -5.56804 4.08977 64 70 136 255 
-18.6361 -5.55521 3.89638 62 73 137 255 
-18.606 -5.5388 3.70322 63 71 136 255 
-18.6374 -5.56985 3.54904 62 76 138 255 
-18.6382 -5.56271 3.3562 58 84 140 255 
-18.6209 -5.54359 3.16067 57 85 140 255 
-18.6137 -5.52345 2.97799 55 90 140 255 
-18.6168 -5.56014 2.82058 57 86 140 255 
-18.6097 -5.55068 2.62912 59 82 139 255 
-18.6098 -5.52969 2.44223 58 83 139 255 
-18.6 -5.51231 2.26177 59 81 139 255 
-18.6222 -5.56177 2.10789 60 80 139 255 
-18.6043 -5.53848 1.92039 59 81 139 255 
-18.5769 -5.51639 1.73291 59 81 139 255 
-18.5649 -5.49135 1.55087 64 69 136 255 
-18.5729 -5.54351 1.39956 62 73 137 255 
-18.5877 -5.52999 1.2167 57 85 140 255 
-18.5557 -5.49952 1.03121 61 77 138 255 
-18.5471 -5.47906 0.847759 62 76 138 255 
-18.5882 -5.54102 0.697677 59 82 139 255 
-18.5516 -5.5122 0.513541 60 79 138 255 
-18.5544 -5.49561 0.331019 61 78 138 255 
-18.5413 -5.47032 0.151832 63 72 137 255 
-18.5475 -5.52537 -0.00337774 62 76 138 255 
-18.5582 -5.50713 -0.18583 58 83 139 255 
-18.5366 -5.48329 -0.364416 64 69 136 255 
-18.521 -5.45732 -0.546074 69 53 129 255 
-18.5142 -5.50492 -0.701507 65 68 135 255 
-18.5101 -5.48583 -0.880055 66 65 134 255 
-18.5004 -5.46906 -1.06169 69 53 129 255 
-18.4775 -5.44102 -1.24224 68 59 132 255 
-18.4711 -5.48861 -1.39815 67 61 132 255 
-18.4867 -5.47187 -1.57829 63 72 137 255 
-17.8899 -5.27841 -1.70406 71 19 101 255 
-15.6994 -4.62296 -1.65085 72 24 106 255 
-14.0208 -4.15823 -1.59388 72 37 118 255 
-12.6127 -3.73083 -1.55908 71 47 125 255 
-11.4244 -3.3686 -1.52579 69 53 129 255 
-10.4887 -3.08459 -1.50539 70 52 128 255 
-9.6541 -2.85769 -1.47058 66 64 134 255 
-8.95041 -2.64413 -1.45147 71 46 124 255 
-8.37017 -2.46644 -1.43989 68 59 132 255 
-7.81634 -2.29869 -1.42487 67 61 132 255 
-7.38616 -2.18076 -1.41346 63 72 137 255 
-6.98632 -2.05992 -1.40525 60 80 139 255 
-6.60772 -1.9471 -1.39775 61 77 138 255 
-6.26004 -1.84219 -1.3906 60 79 138 255 
-5.94736 -1.75258 -1.37569 59 81 139 255 
-5.66983 -1.66961 -1.3689 58 84 140 255 
-5.42133 -1.59545 -1.36613 62 73 137 255 
-5.148 -1.51689 -1.35403 61 77 138 255 
-4.9514 -1.4544 -1.34904 63 72 137 255 
-4.78831 -1.40639 -1.35404 69 55 129 255 
-4.58374 -1.34809 -1.3466 68 59 132 255 
-4.41164 -1.30159 -1.34764 70 50 126 255 
-18.6809 -5.44409 5.8451 62 76 138 255 
-18.6869 -5.46324 5.63053 63 72 137 255 
-18.6861 -5.47024 5.42521 61 77 138 255 
-18.6834 -5.46907 5.22721 62 74 137 255 
-18.6421 -5.44334 5.04057 61 78 138 255 
-18.6167 -5.43918 4.82852 62 74 137 255 
-18.6472 -5.44474 4.63864 60 79 138 255 
-18.6288 -5.43545 4.44446 68 59 132 255 
-18.652 -5.44975 4.28659 61 77 138 255 
-18.6216 -5.43708 4.07743 62 76 138 255 
-18.6238 -5.42731 3.88676 64 70 136 255 
-18.6142 -5.41712 3.69816 66 64 134 255 
-18.6174 -5.43966 3.53881 63 71 136 255 
-18.6161 -5.43196 3.34617 57 86 140 255 
-18.6091 -5.41599 3.15296 55 91 141 255 
-18.6007 -5.39564 2.97057 58 84 140 255 
-18.5926 -5.42889 2.81182 55 90 140 255 
-18.6101 -5.42668 2.62442 55 91 141 255 
-18.5986 -5.40239 2.43636 58 84 140 255 
-18.601 -5.38868 2.25783 60 79 138 255 
-18.5997 -5.43096 2.10153 58 84 140 255 
-18.5816 -5.40781 1.91458 61 77 138 255 
-18.5626 -5.38841 1.72846 61 77 138 255 
-18.5609 -5.36654 1.54775 64 70 136 255 
-18.5481 -5.41241 1.39517 62 74 137 255 
-18.5638 -5.39912 1.21294 57 85 140 255 
-18.5613 -5.3775 1.02967 62 74 137 255 
-18.5419 -5.35406 0.846008 60 79 138 255 
-18.5403 -5.40309 0.694621 59 81 139 255 
-18.5159 -5.37819 0.511631 61 77 138 255 
-18.5474 -5.36998 0.330301 60 79 138 255 
-18.5485 -5.34897 0.15162 61 77 138 255 
-18.5359 -5.39832 -0.00336953 60 80 139 255 
-18.5379 -5.37755 -0.185293 60 80 139 255 
-18.5305 -5.35806 -0.363643 62 74 137 255 
-18.4802 -5.32227 -0.543897 69 53 129 255 
-18.5016 -5.37782 -0.699765 64 69 136 255 
-18.4888 -5.35631 -0.877459 67 62 133 255 
-18.4952 -5.34436 -1.05949 68 57 131 255 
-18.5 -5.3245 -1.24153 68 57 131 255 
-18.4642 -5.36349 -1.39511 68 58 131 255 
-18.4864 -5.34863 -1.57543 63 71 136 255 
-17.8808 -5.15667 -1.70015 71 16 99 255 
-15.7763 -4.54058 -1.65597 72 26 108 255 
-14.0069 -4.06077 -1.58944 72 37 118 255 
-12.6086 -3.64565 -1.55578 71 47 125 255 
-11.4363 -3.29597 -1.52465 68 59 132 255 
-10.5169 -3.02291 -1.50675 68 58 131 255 
-9.66575 -2.79675 -1.46971 68 58 131 255 
-8.97311 -2.59108 -1.45254 67 61 132 255 
-8.36239 -2.40849 -1.43598 68 59 132 255 
-7.84829 -2.25586 -1.42814 66 63 133 255 
-7.40129 -2.13595 -1.41383 66 65 134 255 
-7.0177 -2.02246 -1.40904 61 77 138 255 
-6.61106 -1.90408 -1.39596 60 79 138 255 
-6.25431 -1.79888 -1.38685 60 79 138 255 
-5.95988 -1.71659 -1.37612 58 84 140 255 
-5.68652 -1.63667 -1.37048 62 73 137 255 
-5.43102 -1.56216 -1.36613 64 70 136 255 
-5.16373 -1.48715 -1.35574 65 68 135 255 
-4.97325 -1.42773 -1.35258 66 64 134 255 
-4.78108 -1.37246 -1.34959 68 59 132 255 
-4.58452 -1.31781 -1.34443 67 62 133 255 
-4.4094 -1.27157 -1.34455 70 52 128 255 
-18.6385 -5.30785 5.82151 65 66 135 255 
-18.6628 -5.33211 5.61331 62 74 137 255 
-18.6461 -5.33455 5.40401 62 73 137 255 
-18.6702 -5.34104 5.21424 62 74 137 255 
-18.6304 -5.3161 5.02852 62 74 137 255 
-18.6049 -5.31205 4.81693 62 73 137 255 
-18.6363 -5.31768 4.62773 61 78 138 255 
-18.6158 -5.30795 4.43352 68 59 132 255 
-18.6146 -5.3151 4.27043 63 71 136 255 
-18.6085 -5.30957 4.06735 66 63 133 255 
-18.619 -5.30219 3.8789 64 70 136 255 
-18.5989 -5.28911 3.6886 65 68 135 255 
-18.5937 -5.30911 3.52804 63 71 136 255 
-18.5894 -5.30061 3.33546 58 84 140 255 
-18.6031 -5.29064 3.14637 58 83 139 255 
-18.5812 -5.26658 2.96223 59 81 139 255 
-18.5951 -5.30601 2.80722 55 91 141 255 
-18.5935 -5.29826 2.61744 55 91 141 255 
-18.5551 -5.26649 2.42638 58 83 139 255 
-18.562 -5.25416 2.24915 60 79 138 255 
-18.5829 -5.30255 2.09592 55 90 140 255 
-18.5685 -5.28063 1.90986 59 81 139 255 
-18.5455 -5.26028 1.72382 62 73 137 255 
-18.5637 -5.24415 1.54528 65 66 135 255 
-18.5532 -5.29056 1.39308 61 78 138 255 
-18.5351 -5.26765 1.20893 60 79 138 255 
-18.5325 -5.2461 1.02626 62 73 137 255 
-18.536 -5.22934 0.844256 61 77 138 255 
-18.5365 -5.27883 0.693255 59 81 139 255 
-18.5217 -5.25684 0.510889 62 76 138 255 
-18.506 -5.23511 0.328984 62 76 138 255 
-18.5194 -5.2177 0.151117 61 78 138 255 
-18.5225 -5.27134 -0.00336116 59 81 139 255 
-18.5147 -5.24789 -0.184736 61 77 138 255 
-18.5149 -5.23066 -0.362701 62 73 137 255 
-18.474 -5.19795 -0.542767 68 58 131 255 
-18.5015 -5.25492 -0.698531 67 62 133 255 
-18.4809 -5.23133 -0.875546 66 63 133 255 
-18.4815 -5.21775 -1.05686 67 61 132 255 
-18.4718 -5.19387 -1.23748 66 63 133 255 
-18.4747 -5.24383 -1.39344 68 58 131 255 
-18.4287 -5.20962 -1.56776 66 65 134 255 
-17.9092 -5.04605 -1.69987 71 19 101 255 
-15.8067 -4.4445 -1.65627 72 24 106 255 
-14.0162 -3.97042 -1.58771 72 33 115 255 
-12.6317 -3.56848 -1.5559 70 50 126 255 
-11.4792 -3.23218 -1.5277 69 55 129 255 
-10.5153 -2.9527 -1.50389 70 52 128 255 
-9.65511 -2.72958 -1.46552 68 59 132 255 
-8.98599 -2.53517 -1.45208 66 65 134 255 
-8.4074 -2.36568 -1.44119 65 68 135 255 
-7.87336 -2.21085 -1.43021 66 63 133 255 
-7.39816 -2.08595 -1.41076 66 65 134 255 
-7.02714 -1.97856 -1.40847 58 83 139 255 
-6.61885 -1.86242 -1.39517 61 78 138 255 
-6.2577 -1.75835 -1.38518 62 73 137 255 
-5.99192 -1.68607 -1.38111 56 89 140 255 
-5.70678 -1.60465 -1.37297 62 76 138 255 
-5.4405 -1.5288 -1.36613 60 79 138 255 
-5.17556 -1.45623 -1.35648 65 66 135 255 
-4.96608 -1.39274 -1.34828 64 70 136 255 
-4.78569 -1.34205 -1.34854 68 57 131 255 
-4.57399 -1.28445 -1.339 69 56 130 255 
-4.41527 -1.24397 -1.34399 69 53 129 255 
-18.619 -5.17902 5.80539 62 74 137 255 
-18.6434 -5.20304 5.59775 61 78 138 255 
-18.6395 -5.20915 5.39274 61 78 138 255 
-18.6301 -5.20611 5.19402 62 76 138 255 
-18.6273 -5.19181 5.01897 61 77 138 255 
-18.6016 -5.18789 4.80775 62 76 138 255 
-18.6339 -5.19356 4.61913 59 82 139 255 
-18.6424 -5.19206 4.43218 64 70 136 255 
-18.6168 -5.19238 4.26354 63 72 137 255 
-18.6275 -5.19161 4.06447 62 76 138 255 
-18.5898 -5.17077 3.86613 61 78 138 255 
-18.5969 -5.16542 3.68186 63 71 136 255 
-18.5634 -5.17748 3.51619 66 65 134 255 
-18.594 -5.17878 3.33052 56 89 140 255 
-18.5733 -5.15922 3.13594 58 83 139 255 
-18.577 -5.14245 2.95647 58 84 140 255 
-18.5977 -5.18358 2.80277 52 97 141 255 
-18.5779 -5.17079 2.61074 55 90 140 255 
-18.5325 -5.13743 2.41926 58 83 139 255 
-18.5575 -5.13011 2.24474 61 78 138 255 
-18.5376 -5.16681 2.08718 59 82 139 255 
-18.5603 -5.15541 1.90572 60 79 138 255 
-18.5544 -5.14001 1.72169 62 74 137 255 
-18.535 -5.11344 1.54025 62 73 137 255 
-18.5171 -5.15762 1.38796 61 78 138 255 
-18.5257 -5.14234 1.20624 59 82 139 255 
-18.5104 -5.11739 1.02328 62 74 137 255 
-18.5147 -5.10091 0.841847 60 79 138 255 
-18.531 -5.15455 0.691853 57 85 140 255 
-18.515 -5.13241 0.509828 59 82 139 255 
-18.5156 -5.11534 0.32859 60 79 138 255 
-18.4778 -5.08381 0.15052 62 74 137 255 
-18.5121 -5.14581 -0.00335348 60 79 138 255 
-18.4859 -5.11738 -0.184131 62 76 138 255 
-18.4821 -5.09914 -0.361438 63 72 137 255 
-18.4747 -5.07603 -0.541862 69 55 129 255 
-18.467 -5.12286 -0.696027 64 70 136 255 
-18.4915 -5.11198 -0.874545 65 68 135 255 
-18.4487 -5.08647 -1.05318 68 57 131 255 
-18.4398 -5.06299 -1.23323 67 61 132 255 
-18.4566 -5.11651 -1.38968 69 53 129 255 
-18.4277 -5.08743 -1.56499 66 64 134 255 
-17.9312 -4.93369 -1.69906 71 14 97 255 
-15.827 -4.34558 -1.65557 72 22 104 255 
-14.0537 -3.88805 -1.58922 72 35 116 255 
-12.6582 -3.49223 -1.55649 71 45 123 255 
-11.4988 -3.16169 -1.5277 69 56 130 255 
-10.5389 -2.8897 -1.50471 69 53 129 255 
-9.65928 -2.66686 -1.46364 68 58 131 255 
-9.01281 -2.48313 -1.45393 67 61 132 255 
-8.4151 -2.31222 -1.44005 66 63 133 255 
-7.86303 -2.15599 -1.4259 66 64 134 255 
-7.41177 -2.04078 -1.41094 67 62 133 255 
-7.02211 -1.93072 -1.40506 61 77 138 255 
-6.62543 -1.82047 -1.39417 62 73 137 255 
-6.27969 -1.72303 -1.38769 66 64 134 255 
-5.98897 -1.64566 -1.37807 59 81 139 255 
-5.70242 -1.56573 -1.36958 61 77 138 255 
-5.43197 -1.49051 -1.36167 64 70 136 255 
-5.1872 -1.42521 -1.35721 62 73 137 255 
-4.94747 -1.35484 -1.34095 67 62 133 255 
-4.79756 -1.31368 -1.34959 68 58 131 255 
-4.59107 -1.2589 -1.34171 68 59 132 255 
-4.41357 -1.21431 -1.34118 70 50 126 255 
-18.6227 -5.05715 5.79676 61 78 138 255 
-18.6462 -5.08072 5.58914 60 80 139 255 
-18.6182 -5.08022 5.37744 59 81 139 255 
-18.6235 -5.08128 5.18338 62 73 137 255 
-18.6233 -5.06776 5.00942 59 82 139 255 
-18.5985 -5.06422 4.79881 62 76 138 255 
-18.6298 -5.06943 4.61031 60 80 139 255 
-18.5996 -5.05737 4.41455 68 57 131 255 
-18.5965 -5.06394 4.25169 62 76 138 255 
-18.591 -5.05871 4.04966 60 79 138 255 
-18.5738 -5.04376 3.8563 63 72 137 255 
-18.5685 -5.03502 3.67005 64 69 136 255 
-18.5435 -5.04953 3.5065 66 64 134 255 
-18.5722 -5.05011 3.321 55 90 140 255 
-18.5618 -5.03354 3.12871 58 84 140 255 
-18.5757 -5.0196 2.95131 58 84 140 255 
-18.5404 -5.0452 2.78941 55 91 141 255 
-18.5605 -5.04345 2.60389 56 88 140 255 
-18.5264 -5.01352 2.4144 56 88 140 255 
-18.5273 -4.99958 2.23733 58 83 139 255 
-18.5411 -5.04539 2.08406 59 82 139 255 
-18.5512 -5.03049 1.90159 61 77 138 255 
-18.575 -5.0232 1.72071 61 77 138 255 
-18.5169 -4.9864 1.53617 62 73 137 255 
-18.5089 -5.03318 1.38501 63 72 137 255 
-18.5194 -5.01839 1.2038 59 81 139 255 
-18.501 -4.99279 1.02105 62 76 138 255 
-18.5003 -4.97502 0.839789 60 79 138 255 
-18.5112 -5.02686 0.689948 58 84 140 255 
-18.5134 -5.00983 0.508926 60 80 139 255 
-18.4887 -4.98601 0.327564 62 74 137 255 
-18.4671 -4.95918 0.150182 60 79 138 255 
-18.4825 -5.01562 -0.00334248 59 82 139 255 
-18.4918 -4.99707 -0.183882 62 76 138 255 
-18.4686 -4.97369 -0.360571 64 70 136 255 
-18.4524 -4.94833 -0.540307 70 51 127 255 
-18.4566 -4.99822 -0.694466 64 69 136 255 
-18.4656 -4.98307 -0.871858 66 63 133 255 
-18.4641 -4.96902 -1.0523 66 65 134 255 
-18.4445 -4.94278 -1.23149 69 55 129 255 
-18.425 -4.98624 -1.38498 68 58 131 255 
-18.4393 -4.96907 -1.56336 65 68 135 255 
-17.9496 -4.82047 -1.69796 71 14 97 255 
-15.837 -4.24401 -1.65386 72 23 105 255 
-14.0764 -3.80149 -1.58912 72 41 121 255 
-12.6669 -3.41114 -1.55496 71 45 123 255 
-11.4979 -3.08567 -1.52503 71 46 124 255 
-10.5583 -2.82549 -1.50498 70 52 128 255 
-9.68884 -2.61115 -1.46567 68 57 131 255 
-9.03264 -2.42907 -1.45469 68 58 131 255 
-8.43104 -2.26105 -1.44037 64 70 136 255 
-7.87326 -2.10694 -1.42539 65 68 135 255 
-7.44505 -2.00088 -1.41491 66 63 133 255 
-7.03003 -1.88658 -1.40431 59 82 139 255 
-6.62985 -1.77801 -1.39278 66 65 134 255 
-6.2977 -1.68649 -1.38935 65 68 135 255 
-6.01404 -1.61292 -1.38154 58 84 140 255 
-5.68934 -1.52466 -1.36417 63 72 137 255 
-5.42223 -1.45212 -1.35697 63 72 137 255 
-5.19304 -1.3926 -1.35648 63 71 136 255 
-5.01177 -1.33944 -1.35612 66 63 133 255 
-4.81672 -1.28721 -1.35273 68 57 131 255 
-4.60521 -1.23245 -1.34361 68 58 131 255 
-4.40147 -1.18198 -1.33527 69 53 129 255 
-18.6173 -4.93322 5.78554 61 78 138 255 
-18.6251 -4.95239 5.57358 61 78 138 255 
-18.6043 -4.95399 5.36455 62 76 138 255 
-18.602 -4.953 5.16886 61 78 138 255 
-18.5932 -4.93725 4.99309 59 81 139 255 
-18.5917 -4.94004 4.78914 60 79 138 255 
-18.5985 -4.93855 4.59498 61 78 138 255 
-18.5823 -4.9304 4.40316 66 65 134 255 
-18.5791 -4.93695 4.2407 60 79 138 255 
-18.5593 -4.92797 4.03608 61 78 138 255 
-18.5665 -4.91965 3.84845 63 72 137 255 
-18.562 -4.91119 3.66274 63 72 137 255 
-18.5551 -4.9306 3.50291 62 76 138 255 
-18.5438 -4.92039 3.31046 56 88 140 255 
-18.5666 -4.91273 3.12438 55 91 141 255 
-18.5354 -4.88688 2.94009 56 89 140 255 
-18.5308 -4.92068 2.78337 58 83 139 255 
-18.5451 -4.91728 2.59746 55 91 141 255 
-18.528 -4.89215 2.41065 58 83 139 255 
-18.5375 -4.8805 2.2349 61 77 138 255 
-18.5246 -4.91903 2.07877 58 84 140 255 
-18.5336 -4.90384 1.89667 62 76 138 255 
-18.5284 -4.8888 1.71358 61 78 138 255 
-18.4768 -4.8542 1.53034 64 69 136 255 
-18.497 -4.90826 1.38184 59 82 139 255 
-18.4967 -4.89063 1.20036 58 84 140 255 
-18.4752 -4.86443 1.01796 62 74 137 255 
-18.4977 -4.85279 0.8383 61 77 138 255 
-18.4992 -4.90192 0.688367 57 86 140 255 
-18.4645 -4.87521 0.506751 61 78 138 255 
-18.4715 -4.86001 0.326726 60 80 139 255 
-18.4353 -4.82956 0.14968 64 69 136 255 
-18.4743 -4.89188 -0.0033355 61 77 138 255 
-18.4931 -4.87587 -0.183594 58 83 139 255 
-18.4524 -4.84808 -0.359666 60 79 138 255 
-18.4292 -4.8211 -0.538752 69 53 129 255 
-18.4357 -4.87135 -0.692542 65 66 135 255 
-18.4466 -4.8567 -0.869536 66 64 134 255 
-18.4469 -4.84321 -1.0496 66 63 133 255 
-18.3944 -4.80856 -1.22615 68 59 132 255 
-18.4023 -4.85908 -1.381 68 59 132 255 
-18.3952 -4.83632 -1.55708 65 68 135 255 
-17.9307 -4.69763 -1.69341 71 16 99 255 
-15.8425 -4.14147 -1.65175 72 23 105 255 
-14.0898 -3.71251 -1.58803 72 41 121 255 
-12.6357 -3.31973 -1.5486 71 44 122 255 
-11.5377 -3.02059 -1.52782 71 47 125 255 
-10.5697 -2.75915 -1.50416 69 53 129 255 
-9.71138 -2.55341 -1.46668 70 50 126 255 
-9.03113 -2.36934 -1.45208 66 64 134 255 
-8.43425 -2.20653 -1.43858 67 62 133 255 
-7.89652 -2.06133 -1.42728 66 65 134 255 
-7.44101 -1.95092 -1.41184 64 70 136 255 
-7.06047 -1.84838 -1.40809 59 82 139 255 
-6.65391 -1.74077 -1.39556 64 70 136 255 
-6.31361 -1.6493 -1.3906 61 77 138 255 
-6.01533 -1.57377 -1.37959 59 82 139 255 
-5.70424 -1.4912 -1.36552 59 81 139 255 
-5.44327 -1.42201 -1.36002 64 70 136 255 
-5.17428 -1.3536 -1.34938 65 66 135 255 
-4.96279 -1.29378 -1.3407 68 57 131 255 
-4.81425 -1.25495 -1.34985 69 56 130 255 
-4.62386 -1.20709 -1.34687 68 59 132 255 
-4.39472 -1.1513 -1.33106 69 56 130 255 
-18.5906 -4.80427 5.76799 62 74 137 255 
-18.603 -4.82451 5.55802 60 80 139 255 
-18.5896 -4.82812 5.35167 61 77 138 255 
-18.5872 -4.82711 5.15641 59 81 139 255 
-18.5848 -4.81312 4.98279 61 78 138 255 
-18.5794 -4.81492 4.77827 60 79 138 255 
-18.5842 -4.81287 4.58406 57 85 140 255 
-18.5508 -4.80041 4.38865 64 69 136 255 
-18.5627 -4.81086 4.23015 64 69 136 255 
-18.5532 -4.80468 4.02827 62 73 137 255 
-18.5498 -4.79362 3.83882 62 76 138 255 
-18.5566 -4.78812 3.65581 64 70 136 255 
-18.5469 -4.80678 3.49573 60 79 138 255 
-18.5279 -4.79466 3.3023 55 91 141 255 
-18.5323 -4.78219 3.11362 56 89 140 255 
-18.5287 -4.7637 2.93433 56 89 140 255 
-18.5453 -4.80291 2.78107 54 92 141 255 
-18.5318 -4.79223 2.59142 57 85 140 255 
-18.5163 -4.76773 2.40529 56 89 140 255 
-18.5122 -4.75258 2.2283 59 82 139 255 
-18.514 -4.79481 2.07425 56 88 140 255 
-18.5104 -4.77635 1.89125 59 82 139 255 
-18.5108 -4.76286 1.70922 59 81 139 255 
-18.484 -4.73505 1.52851 62 73 137 255 
-18.5017 -4.78817 1.37997 60 79 138 255 
-18.4849 -4.76633 1.19766 58 83 139 255 
-18.4844 -4.74576 1.01685 62 76 138 255 
-18.4642 -4.72311 0.835453 59 82 139 255 
-18.468 -4.77257 0.686102 61 77 138 255 
-18.4602 -4.7531 0.505822 61 78 138 255 
-18.472 -4.73913 0.326213 59 82 139 255 
-18.4588 -4.71487 0.149633 62 74 137 255 
-18.4623 -4.76768 -0.00332799 59 81 139 255 
-18.4559 -4.74512 -0.182931 62 76 138 255 
-18.444 -4.72509 -0.358931 62 74 137 255 
-18.4294 -4.70052 -0.537904 69 53 129 255 
-18.4401 -4.75165 -0.691599 66 65 134 255 
-18.4209 -4.72926 -0.86694 66 63 133 255 
-18.4289 -4.7178 -1.04691 67 62 133 255 
-18.381 -4.68476 -1.22332 68 58 131 255 
-18.4124 -4.7411 -1.37955 68 59 132 255 
-18.4033 -4.71792 -1.55528 64 70 136 255 
-17.9263 -4.57914 -1.69032 70 11 94 255 
-15.8185 -4.03165 -1.64663 72 20 103 255 
-14.0806 -3.61783 -1.58446 72 35 116 255 
-12.652 -3.24115 -1.54813 72 41 121 255 
-11.5656 -2.9522 -1.5291 70 48 126 255 
-10.5913 -2.69547 -1.50484 70 50 126 255 
-9.74891 -2.49943 -1.47 70 52 128 255 
-9.0455 -2.31388 -1.45208 66 63 133 255 
-8.45719 -2.15718 -1.44021 66 65 134 255 
-7.90711 -2.01235 -1.42694 66 64 134 255 
-7.45379 -1.90547 -1.41202 59 81 139 255 
-7.0536 -1.80041 -1.40449 59 82 139 255 
-6.66351 -1.69966 -1.39536 64 70 136 255 
-6.29423 -1.60304 -1.38414 62 76 138 255 
-6.02771 -1.53755 -1.38024 61 78 138 255 
-5.73028 -1.4605 -1.36958 60 80 139 255 
-5.45283 -1.38883 -1.36026 65 66 135 255 
-5.22101 -1.33165 -1.35941 64 70 136 255 
-4.98282 -1.2664 -1.34398 67 61 132 255 
-4.77696 -1.21398 -1.33728 67 62 133 255 
-4.64238 -1.18154 -1.35012 67 61 132 255 
-4.41844 -1.12859 -1.33612 70 48 126 255 
-18.6095 -4.68754 5.76483 63 71 136 255 
-18.6109 -4.70486 5.55163 61 78 138 255 
-18.5908 -4.70687 5.34362 59 81 139 255 
-18.5884 -4.70586 5.14863 61 77 138 255 
-18.5473 -4.68218 4.96496 60 79 138 255 
-18.5851 -4.69488 4.77223 59 82 139 255 
-18.5936 -4.69375 4.57918 58 84 140 255 
-18.5591 -4.68125 4.38374 64 69 136 255 
-18.5587 -4.6885 4.22261 64 69 136 255 
-18.5709 -4.68787 4.0258 61 77 138 255 
-18.5722 -4.67803 3.83744 60 80 139 255 
-18.5333 -4.661 3.6455 66 64 134 255 
-18.5503 -4.68638 3.49088 60 80 139 255 
-18.5369 -4.67583 3.29873 57 85 140 255 
-18.5527 -4.66622 3.11217 55 90 140 255 
-18.5269 -4.64223 2.92948 57 85 140 255 
-18.515 -4.67401 2.77217 53 94 141 255 
-18.5195 -4.66802 2.58565 53 94 141 255 
-18.5433 -4.65354 2.40504 55 91 141 255 
-18.5121 -4.63167 2.22483 58 83 139 255 
-18.5171 -4.67455 2.07133 56 89 140 255 
-18.5065 -4.65443 1.8879 58 83 139 255 
-18.5107 -4.64192 1.70655 62 73 137 255 
-18.4895 -4.61575 1.52659 63 71 136 255 
-18.493 -4.66504 1.37716 59 82 139 255 
-18.4866 -4.64601 1.19591 59 82 139 255 
-18.4735 -4.62231 1.01467 65 66 135 255 
-18.4851 -4.60779 0.835103 59 82 139 255 
-18.4678 -4.65184 0.685024 60 80 139 255 
-18.4367 -4.6266 0.50439 60 80 139 255 
-18.4638 -4.61648 0.325563 59 82 139 255 
-18.465 -4.59596 0.149452 61 78 138 255 
-18.4699 -4.64894 -0.00332415 58 83 139 255 
-18.4526 -4.62377 -0.182614 61 78 138 255 
-18.4406 -4.60383 -0.358309 62 73 137 255 
-18.4288 -4.58012 -0.537056 69 56 130 255 
-18.433 -4.62941 -0.690256 64 69 136 255 
-18.4311 -4.61154 -0.866075 66 65 134 255 
-18.4285 -4.59738 -1.04526 67 62 133 255 
-18.4171 -4.57381 -1.22383 69 53 129 255 
-18.3908 -4.61541 -1.37579 67 62 133 255 
-18.4039 -4.5979 -1.55291 66 64 134 255 
-17.956 -4.46954 -1.6905 71 16 99 255 
-15.8545 -3.9374 -1.64784 72 23 105 255 
-14.0909 -3.52846 -1.58316 72 35 116 255 
-12.6842 -3.16658 -1.54966 71 46 124 255 
-11.5874 -2.88213 -1.5296 70 51 127 255 
-10.6326 -2.63663 -1.50839 68 58 131 255 
-9.75926 -2.43836 -1.46928 70 52 128 255 
-9.06432 -2.25953 -1.45285 65 68 135 255 
-8.45782 -2.10215 -1.4381 66 63 133 255 
-7.91453 -1.96261 -1.42608 63 72 137 255 
-7.45676 -1.85756 -1.4104 61 78 138 255 
-7.03879 -1.7507 -1.39938 62 76 138 255 
-6.66811 -1.65733 -1.39417 62 76 138 255 
-6.28306 -1.55921 -1.37956 65 66 135 255 
-6.0304 -1.49889 -1.37872 60 79 138 255 
-5.73251 -1.42367 -1.368 60 79 138 255 
-5.46219 -1.35558 -1.36049 63 71 136 255 
-5.2272 -1.29912 -1.35892 65 68 135 255 
-4.99426 -1.23673 -1.345 69 55 129 255 
-4.78245 -1.18418 -1.33676 66 64 134 255 
-4.62525 -1.14701 -1.34307 68 57 131 255 
-4.45694 -1.10934 -1.34568 69 53 129 255 
-18.8007 -4.6132 5.81518 67 61 132 255 
-18.7877 -4.6271 5.5958 66 64 134 255 
-18.7092 -4.61486 5.36938 65 68 135 255 
-18.6516 -4.60027 5.15823 66 64 134 255 
-18.7703 -4.61613 5.01696 64 70 136 255 
-18.72 -4.60696 4.79953 65 66 135 255 
-18.6579 -4.5884 4.58801 64 69 136 255 
-18.6888 -4.59218 4.40763 69 55 129 255 
-18.6867 -4.59904 4.24523 68 59 132 255 
-18.6583 -4.58832 4.03855 68 59 132 255 
-18.6606 -4.57871 3.84982 68 57 131 255 
-18.6293 -4.56378 3.65881 69 55 129 255 
-18.5979 -4.57717 3.49447 65 68 135 255 
-18.6035 -4.5714 3.30553 62 73 137 255 
-18.628 -4.56381 3.12004 63 71 136 255 
-18.5819 -4.53503 2.93373 65 68 135 255 
-18.5222 -4.55512 2.76901 61 77 138 255 
-18.5574 -4.55666 2.58699 62 76 138 255 
-18.5735 -4.54015 2.40529 61 78 138 255 
-18.5749 -4.52646 2.229 65 66 135 255 
-18.5541 -4.56298 2.0723 59 81 139 255 
-18.5241 -4.53819 1.88682 65 68 135 255 
-18.5679 -4.53535 1.70922 65 66 135 255 
-18.594 -4.52081 1.5329 68 59 132 255 
-18.53 -4.55363 1.37781 63 72 137 255 
-18.5041 -4.52988 1.19522 64 70 136 255 
-18.4947 -4.50722 1.01429 67 61 132 255 
-18.5334 -4.49923 0.836023 68 59 132 255 
-18.4708 -4.53224 0.684089 59 81 139 255 
-18.488 -4.51909 0.505026 61 78 138 255 
-18.485 -4.50144 0.325443 66 63 133 255 
-18.5055 -4.48564 0.149554 64 70 136 255 
-18.4087 -4.51362 -0.0033081 62 76 138 255 
-18.4097 -4.49315 -0.181914 63 72 137 255 
-18.451 -4.48635 -0.35797 64 70 136 255 
-18.475 -4.47142 -0.537593 71 47 125 255 
-18.4407 -4.51124 -0.689494 66 65 134 255 
-18.4338 -4.49221 -0.864891 68 57 131 255 
-18.4476 -4.4821 -1.04477 70 52 128 255 
-18.4264 -4.45627 -1.22261 70 48 126 255 
-18.3898 -4.49538 -1.37361 69 56 130 255 
-18.1916 -4.42645 -1.53268 72 41 121 255 
-17.9686 -4.35576 -1.68914 71 16 99 255 
-15.9045 -3.84635 -1.65055 72 23 105 255 
-14.122 -3.44429 -1.58424 72 36 117 255 
-12.6783 -3.08259 -1.5466 70 48 126 255 
-11.5942 -2.80841 -1.52821 69 53 129 255 
-10.637 -2.56855 -1.50675 70 51 127 255 
-9.8 -2.38475 -1.47318 69 55 129 255 
-9.07993 -2.20433 -1.45316 67 62 133 255 
-8.44946 -2.04511 -1.43451 66 65 134 255 
-7.9178 -1.91193 -1.42453 65 68 135 255 
-7.46132 -1.81015 -1.40913 61 77 138 255 
-7.02363 -1.70123 -1.39427 64 70 136 255 
-6.66386 -1.61292 -1.39119 64 70 136 255 
-6.29251 -1.52063 -1.37956 65 68 135 255 
-6.03853 -1.46163 -1.37851 65 68 135 255 
-5.76197 -1.39351 -1.37297 62 76 138 255 
-5.45624 -1.31861 -1.35697 63 72 137 255 
-5.22188 -1.26383 -1.3555 66 64 134 255 
-5.01304 -1.20879 -1.34803 69 56 130 255 
-4.81496 -1.16092 -1.34383 69 55 129 255 
-4.63501 -1.11929 -1.34388 69 55 129 255 
-4.45993 -1.08106 -1.34455 69 55 129 255 
-18.8715 -4.50799 5.82841 72 29 111 255 
-18.8792 -4.52697 5.6147 71 46 124 255 
-18.9029 -4.53979 5.41689 70 52 128 255 
-18.9311 -4.54618 5.22773 66 65 134 255 
-18.8829 -4.52116 5.03957 70 50 126 255 
-18.9197 -4.53316 4.8435 66 65 134 255 
-18.8862 -4.52185 4.63725 68 59 132 255 
-18.8768 -4.51574 4.44536 63 71 136 255 
-18.8513 -4.51706 4.27625 67 61 132 255 
-18.8593 -4.51522 4.07599 65 68 135 255 
-18.8714 -4.50786 3.88754 65 68 135 255 
-18.8729 -4.50089 3.70116 69 56 130 255 
-18.727 -4.48727 3.5135 65 66 135 255 
-18.7443 -4.48422 3.32559 64 70 136 255 
-18.7103 -4.46248 3.12919 64 69 136 255 
-18.7392 -4.45177 2.95419 65 68 135 255 
-18.722 -4.48263 2.79472 63 71 136 255 
-18.6959 -4.4692 2.60242 63 71 136 255 
-18.6946 -4.44838 2.41739 63 71 136 255 
-18.7038 -4.43647 2.24115 66 63 133 255 
-18.7094 -4.4796 2.08654 62 73 137 255 
-18.6881 -4.45699 1.9007 66 65 134 255 
-18.6922 -4.44437 1.71812 66 64 134 255 
-18.6767 -4.41972 1.53745 66 64 134 255 
-18.6672 -4.46607 1.38595 66 64 134 255 
-18.6811 -4.45188 1.20486 61 77 138 255 
-18.6619 -4.42684 1.02195 68 59 132 255 
-18.7211 -4.42333 0.843249 68 58 131 255 
-18.7325 -4.47478 0.692752 58 84 140 255 
-18.7079 -4.45138 0.510279 62 74 137 255 
-18.7185 -4.43682 0.329069 64 70 136 255 
-18.6962 -4.41058 0.150873 68 58 131 255 
-18.687 -4.46048 -0.00335313 60 79 138 255 
-18.6987 -4.44228 -0.184496 61 78 138 255 
-18.703 -4.42624 -0.362324 63 72 137 255 
-18.6986 -4.40427 -0.543304 67 62 133 255 
-18.6255 -4.43551 -0.695374 65 66 135 255 
-18.6768 -4.4302 -0.875 63 72 137 255 
-18.6448 -4.40903 -1.05438 66 64 134 255 
-18.6555 -4.39067 -1.236 69 55 129 255 
-18.5946 -4.42471 -1.38686 71 42 122 255 
-18.2213 -4.31544 -1.53292 72 36 117 255 
-17.9756 -4.24085 -1.68732 71 17 100 255 
-15.8929 -3.74049 -1.64694 72 24 106 255 
-14.1651 -3.36286 -1.58673 72 40 120 255 
-12.6912 -3.00337 -1.54589 71 45 123 255 
-11.5842 -2.73084 -1.52465 70 51 127 255 
-10.6323 -2.49847 -1.50389 71 47 125 255 
-9.80385 -2.32207 -1.47159 71 45 123 255 
-9.08175 -2.14585 -1.45131 68 59 132 255 
-8.44937 -1.99028 -1.4324 63 71 136 255 
-7.92843 -1.86309 -1.42435 66 64 134 255 
-7.47038 -1.76388 -1.40877 58 83 139 255 
-7.05401 -1.66284 -1.39824 60 79 138 255 
-6.66791 -1.57066 -1.39 61 78 138 255 
-6.31029 -1.484 -1.38143 66 64 134 255 
-6.04358 -1.42366 -1.37764 62 74 137 255 
-5.77136 -1.35835 -1.37319 59 81 139 255 
-5.45287 -1.28244 -1.35415 65 68 135 255 
-5.23143 -1.23221 -1.35599 63 72 137 255 
-4.99022 -1.17093 -1.33994 67 61 132 255 
-4.83608 -1.13466 -1.34775 68 58 131 255 
-4.63242 -1.08863 -1.34117 70 51 127 255 
-4.44687 -1.04905 -1.33865 70 52 128 255 
-18.9306 -4.39949 5.83819 71 14 97 255 
-18.9731 -4.42654 5.63442 71 17 100 255 
-18.9773 -4.43468 5.43031 71 16 99 255 
-18.9662 -4.43169 5.2298 71 17 100 255 
-18.9169 -4.40675 5.04133 71 19 101 255 
-18.932 -4.41347 4.83964 71 19 101 255 
-18.9345 -4.41073 4.64236 71 17 100 255 
-18.889 -4.3963 4.44178 71 17 100 255 
-18.854 -4.39554 4.27064 70 7 90 255 
-18.8685 -4.3952 4.07208 70 7 90 255 
-18.893 -4.39065 3.88636 70 7 90 255 
-18.8647 -4.37679 3.69422 70 7 90 255 
-18.7523 -4.37183 3.51314 62 73 137 255 
-18.7177 -4.35662 3.31607 62 76 138 255 
-18.7172 -4.3429 3.12582 64 70 136 255 
-18.7277 -4.3278 2.94813 64 69 136 255 
-18.7097 -4.35847 2.78883 62 73 137 255 
-18.7152 -4.3526 2.60135 62 73 137 255 
-18.6954 -4.32754 2.41402 66 63 133 255 
-18.7172 -4.3185 2.23953 66 63 133 255 
-18.7162 -4.35998 2.08427 65 68 135 255 
-18.7083 -4.34067 1.90001 62 76 138 255 
-18.692 -4.32331 1.71563 64 69 136 255 
-18.6772 -4.299 1.53529 66 64 134 255 
-18.6865 -4.34963 1.38537 63 71 136 255 
-18.6974 -4.3347 1.20417 59 82 139 255 
-18.6751 -4.30911 1.02121 63 72 137 255 
-19.076 -4.38378 0.858007 71 14 97 255 
-19.0438 -4.42581 0.703248 71 16 99 255 
-19.1722 -4.43772 0.522189 71 17 100 255 
-19.0991 -4.40343 0.335278 71 17 100 255 
-19.105 -4.38344 0.153952 71 13 96 255 
-18.9469 -4.39979 -0.00339484 71 14 97 255 
-18.9838 -4.38713 -0.18704 71 14 97 255 
-18.9724 -4.36724 -0.367017 71 14 97 255 
-18.7399 -4.2928 -0.543728 70 11 94 255 
-18.6845 -4.32858 -0.696571 71 14 97 255 
-18.6871 -4.3117 -0.874226 71 14 97 255 
-18.6394 -4.28716 -1.05257 70 11 94 255 
-18.6626 -4.27167 -1.23471 70 11 94 255 
-18.6282 -4.3121 -1.38736 71 44 122 255 
-18.1086 -4.17156 -1.52126 72 38 119 255 
-17.9615 -4.12135 -1.68359 71 16 99 255 
-15.8981 -3.63891 -1.64513 72 28 110 255 
-14.1302 -3.26313 -1.58056 72 33 115 255 
-12.7287 -2.9299 -1.54825 71 44 122 255 
-11.5795 -2.65484 -1.52185 70 48 126 255 
-10.6523 -2.43429 -1.50457 71 42 122 255 
-9.81117 -2.26031 -1.47058 71 45 123 255 
-9.088 -2.08854 -1.45024 67 61 132 255 
-8.47296 -1.94105 -1.43435 66 64 134 255 
-7.96756 -1.82077 -1.42935 63 71 136 255 
-7.48489 -1.71889 -1.40949 62 73 137 255 
-7.06599 -1.61996 -1.39862 64 69 136 255 
-6.66787 -1.52752 -1.38801 61 77 138 255 
-6.31737 -1.44482 -1.38102 66 65 134 255 
-6.05221 -1.38655 -1.37764 62 73 137 255 
-5.77769 -1.32248 -1.37274 60 79 138 255 
-5.46064 -1.24896 -1.35415 63 71 136 255 
-5.23511 -1.19922 -1.35501 64 69 136 255 
-5.01146 -1.14352 -1.34373 65 66 135 255 
-4.83731 -1.10368 -1.34618 68 58 131 255 
-4.64182 -1.06083 -1.34198 68 59 132 255 
-4.44293 -1.01938 -1.33555 70 50 126 255 
-18.9152 -4.27375 5.82525 71 19 101 255 
-18.9596 -4.3009 5.62247 71 19 101 255 
-18.9084 -4.29639 5.40294 71 17 100 255 
-18.9723 -4.31053 5.2241 71 19 101 255 
-18.8775 -4.27562 5.02374 71 17 100 255 
-18.9379 -4.2925 4.83432 71 19 101 255 
-18.9773 -4.29812 4.64631 72 22 104 255 
-18.9327 -4.28419 4.4458 70 10 93 255 
-18.9282 -4.29057 4.28142 70 10 93 255 
-18.9104 -4.2828 4.07537 70 10 93 255 
-18.9521 -4.28199 3.89304 70 8 92 255 
-18.9228 -4.26809 3.70041 70 7 90 255 
-18.7116 -4.24147 3.50058 62 74 137 255 
-18.7066 -4.2332 3.30944 61 77 138 255 
-18.7088 -4.22015 3.12004 62 74 137 255 
-18.6844 -4.19721 2.93721 64 70 136 255 
-18.7004 -4.2355 2.78352 62 73 137 255 
-18.7271 -4.23441 2.59933 64 70 136 255 
-18.71 -4.21014 2.41252 64 70 136 255 
-18.6939 -4.19249 2.23363 66 63 133 255 
-18.6902 -4.2332 2.07845 62 73 137 255 
-18.7074 -4.21966 1.89726 61 78 138 255 
-18.655 -4.19433 1.70984 63 72 137 255 
-18.6653 -4.17583 1.53218 64 69 136 255 
-18.6652 -4.22411 1.38184 65 66 135 255 
-18.6681 -4.20738 1.20061 62 76 138 255 
-18.6915 -4.19226 1.02068 62 74 137 255 
-19.4467 -4.34353 0.873466 71 16 99 255 
-19.4079 -4.38509 0.715686 71 14 97 255 
-19.3492 -4.3538 0.526274 71 17 100 255 
-19.3677 -4.34038 0.339519 70 11 94 255 
-19.398 -4.32555 0.156096 71 13 96 255 
-19.2086 -4.33653 -0.0034369 71 13 96 255 
-19.2991 -4.33544 -0.189881 71 14 97 255 
-19.4389 -4.3492 -0.375517 71 13 96 255 
-18.6215 -4.14559 -0.539544 70 10 93 255 
-18.6659 -4.20375 -0.694902 70 10 93 255 
-18.645 -4.18166 -0.871038 70 11 94 255 
-18.6546 -4.17032 -1.05197 71 13 96 255 
-18.6602 -4.15079 -1.23284 70 10 93 255 
-18.5871 -4.18261 -1.38237 72 40 120 255 
-18.1134 -4.05579 -1.51954 72 41 121 255 
-17.9962 -4.01323 -1.6845 71 17 100 255 
-15.9182 -3.54086 -1.64493 72 29 111 255 
-14.15 -3.17637 -1.58056 72 36 117 255 
-12.7251 -2.84697 -1.54566 72 41 121 255 
-11.5549 -2.57468 -1.51652 70 52 128 255 
-10.6274 -2.36008 -1.49898 72 37 118 255 
-9.79685 -2.1938 -1.46639 71 46 124 255 
-9.091 -2.03058 -1.4487 66 63 133 255 
-8.47123 -1.88602 -1.43207 66 65 134 255 
-7.96319 -1.76843 -1.42659 65 68 135 255 
-7.4857 -1.67079 -1.40769 61 77 138 255 
-7.0643 -1.57401 -1.39635 62 74 137 255 
-6.67042 -1.48509 -1.38661 62 74 137 255 
-6.34235 -1.40964 -1.38456 63 72 137 255 
-6.06251 -1.34981 -1.37807 63 71 136 255 
-5.77809 -1.28531 -1.37094 60 79 138 255 
-5.47958 -1.21796 -1.35697 66 65 134 255 
-5.22438 -1.16307 -1.35036 65 66 135 255 
-5.05144 -1.12008 -1.35258 67 62 133 255 
-4.81572 -1.06771 -1.33833 67 62 133 255 
-4.65107 -1.03295 -1.3428 68 59 132 255 
-4.46784 -0.996282 -1.34118 70 48 126 255 
-18.956 -4.16089 5.82985 71 19 101 255 
-18.905 -4.1667 5.59858 72 20 103 255 
-18.9014 -4.17302 5.39354 71 16 99 255 
-18.9579 -4.18508 5.21295 71 19 101 255 
-18.8769 -4.15389 5.01671 71 17 100 255 
-18.9298 -4.1687 4.82562 72 23 105 255 
-18.9606 -4.17219 4.63585 71 17 100 255 
-18.8615 -4.14659 4.42303 70 8 92 255 
-18.8683 -4.15544 4.26203 70 10 93 255 
-18.9344 -4.16627 4.07496 70 8 92 255 
-18.9867 -4.16751 3.89481 69 5 89 255 
-18.8009 -4.11952 3.67155 70 10 93 255 
-18.7113 -4.12086 3.49573 63 72 137 255 
-18.7226 -4.11623 3.30774 60 80 139 255 
-18.6987 -4.09746 3.1141 63 72 137 255 
-18.6789 -4.07574 2.93236 66 65 134 255 
-18.7163 -4.11855 2.78208 61 77 138 255 
-18.6869 -4.10497 2.59021 63 71 136 255 
-18.6783 -4.08275 2.40516 64 69 136 255 
-18.6775 -4.06861 2.22865 64 69 136 255 
-18.6547 -4.10498 2.07166 62 74 137 255 
-18.6765 -4.09244 1.89155 64 70 136 255 
-18.6463 -4.07235 1.70672 64 70 136 255 
-18.6409 -4.05043 1.52811 66 64 134 255 
-18.6576 -4.10222 1.37939 62 76 138 255 
-18.6487 -4.08294 1.19773 60 79 138 255 
-18.6846 -4.07047 1.01892 60 79 138 255 
-19.7893 -4.29274 0.887656 71 13 96 255 
-19.7039 -4.32505 0.725607 71 16 99 255 
-19.7701 -4.32123 0.53699 71 16 99 255 
-19.7799 -4.30546 0.346275 71 13 96 255 
-19.7818 -4.2839 0.158971 71 17 100 255 
-19.6822 -4.3167 -0.00351684 71 14 97 255 
-19.6849 -4.29539 -0.193414 70 11 94 255 
-19.7729 -4.29672 -0.381455 70 11 94 255 
-18.6143 -4.02428 -0.538611 70 10 93 255 
-18.6698 -4.08444 -0.694103 71 14 97 255 
-18.5912 -4.04995 -0.86735 71 16 99 255 
-18.6389 -4.04688 -1.04966 70 11 94 255 
-18.6639 -4.03158 -1.23143 70 10 93 255 
-18.5959 -4.06487 -1.38114 72 40 120 255 
-18.0951 -3.93526 -1.51595 72 35 116 255 
-17.962 -3.89008 -1.67904 71 14 97 255 
-15.8852 -3.43135 -1.63931 72 24 106 255 
-14.1265 -3.08017 -1.57579 72 31 112 255 
-12.6977 -2.75914 -1.54024 71 45 123 255 
-11.6005 -2.51023 -1.52046 70 50 126 255 
-10.6465 -2.29587 -1.49966 71 45 123 255 
-9.80046 -2.13154 -1.46494 71 45 123 255 
-9.0975 -1.97351 -1.44778 66 63 133 255 
-8.46335 -1.82984 -1.42882 65 66 135 255 
-7.97197 -1.71912 -1.42625 66 64 134 255 
-7.50638 -1.62712 -1.40967 63 71 136 255 
-7.09782 -1.53583 -1.40108 64 70 136 255 
-6.67845 -1.44393 -1.38642 63 71 136 255 
-6.3547 -1.37152 -1.38539 62 73 137 255 
-6.06399 -1.31114 -1.37656 65 66 135 255 
-5.76301 -1.2449 -1.36552 62 73 137 255 
-5.50026 -1.18718 -1.36026 63 72 137 255 
-5.23995 -1.13284 -1.35256 64 69 136 255 
-5.04781 -1.08682 -1.3498 66 63 133 255 
-4.83068 -1.03997 -1.34068 68 59 132 255 
-4.68742 -1.01088 -1.35148 66 64 134 255 
-4.4598 -0.965802 -1.33696 70 50 126 255 
-18.8931 -4.02574 5.8028 71 19 101 255 
-18.9095 -4.0462 5.59247 71 19 101 255 
-18.906 -4.05252 5.38764 72 20 103 255 
-18.9464 -4.06079 5.20283 71 19 101 255 
-18.9078 -4.0392 5.01821 72 20 103 255 
-18.8895 -4.03848 4.80895 71 17 100 255 
-18.9145 -4.04054 4.61843 72 20 103 255 
-18.8437 -4.02162 4.41298 70 7 90 255 
-18.8849 -4.03775 4.26009 70 8 92 255 
-18.8362 -4.02364 4.04843 70 10 93 255 
-18.7971 -4.00516 3.8508 69 5 89 255 
-18.796 -3.99775 3.66574 70 7 90 255 
-18.7045 -3.99918 3.48981 62 76 138 255 
-18.7176 -3.99489 3.30247 61 77 138 255 
-18.6723 -3.97177 3.10559 63 71 136 255 
-18.661 -3.95204 2.92569 62 73 137 255 
-18.6725 -3.98895 2.77188 62 73 137 255 
-18.6642 -3.9801 2.58364 63 72 137 255 
-18.6584 -3.9586 2.39942 63 71 136 255 
-18.6603 -3.9451 2.22367 65 66 135 255 
-18.6523 -3.98462 2.06864 63 72 137 255 
-18.64 -3.96472 1.88534 62 74 137 255 
-18.6554 -3.95456 1.7053 63 71 136 255 
-18.6352 -3.9296 1.52563 67 62 133 255 
-18.6385 -3.97829 1.37615 62 73 137 255 
-18.6324 -3.95972 1.1951 57 86 140 255 
-18.6536 -3.94398 1.01589 62 73 137 255 
