ply
format ascii 1.0
comment VTK generated PLY File
obj_info vtkPolyData points and polygons: vtk4.0
element vertex 1233
property float x
property float y
property float z
property uchar red
property uchar green
property uchar blue
property uchar alpha
element face 0
property list uchar int vertex_indices
end_header
5.24379 1.58117 -1.05669 56 88 140 255 
5.03893 1.51849 -1.06785 52 97 141 255 
4.80822 1.44706 -1.07005 64 69 136 255 
4.62413 1.39354 -1.07157 63 72 137 255 
4.46173 1.34366 -1.07919 63 71 136 255 
4.30104 1.29449 -1.08581 63 71 136 255 
4.14801 1.24995 -1.09301 62 76 138 255 
3.98986 1.1986 -1.08905 63 72 137 255 
3.87377 1.16364 -1.09742 63 72 137 255 
3.74492 1.1264 -1.10218 67 62 133 255 
3.59323 1.08414 -1.09965 66 64 134 255 
8.46498 2.52336 2.65341 46 109 142 255 
10.7904 3.22663 3.25713 66 63 133 255 
11.3092 3.38619 3.28943 71 45 123 255 
10.6399 3.18557 2.98223 67 61 132 255 
10.1342 3.02672 2.74513 53 94 141 255 
9.83864 2.94016 2.55643 59 81 139 255 
9.54997 2.85217 2.37994 57 85 140 255 
9.65714 2.88215 2.30818 63 71 136 255 
13.3337 3.98482 3.06991 71 42 122 255 
9.73513 2.90738 2.13549 57 86 140 255 
10.0101 2.9839 2.09288 61 77 138 255 
14.9842 4.46064 2.98236 71 47 125 255 
15.0688 4.50337 2.86949 69 55 129 255 
15.2671 4.55659 2.74917 64 69 136 255 
15.2626 4.54381 2.59064 69 56 130 255 
25.5805 7.59077 4.0926 72 26 108 255 
11.0432 3.29819 1.67313 63 71 136 255 
12.1095 3.61189 1.7108 64 70 136 255 
25.2379 7.49914 3.31206 72 32 113 255 
25.1815 7.46283 3.06209 72 29 111 255 
25.6495 7.66056 2.90332 72 22 104 255 
25.5307 7.60043 2.63535 72 26 108 255 
24.9246 7.4013 2.32503 72 31 112 255 
24.7503 7.32095 2.06758 72 28 110 255 
24.9515 7.44736 1.88022 71 16 99 255 
26.031 7.74444 1.70392 72 20 103 255 
25.8618 7.66488 1.43724 69 5 89 255 
50.4051 14.8904 2.30395 70 7 90 255 
50.0939 14.9327 1.88019 70 10 93 255 
0 0 0 68 2 86 255 
82.7125 24.4985 1.47563 69 5 89 255 
0 0 0 69 4 87 255 
0 0 -0 69 4 87 255 
45.8746 13.6132 -0.459358 69 5 89 255 
28.8365 8.53009 -0.566905 70 7 90 255 
22.1301 6.52076 -0.652485 71 16 99 255 
17.9615 5.34058 -0.680565 72 37 118 255 
16.0534 4.75774 -0.763251 72 41 121 255 
13.7817 4.07413 -0.790898 70 51 127 255 
12.4916 3.67837 -0.839809 72 37 118 255 
11.4183 3.39288 -0.864289 68 57 131 255 
10.5479 3.12205 -0.900516 60 80 139 255 
9.86569 2.91088 -0.939735 60 79 138 255 
9.03179 2.65956 -0.949723 69 55 129 255 
8.41285 2.49505 -0.956373 64 69 136 255 
7.91805 2.34216 -0.978765 61 77 138 255 
7.43708 2.1929 -0.993264 62 74 137 255 
7.01875 2.06413 -1.00737 61 77 138 255 
6.62741 1.96176 -1.00953 55 90 140 255 
6.29135 1.85859 -1.02025 57 86 140 255 
5.99654 1.767 -1.03156 55 91 141 255 
5.68814 1.67281 -1.03691 55 90 140 255 
5.45142 1.60953 -1.04322 54 92 141 255 
5.24869 1.54758 -1.05574 55 91 141 255 
5.02935 1.482 -1.06387 56 89 140 255 
4.81982 1.41836 -1.07067 64 69 136 255 
4.64102 1.36762 -1.07352 62 76 138 255 
4.46148 1.31378 -1.07716 60 80 139 255 
4.32103 1.27164 -1.08886 61 78 138 255 
4.14258 1.22064 -1.08958 60 79 138 255 
4.01477 1.17928 -1.09385 63 72 137 255 
3.88083 1.13985 -1.09742 65 68 135 255 
3.74252 1.10068 -1.09947 66 63 133 255 
3.61915 1.06777 -1.10556 66 65 134 255 
12.217 3.56035 3.8226 72 36 117 255 
10.8321 3.16683 3.2638 69 56 130 255 
11.8873 3.47993 3.45129 71 47 125 255 
11.3878 3.33348 3.18606 71 44 122 255 
10.2019 2.97886 2.75845 62 73 137 255 
9.72982 2.84273 2.52358 59 81 139 255 
9.68027 2.82651 2.40804 66 63 133 255 
9.54271 2.78435 2.2767 61 77 138 255 
9.79699 2.8625 2.25154 65 68 135 255 
10.0261 2.92741 2.19535 50 100 142 255 
10.0057 2.91584 2.08817 61 78 138 255 
15.1019 4.39496 3.00035 71 44 122 255 
15.2038 4.44228 2.88995 72 40 120 255 
15.2087 4.43771 2.73369 68 59 132 255 
25.6136 7.45458 4.33973 72 27 109 255 
25.6522 7.4411 4.09669 72 24 106 255 
10.9882 3.20846 1.66178 72 29 111 255 
12.1924 3.55527 1.71938 61 77 138 255 
12.2549 3.55971 1.60535 66 64 134 255 
25.2612 7.31813 3.06626 72 28 110 255 
25.2208 7.36426 2.84962 72 31 112 255 
25.2653 7.35298 2.60325 72 24 106 255 
25.0661 7.27627 2.33403 72 20 103 255 
25.1624 7.27527 2.09824 71 17 100 255 
25.1413 7.33631 1.89109 72 27 109 255 
29.1274 8.47146 1.90316 70 10 93 255 
28.9996 8.40165 1.60873 70 7 90 255 
47.761 13.7912 2.17918 70 7 90 255 
0 0 0 68 2 86 255 
0 0 0 68 1 84 255 
0 0 0 69 4 87 255 
0 0 0 69 4 87 255 
83.0986 24.2013 -0.015106 70 7 90 255 
28.4047 8.23975 -0.283914 72 20 103 255 
28.4032 8.21274 -0.557386 71 19 101 255 
22.0534 6.35137 -0.649064 71 16 99 255 
17.7089 5.14743 -0.669786 72 38 119 255 
16.3798 4.74532 -0.777368 72 40 120 255 
13.7354 3.96898 -0.786832 67 61 132 255 
12.4651 3.58757 -0.836527 72 36 117 255 
11.4389 3.32276 -0.864289 65 68 135 255 
10.5888 3.06364 -0.902392 62 73 137 255 
9.8872 2.85139 -0.940098 62 73 137 255 
9.06323 2.60849 -0.951329 69 53 129 255 
8.41463 2.43951 -0.954857 63 72 137 255 
7.93609 2.29463 -0.979235 62 76 138 255 
7.44467 2.14558 -0.992502 62 73 137 255 
7.03604 2.02239 -1.00805 62 76 138 255 
6.64597 1.92299 -1.01055 55 91 141 255 
6.29599 1.81803 -1.01918 57 86 140 255 
6.00537 1.72963 -1.03123 54 93 141 255 
5.70019 1.63842 -1.03726 59 82 139 255 
5.46592 1.57741 -1.04412 54 93 141 255 
5.25714 1.51507 -1.05555 54 92 141 255 
5.02422 1.44705 -1.06089 54 93 141 255 
4.83125 1.38957 -1.0713 59 81 139 255 
4.6437 1.3375 -1.07222 62 74 137 255 
4.46103 1.28395 -1.07513 58 83 139 255 
4.30353 1.23785 -1.08252 62 74 137 255 
4.13974 1.19224 -1.08689 63 71 136 255 
4.02937 1.15676 -1.09588 60 79 138 255 
3.89425 1.11788 -1.09926 66 64 134 255 
3.75198 1.0785 -1.10028 65 68 135 255 
3.63577 1.04847 -1.10865 66 65 134 255 
8.4907 2.41798 2.65197 64 70 136 255 
8.4821 2.4234 2.5512 56 89 140 255 
10.7748 3.08261 3.12275 59 82 139 255 
12.1435 3.47392 3.39145 66 63 133 255 
10.4554 2.9834 2.82201 71 47 125 255 
9.99715 2.85437 2.58832 63 71 136 255 
9.77225 2.78841 2.42662 62 73 137 255 
9.81271 2.79791 2.33698 71 42 122 255 
9.82751 2.80608 2.25456 62 76 138 255 
14.9986 4.27955 3.27832 72 36 117 255 
15.1345 4.30991 3.15298 71 47 125 255 
15.1994 4.32237 3.0144 67 62 133 255 
15.1845 4.33567 2.88116 72 32 113 255 
15.0518 4.29188 2.70071 69 56 130 255 
25.73 7.31752 4.35178 71 17 100 255 
26.539 7.5221 4.23086 71 17 100 255 
11.217 3.20072 1.69338 57 85 140 255 
12.2197 3.48203 1.72019 71 46 124 255 
12.2937 3.48932 1.6076 59 82 139 255 
25.4471 7.20303 3.0834 72 27 109 255 
25.0781 7.15591 2.82849 72 27 109 255 
24.8639 7.07097 2.55737 72 31 112 255 
25.6019 7.26176 2.37972 71 19 101 255 
27.0954 7.65431 2.25547 71 14 97 255 
28.001 7.98467 2.10247 71 13 96 255 
27.2646 7.74855 1.7783 71 17 100 255 
29.2543 8.28122 1.62001 71 14 97 255 
48.0553 13.5573 2.18877 70 10 93 255 
48.4539 13.7987 1.81215 70 7 90 255 
0 0 0 68 2 86 255 
0 0 0 69 4 87 255 
0 0 0 68 2 86 255 
0 0 -0 69 5 89 255 
28.5961 8.10539 -0.285326 72 20 103 255 
28.9188 8.16987 -0.566509 70 10 93 255 
22.0092 6.19265 -0.646633 71 13 96 255 
18.0151 5.11676 -0.680166 72 32 113 255 
16.1087 4.55983 -0.76316 72 36 117 255 
13.7211 3.87377 -0.784634 63 71 136 255 
12.4811 3.5094 -0.836141 72 40 120 255 
11.3967 3.23481 -0.859585 66 65 134 255 
10.6285 3.00458 -0.904187 62 73 137 255 
9.89013 2.78662 -0.938734 62 73 137 255 
9.08194 2.55364 -0.95163 69 55 129 255 
8.4457 2.39244 -0.956698 63 72 137 255 
7.95193 2.24643 -0.979471 62 74 137 255 
7.44529 2.09636 -0.99085 64 70 136 255 
7.05499 1.98106 -1.009 62 73 137 255 
6.66051 1.88298 -1.01098 55 91 141 255 
6.3289 1.78554 -1.02271 55 90 140 255 
6.01967 1.69382 -1.03189 52 97 141 255 
5.7291 1.60874 -1.0407 56 88 140 255 
5.48969 1.54785 -1.04683 55 91 141 255 
5.25783 1.48039 -1.05384 55 90 140 255 
5.02923 1.41513 -1.0601 53 95 141 255 
4.84063 1.36017 -1.07151 60 79 138 255 
4.65746 1.31057 -1.07352 62 76 138 255 
4.50446 1.26658 -1.08371 56 89 140 255 
4.31198 1.21168 -1.08275 63 72 137 255 
4.14698 1.16682 -1.08689 62 76 138 255 
4.02615 1.12914 -1.09309 60 79 138 255 
3.89918 1.09345 -1.09873 66 63 133 255 
3.77428 1.05988 -1.10489 62 74 137 255 
3.63937 1.02536 -1.10781 67 62 133 255 
12.1943 3.39194 3.80218 71 44 122 255 
8.5329 2.38138 2.56203 53 95 141 255 
10.7146 2.9944 3.09993 69 55 129 255 
11.1256 3.10901 3.10178 68 57 131 255 
10.6796 2.97663 2.87753 69 56 130 255 
10.5678 2.9473 2.73134 68 59 132 255 
11.1609 3.11071 2.76665 72 41 121 255 
10.1518 2.82735 2.41356 63 71 136 255 
10.2001 2.8449 2.33598 61 78 138 255 
10.1933 2.84093 2.22415 65 68 135 255 
15.2778 4.24955 3.17734 71 45 123 255 
15.3146 4.25374 3.03202 64 69 136 255 
15.2449 4.25193 2.88762 66 65 134 255 
15.1072 4.20764 2.70598 64 69 136 255 
10.6409 2.95579 1.79662 72 36 117 255 
11.038 3.05551 1.75666 71 42 122 255 
26.1345 7.28422 3.93859 71 17 100 255 
10.9014 3.03419 1.53196 63 72 137 255 
12.3282 3.41754 1.60935 60 80 139 255 
12.4218 3.43392 1.50256 66 63 133 255 
25.1301 7.0043 2.82946 72 28 110 255 
25.4476 7.06848 2.6129 72 24 106 255 
25.7054 7.12102 2.38524 72 23 105 255 
24.8732 6.86202 2.06694 72 28 110 255 
26.7927 7.46266 2.00827 71 13 96 255 
26.423 7.33445 1.72045 71 17 100 255 
26.1486 7.22906 1.44554 70 10 93 255 
0 0 0 69 4 87 255 
48.1737 13.3999 1.79856 71 13 96 255 
0 0 0 68 2 86 255 
0 0 0 68 2 86 255 
0 0 0 69 4 87 255 
0 0 -0 69 5 89 255 
28.6819 7.93992 -0.28569 72 24 106 255 
29.1264 8.03589 -0.5696 72 20 103 255 
22.5326 6.19097 -0.660881 71 13 96 255 
17.9412 4.97701 -0.67621 72 27 109 255 
16.1826 4.47368 -0.765346 72 32 113 255 
13.6175 3.75448 -0.77738 66 64 134 255 
12.4639 3.42218 -0.833567 71 42 122 255 
11.3817 3.15522 -0.85698 67 62 133 255 
10.6496 2.9401 -0.904432 61 78 138 255 
9.8984 2.7235 -0.937915 62 76 138 255 
9.0984 2.49813 -0.95173 69 56 130 255 
8.4698 2.34322 -0.957782 63 71 136 255 
7.96365 2.19707 -0.979235 64 69 136 255 
7.47235 2.05458 -0.992756 64 69 136 255 
7.06797 1.93799 -1.00914 61 78 138 255 
6.67003 1.84155 -1.01069 55 91 141 255 
6.3626 1.75297 -1.0264 56 89 140 255 
6.01187 1.65188 -1.02879 52 97 141 255 
5.73886 1.57356 -1.0407 55 90 140 255 
5.50098 1.51466 -1.04719 53 94 141 255 
5.2725 1.44967 -1.05498 53 95 141 255 
5.05483 1.38892 -1.06367 53 95 141 255 
4.83002 1.32526 -1.06734 65 66 135 255 
4.65882 1.28016 -1.072 61 78 138 255 
4.51215 1.23892 -1.08371 60 80 139 255 
4.32495 1.18675 -1.08416 62 74 137 255 
4.16528 1.14443 -1.08983 63 71 136 255 
4.0302 1.10365 -1.09233 64 69 136 255 
3.89557 1.0667 -1.09585 65 66 135 255 
3.75751 1.03034 -1.09811 62 74 137 255 
3.62986 0.998685 -1.10303 66 65 134 255 
14.1327 3.83785 4.39914 72 33 115 255 
8.539 2.32671 2.55953 68 58 131 255 
10.823 2.95319 3.12597 65 68 135 255 
11.1696 3.04755 3.10879 72 40 120 255 
10.4025 2.83073 2.79814 72 36 117 255 
10.8657 2.95863 2.80357 62 74 137 255 
10.2046 2.77682 2.52533 71 46 124 255 
10.1877 2.77012 2.41802 60 79 138 255 
10.2089 2.77995 2.33404 70 48 126 255 
13.2483 3.60492 2.88586 72 27 109 255 
13.3912 3.63642 2.7803 72 40 120 255 
15.9377 4.32164 3.15007 70 51 127 255 
15.2574 4.15469 2.88511 72 33 115 255 
15.303 4.16115 2.73641 62 74 137 255 
10.5341 2.8566 1.77559 50 102 142 255 
11.0221 2.97844 1.7512 62 73 137 255 
12.3249 3.35385 1.85429 72 36 117 255 
10.916 2.9662 1.53143 57 86 140 255 
12.3461 3.34105 1.60897 71 44 122 255 
12.411 3.3491 1.49874 63 72 137 255 
25.188 6.85415 2.83118 70 10 93 255 
25.9794 7.04477 2.66301 71 14 97 255 
25.9486 7.01725 2.40377 72 22 104 255 
24.9928 6.73027 2.07341 72 32 113 255 
25.0507 6.8121 1.87453 72 33 115 255 
25.4734 6.9028 1.65583 72 24 106 255 
26.1896 7.0677 1.44538 71 14 97 255 
25.4052 6.83183 1.15322 70 11 94 255 
48.3843 13.1391 1.80338 70 7 90 255 
0 0 0 69 4 87 255 
0 0 0 68 2 86 255 
0 0 0 69 4 87 255 
85.0548 23.0814 -0.0153818 70 8 92 255 
28.7098 7.7583 -0.285489 72 36 117 255 
28.6983 7.72858 -0.560289 71 13 96 255 
21.8548 5.86074 -0.639933 71 16 99 255 
18.0553 4.88955 -0.679367 72 26 108 255 
16.2676 4.38992 -0.768078 72 41 121 255 
13.5246 3.63971 -0.770786 68 59 132 255 
12.3121 3.2994 -0.822047 71 47 125 255 
11.4163 3.0895 -0.858138 66 64 134 255 
10.6338 2.86563 -0.901576 62 73 137 255 
9.94282 2.67021 -0.940553 58 83 139 255 
9.11932 2.4438 -0.952332 69 53 129 255 
8.48594 2.29173 -0.957999 64 70 136 255 
7.97986 2.14894 -0.979589 65 68 135 255 
7.49057 2.01024 -0.993518 62 73 137 255 
7.07686 1.89382 -1.00873 62 74 137 255 
6.64298 1.79029 -1.00491 57 86 140 255 
6.36751 1.71236 -1.02548 57 86 140 255 
6.01332 1.61267 -1.02733 51 99 141 255 
5.72367 1.53169 -1.03622 54 92 141 255 
5.50447 1.47935 -1.04611 52 96 141 255 
5.2756 1.41576 -1.05384 55 90 140 255 
5.05474 1.35559 -1.06188 54 92 141 255 
4.83901 1.29586 -1.06755 65 68 135 255 
4.68167 1.25559 -1.07547 60 79 138 255 
4.51214 1.20919 -1.0819 59 82 139 255 
4.34905 1.16471 -1.08839 59 82 139 255 
4.18721 1.12287 -1.09374 61 77 138 255 
4.01914 1.07415 -1.08753 62 73 137 255 
3.9095 1.04477 -1.09795 63 71 136 255 
3.76562 1.00776 -1.09865 64 69 136 255 
3.64148 0.977888 -1.10471 65 68 135 255 
14.2597 3.77853 4.43136 71 14 97 255 
12.677 3.37079 3.7936 72 32 113 255 
10.8939 2.90086 3.14127 67 61 132 255 
10.6393 2.83284 2.9563 67 61 132 255 
9.98 2.65009 2.68007 62 76 138 255 
11.1509 2.96293 2.87242 62 74 137 255 
10.9839 2.9166 2.71369 72 40 120 255 
10.1819 2.70156 2.41266 59 82 139 255 
11.5631 3.07262 2.63929 62 76 138 255 
11.7975 3.13253 2.56559 69 56 130 255 
12.5082 3.31434 2.59268 71 45 123 255 
13.229 3.50017 2.61041 70 51 127 255 
15.4224 4.09813 2.91149 72 37 118 255 
15.3568 4.07476 2.74151 72 41 121 255 
10.5342 2.78737 1.7727 55 91 141 255 
15.9558 4.20675 2.53091 72 38 119 255 
15.7943 4.19403 2.37235 70 52 128 255 
15.9091 4.21833 2.22825 71 17 100 255 
11.0109 2.90732 1.43261 62 73 137 255 
12.0548 3.17375 1.45334 70 51 127 255 
12.5336 3.32817 1.40648 72 33 115 255 
29.5028 7.80618 3.01921 70 10 93 255 
26.1222 6.89245 2.41588 72 33 115 255 
25.0268 6.57501 2.07285 72 33 115 255 
24.8221 6.58664 1.85436 72 32 113 255 
24.7173 6.53538 1.60404 72 36 117 255 
24.6691 6.49523 1.35924 72 31 112 255 
24.9209 6.53791 1.1294 71 14 97 255 
47.8361 12.6756 1.78001 69 5 89 255 
0 0 0 69 4 87 255 
12.7869 3.36433 0.226175 70 7 90 255 
12.8113 3.35621 0.104017 71 14 97 255 
85.8744 22.739 -0.0155045 69 5 89 255 
53.3947 14.078 -0.530085 69 4 87 255 
38.9325 10.2289 -0.758857 70 7 90 255 
22.6001 5.91222 -0.660683 70 11 94 255 
18.1507 4.79604 -0.681836 72 27 109 255 
16.215 4.26917 -0.764344 72 40 120 255 
13.5013 3.54474 -0.768203 72 41 121 255 
12.278 3.20966 -0.818442 71 44 122 255 
11.5083 3.03874 -0.863638 62 76 138 255 
10.6512 2.80032 -0.901576 62 73 137 255 
9.95516 2.60814 -0.940189 58 83 139 255 
9.15628 2.39359 -0.954641 69 55 129 255 
8.51811 2.24443 -0.960057 64 70 136 255 
8.02939 2.10952 -0.984062 64 70 136 255 
7.50372 1.96449 -0.993645 62 73 137 255 
7.09506 1.85211 -1.00969 62 76 138 255 
6.64714 1.74773 -1.0039 59 81 139 255 
6.37981 1.67376 -1.02579 59 82 139 255 
6.03646 1.57923 -1.02961 54 92 141 255 
5.72724 1.49505 -1.03519 57 85 140 255 
5.51535 1.44604 -1.04647 52 96 141 255 
5.28989 1.38486 -1.05498 52 96 141 255 
5.06296 1.32455 -1.06188 56 89 140 255 
4.84971 1.26688 -1.06817 60 80 139 255 
4.70251 1.2303 -1.0785 57 85 140 255 
4.50816 1.17852 -1.07919 60 79 138 255 
4.34201 1.13432 -1.08487 60 79 138 255 
4.19121 1.09642 -1.09301 61 77 138 255 
4.03502 1.05191 -1.09006 61 77 138 255 
3.91024 1.0193 -1.09638 64 69 136 255 
3.77918 0.98658 -1.10082 66 64 134 255 
3.64556 0.955039 -1.10415 64 70 136 255 
9.63701 2.49044 2.99001 59 81 139 255 
9.62418 2.49593 2.87541 72 33 115 255 
12.601 3.27275 3.62764 70 7 90 255 
15.8707 4.12164 4.40282 72 26 108 255 
10.7138 2.77469 2.8725 71 44 122 255 
10.2201 2.64858 2.62843 54 93 141 255 
10.2906 2.66504 2.53834 62 76 138 255 
10.1342 2.62243 2.39748 62 73 137 255 
11.5647 2.9972 2.63541 65 68 135 255 
11.61 3.0066 2.52075 63 71 136 255 
11.6701 3.01576 2.41508 60 80 139 255 
10.3921 2.68145 2.04733 69 53 129 255 
11.7504 3.04533 2.21472 71 45 123 255 
11.7878 3.05045 2.10098 71 44 122 255 
10.554 2.72342 1.77318 62 73 137 255 
10.8042 2.77774 1.71102 59 81 139 255 
15.9079 4.11987 2.38556 72 38 119 255 
10.9698 2.83673 1.53398 59 81 139 255 
10.9958 2.8313 1.42837 64 70 136 255 
11.6344 2.98685 1.40042 63 71 136 255 
12.5759 3.25694 1.40896 67 62 133 255 
12.7337 3.28576 1.30103 72 32 113 255 
12.7453 3.2794 1.17686 72 24 106 255 
12.7453 3.26496 1.05395 72 33 115 255 
24.8157 6.42221 1.85091 72 29 111 255 
12.7597 3.29011 0.826723 72 40 120 255 
12.7566 3.27517 0.701752 67 61 132 255 
12.7344 3.25743 0.576194 66 64 134 255 
12.7748 3.30132 0.474596 68 59 132 255 
12.7795 3.29046 0.350168 65 66 135 255 
12.7637 3.27463 0.225406 66 63 133 255 
12.7715 3.2622 0.10353 67 62 133 255 
12.7739 3.29872 -0.00230261 69 56 130 255 
12.7643 3.28177 -0.126517 69 53 129 255 
12.8235 3.2852 -0.249553 69 55 129 255 
12.7273 3.24617 -0.371475 69 56 130 255 
12.7653 3.28938 -0.478766 72 41 121 255 
12.7615 3.2763 -0.600592 70 51 127 255 
12.7335 3.25977 -0.723364 67 61 132 255 
12.3507 3.14782 -0.821982 71 46 124 255 
11.5306 2.96906 -0.863927 63 72 137 255 
10.6817 2.73838 -0.902719 62 73 137 255 
9.96905 2.54651 -0.940007 59 82 139 255 
9.15441 2.33318 -0.952935 71 46 124 255 
8.56349 2.20028 -0.963633 59 81 139 255 
8.01621 2.05356 -0.980883 63 71 136 255 
7.52044 1.91964 -0.994281 65 68 135 255 
7.09957 1.80683 -1.00873 62 73 137 255 
6.68746 1.71453 -1.00838 59 81 139 255 
6.40814 1.63923 -1.02871 59 82 139 255 
6.05943 1.54558 -1.03189 54 93 141 255 
5.75349 1.46426 -1.03829 54 93 141 255 
5.53365 1.41461 -1.04827 56 89 140 255 
5.28687 1.34946 -1.05271 53 95 141 255 
5.08809 1.29782 -1.06546 56 88 140 255 
4.86118 1.23807 -1.06901 62 76 138 255 
4.68822 1.19587 -1.07352 60 79 138 255 
4.5238 1.153 -1.08122 59 81 139 255 
4.35266 1.10862 -1.08581 59 82 139 255 
4.19504 1.06997 -1.09228 62 74 137 255 
4.05171 1.02975 -1.09284 63 72 137 255 
3.93326 0.999566 -1.10109 63 72 137 255 
3.77304 0.960286 -1.0973 64 69 136 255 
3.65414 0.933365 -1.105 66 63 133 255 
11.1594 2.81093 3.45694 64 70 136 255 
9.90102 2.50299 2.95348 65 66 135 255 
9.81464 2.48489 2.82105 64 69 136 255 
10.0254 2.53805 2.77685 72 35 116 255 
11.3181 2.85721 3.02977 68 59 132 255 
10.0668 2.54304 2.58494 53 95 141 255 
10.0946 2.54828 2.48608 49 103 142 255 
10.1122 2.55066 2.38855 63 72 137 255 
11.8338 2.98957 2.6925 70 52 128 255 
11.8578 2.99327 2.57053 66 63 133 255 
11.4307 2.87919 2.36184 71 47 125 255 
10.4017 2.61596 2.04602 69 56 130 255 
10.3878 2.62427 1.95482 53 95 141 255 
11.318 2.85491 2.01409 71 45 123 255 
11.7565 2.9569 1.97212 67 61 132 255 
10.8786 2.72581 1.72012 50 101 142 255 
12.0996 3.05448 1.81162 60 80 139 255 
12.1362 3.05905 1.69443 64 70 136 255 
11.0024 2.76112 1.427 57 85 140 255 
12.1583 3.04198 1.46121 66 64 134 255 
11.9903 3.0269 1.34125 63 72 137 255 
12.6407 3.17917 1.28952 62 73 137 255 
12.6648 3.17594 1.16759 66 65 134 255 
12.7148 3.17414 1.0498 68 59 132 255 
12.7 3.20371 0.945763 66 63 133 255 
12.7255 3.19813 0.823217 60 80 139 255 
12.7338 3.18617 0.699411 62 74 137 255 
12.7357 3.17464 0.575362 62 73 137 255 
12.758 3.21359 0.47323 64 70 136 255 
12.7462 3.1986 0.348709 64 69 136 255 
12.7748 3.19406 0.225252 63 72 137 255 
12.7574 3.17532 0.103255 64 69 136 255 
12.7387 3.20637 -0.00229266 65 68 135 255 
12.7502 3.19488 -0.126181 65 66 135 255 
12.7309 3.17837 -0.247367 66 65 134 255 
12.7227 3.16199 -0.370768 66 64 134 255 
12.7193 3.19444 -0.476298 62 73 137 255 
12.696 3.1766 -0.596585 63 71 136 255 
12.6951 3.16707 -0.720067 65 68 135 255 
12.2177 3.03422 -0.811878 64 70 136 255 
11.5544 2.89972 -0.864362 65 68 135 255 
10.7167 2.67738 -0.904269 65 68 135 255 
9.98642 2.48578 -0.940189 60 79 138 255 
9.17048 2.27745 -0.953135 71 45 123 255 
8.57876 2.14818 -0.963849 63 72 137 255 
8.03155 2.00506 -0.981237 62 76 138 255 
7.54459 1.87657 -0.995932 62 76 138 255 
7.11917 1.76538 -1.00996 60 79 138 255 
6.69017 1.67155 -1.00722 61 77 138 255 
6.41808 1.59988 -1.02871 59 82 139 255 
6.0822 1.5117 -1.03417 56 89 140 255 
5.7681 1.43035 -1.03932 55 91 141 255 
5.52982 1.37754 -1.04593 54 92 141 255 
5.29791 1.3177 -1.05328 53 95 141 255 
5.10261 1.26823 -1.06686 53 94 141 255 
4.86394 1.20704 -1.06796 57 86 140 255 
4.68504 1.16449 -1.07114 63 71 136 255 
4.55538 1.13133 -1.08709 60 79 138 255 
4.36598 1.08353 -1.08745 58 84 140 255 
4.2034 1.04467 -1.09276 58 83 139 255 
4.08237 1.01092 -1.09942 60 79 138 255 
3.94681 0.977269 -1.10318 65 66 135 255 
3.75364 0.930862 -1.08997 67 61 132 255 
3.65421 0.909535 -1.10331 65 66 135 255 
11.4667 2.81361 3.5467 72 33 115 255 
10.1242 2.49342 3.01543 68 58 131 255 
12.4092 3.06089 3.56134 72 37 118 255 
10.0314 2.47417 2.77426 71 44 122 255 
10.2245 2.51449 2.73282 66 64 134 255 
10.038 2.47033 2.57359 70 50 126 255 
10.0902 2.48142 2.4812 56 89 140 255 
10.0823 2.4774 2.37784 59 82 139 255 
10.2295 2.5176 2.32392 52 97 141 255 
10.2291 2.51547 2.21407 61 77 138 255 
10.5597 2.591 2.17854 66 63 133 255 
10.74 2.63108 2.10935 57 85 140 255 
10.3741 2.55319 1.94925 54 92 141 255 
10.5927 2.60293 1.88215 61 77 138 255 
10.7362 2.63034 1.79823 62 74 137 255 
10.9661 2.67635 1.73134 64 70 136 255 
11.1735 2.74787 1.6704 52 96 141 255 
11.1751 2.74397 1.55786 61 77 138 255 
10.9902 2.68649 1.42325 54 93 141 255 
10.9232 2.66184 1.31079 61 77 138 255 
10.9013 2.68095 1.21757 68 57 131 255 
12.6223 3.09231 1.28568 61 78 138 255 
12.6201 3.08257 1.16172 67 61 132 255 
12.6449 3.0744 1.04245 67 62 133 255 
12.6943 3.11953 0.94389 66 65 134 255 
12.7138 3.11239 0.821213 60 80 139 255 
12.7512 3.10751 0.699305 61 77 138 255 
12.7413 3.09313 0.574749 65 68 135 255 
12.7493 3.12835 0.472187 61 77 138 255 
12.784 3.12484 0.349213 66 65 134 255 
12.7709 3.10994 0.224841 65 68 135 255 
12.764 3.09392 0.103153 66 65 134 255 
12.7484 3.12576 -0.00229092 66 65 134 255 
12.7453 3.11066 -0.125941 66 65 134 255 
12.7482 3.09972 -0.247329 67 61 132 255 
12.737 3.08269 -0.370627 70 52 128 255 
12.7125 3.10992 -0.475318 64 69 136 255 
12.6833 3.09084 -0.595082 66 63 133 255 
12.6658 3.07733 -0.71732 67 61 132 255 
12.3748 2.99274 -0.821081 69 53 129 255 
11.5971 2.83492 -0.866243 70 50 126 255 
10.7416 2.61369 -0.905003 64 70 136 255 
9.99664 2.42328 -0.939735 60 79 138 255 
9.18332 2.2209 -0.953035 70 50 126 255 
8.58695 2.09432 -0.963308 63 71 136 255 
8.06397 1.96067 -0.983709 66 65 134 255 
7.56175 1.83164 -0.996695 62 73 137 255 
7.1472 1.72585 -1.01241 59 81 139 255 
6.71472 1.63398 -1.00939 60 80 139 255 
6.42778 1.56047 -1.02871 58 83 139 255 
6.09999 1.47644 -1.03563 56 89 140 255 
5.79401 1.39909 -1.04242 57 86 140 255 
5.52956 1.34149 -1.0443 54 93 141 255 
5.32594 1.29002 -1.05725 52 96 141 255 
5.09601 1.23344 -1.06387 54 93 141 255 
4.89122 1.182 -1.07234 56 88 140 255 
4.70254 1.13825 -1.07352 61 78 138 255 
4.56223 1.10336 -1.08709 57 85 140 255 
4.36877 1.0558 -1.08651 59 82 139 255 
4.21445 1.02 -1.09399 59 81 139 255 
4.06216 0.979503 -1.09233 59 82 139 255 
3.99307 0.96276 -1.11444 62 74 137 255 
3.81448 0.921143 -1.10598 64 69 136 255 
3.65412 0.88574 -1.10162 66 64 134 255 
12.568 3.00221 3.88158 68 57 131 255 
10.1262 2.42812 3.01154 54 93 141 255 
12.6535 3.0389 3.62602 72 37 118 255 
12.6458 3.0368 3.49207 69 56 130 255 
12.8735 3.08232 3.43575 72 24 106 255 
10.2332 2.45187 2.61973 53 94 141 255 
10.2594 2.45637 2.51906 60 79 138 255 
10.1001 2.41617 2.37851 56 89 140 255 
10.1735 2.43772 2.30776 61 78 138 255 
10.212 2.44491 2.20707 52 97 141 255 
10.4199 2.48903 2.14652 52 96 141 255 
10.5849 2.52435 2.07581 55 91 141 255 
10.3436 2.47849 1.94064 64 69 136 255 
10.6727 2.55324 1.89354 49 104 142 255 
10.6859 2.54861 1.78715 52 96 141 255 
10.9448 2.6001 1.72543 56 89 140 255 
11.1737 2.67534 1.66795 58 84 140 255 
11.9926 2.8668 1.66934 67 62 133 255 
11.0471 2.62865 1.42849 66 64 134 255 
12.4905 2.96269 1.49665 69 55 129 255 
10.936 2.61841 1.21962 57 86 140 255 
11.9247 2.84397 1.21282 71 42 122 255 
12.4935 2.97052 1.14836 67 62 133 255 
12.6529 2.99423 1.04158 66 65 134 255 
12.7054 3.03973 0.943314 64 70 136 255 
12.7211 3.03155 0.820462 61 78 138 255 
12.7681 3.02875 0.699198 61 77 138 255 
12.7776 3.01903 0.575538 67 61 132 255 
12.7848 3.05401 0.472798 66 65 134 255 
12.8117 3.04842 0.349452 68 59 132 255 
12.8092 3.03613 0.225183 69 55 129 255 
12.8061 3.02105 0.103342 68 59 132 255 
12.7936 3.05375 -0.00229563 66 63 133 255 
12.7933 3.03933 -0.126229 68 58 131 255 
12.7962 3.02835 -0.247895 69 53 129 255 
12.8063 3.01639 -0.372097 70 51 127 255 
12.7362 3.03302 -0.475499 67 62 133 255 
12.7282 3.01918 -0.596311 64 69 136 255 
12.6738 2.99703 -0.716715 68 59 132 255 
12.5221 2.94716 -0.829641 68 59 132 255 
11.6182 2.76463 -0.866533 70 52 128 255 
10.7584 2.54796 -0.905085 63 72 137 255 
10.0239 2.36487 -0.940917 60 79 138 255 
9.22486 2.17112 -0.955945 71 46 124 255 
8.59577 2.04068 -0.962874 62 73 137 255 
8.08647 1.91367 -0.985003 63 71 136 255 
7.57284 1.78521 -0.996695 62 74 137 255 
7.14802 1.6797 -1.01105 60 79 138 255 
6.74773 1.59822 -1.01286 57 85 140 255 
6.43819 1.52123 -1.02886 60 79 138 255 
6.09069 1.43469 -1.03254 56 88 140 255 
5.7996 1.36284 -1.04191 56 88 140 255 
5.5463 1.30957 -1.04593 50 102 142 255 
5.33375 1.25732 -1.05725 52 96 141 255 
5.09967 1.20125 -1.06308 53 95 141 255 
4.87553 1.14659 -1.06734 60 79 138 255 
4.73129 1.11453 -1.0785 58 83 139 255 
4.56702 1.0749 -1.08664 58 83 139 255 
4.37517 1.02898 -1.08651 61 78 138 255 
4.21402 0.99257 -1.09228 62 74 137 255 
4.08882 0.959422 -1.0979 60 80 139 255 
3.97448 0.932509 -1.10764 66 64 134 255 
3.82755 0.899482 -1.10815 65 68 135 255 
3.66229 0.863963 -1.10246 67 62 133 255 
9.9499 2.31237 3.06855 64 69 136 255 
10.0483 2.34433 2.98404 59 82 139 255 
13.3332 3.11574 3.81526 72 23 105 255 
12.6623 2.95871 3.49155 71 47 125 255 
10.758 2.50609 2.86698 59 82 139 255 
12.8516 2.99599 3.28529 70 50 126 255 
10.2203 2.3808 2.50582 61 78 138 255 
10.0749 2.34487 2.36913 55 91 141 255 
10.3395 2.41051 2.34202 53 95 141 255 
10.2373 2.38465 2.20934 48 105 142 255 
10.3261 2.39974 2.12412 53 94 141 255 
12.7398 2.95575 2.49479 71 42 122 255 
12.7078 2.96265 2.38074 70 50 126 255 
10.6949 2.48927 1.89473 62 74 137 255 
10.6475 2.4705 1.77816 53 94 141 255 
12.7423 2.94462 2.0059 72 41 121 255 
11.1639 2.60067 1.66408 66 65 134 255 
11.5216 2.67958 1.60146 70 50 126 255 
12.568 2.90919 1.62283 72 40 120 255 
11.3238 2.61267 1.35491 64 70 136 255 
10.9876 2.5596 1.22361 59 81 139 255 
12.5643 2.91514 1.27603 70 51 127 255 
12.6308 2.92141 1.15931 68 58 131 255 
12.6934 2.92168 1.04341 68 57 131 255 
12.7209 2.96103 0.943098 62 73 137 255 
12.753 2.95659 0.821338 59 82 139 255 
12.8107 2.95596 0.700529 72 41 121 255 
12.8368 2.94997 0.577377 71 13 96 255 
12.8705 2.99111 0.475278 72 35 116 255 
12.8487 2.97404 0.349956 72 20 103 255 
38.0267 8.76732 0.667545 70 8 92 255 
38.0374 8.7273 0.306514 70 10 93 255 
12.8608 2.9865 -0.00230436 72 40 120 255 
12.8176 2.96213 -0.126287 71 45 123 255 
12.8418 2.95605 -0.248422 72 41 121 255 
12.8801 2.95048 -0.373709 72 41 121 255 
12.7955 2.96428 -0.477024 66 64 134 255 
12.802 2.95383 -0.598907 68 57 131 255 
12.687 2.91809 -0.71644 68 59 132 255 
12.6684 2.89966 -0.838136 69 56 130 255 
11.7564 2.72141 -0.875579 70 50 126 255 
10.7806 2.48347 -0.905656 62 73 137 255 
10.0392 2.30354 -0.941008 62 74 137 255 
9.2351 2.11382 -0.955644 70 50 126 255 
8.61201 1.98879 -0.963308 64 69 136 255 
8.08355 1.86067 -0.983238 66 64 134 255 
7.58946 1.74004 -0.997457 64 70 136 255 
7.16495 1.63735 -1.01201 60 79 138 255 
6.75934 1.55723 -1.01315 60 80 139 255 
6.43104 1.47793 -1.02625 57 86 140 255 
6.10611 1.39883 -1.03368 55 91 141 255 
5.80306 1.32613 -1.04105 56 89 140 255 
5.55328 1.2753 -1.04575 52 97 141 255 
5.34328 1.22501 -1.05763 54 92 141 255 
5.12509 1.17409 -1.06686 55 90 140 255 
4.88914 1.11818 -1.0688 58 84 140 255 
4.73328 1.08438 -1.07742 59 82 139 255 
4.55074 1.04164 -1.08122 60 79 138 255 
4.36339 0.997995 -1.08205 62 73 137 255 
4.21436 0.965395 -1.09081 65 66 135 255 
4.0918 0.933669 -1.09714 60 79 138 255 
3.96883 0.905528 -1.10449 65 68 135 255 
3.833 0.87598 -1.10815 65 66 135 255 
3.65162 0.837827 -1.09768 67 62 133 255 
9.5211 2.15123 2.93219 55 91 141 255 
10.0438 2.27838 2.97848 66 65 134 255 
13.3229 3.02726 3.80694 72 33 115 255 
13.2717 3.01534 3.6544 72 29 111 255 
10.2577 2.3233 2.72981 55 91 141 255 
10.2133 2.31496 2.60717 58 84 140 255 
10.2215 2.31504 2.50257 62 76 138 255 
10.0682 2.27827 2.36422 70 50 126 255 
10.2293 2.31874 2.3138 69 53 129 255 
10.4474 2.3661 2.2515 61 78 138 255 
10.4669 2.36486 2.15005 61 78 138 255 
10.7243 2.4189 2.09717 69 53 129 255 
10.6918 2.42357 2.00023 67 62 133 255 
10.8445 2.45405 1.91853 65 66 135 255 
10.9532 2.47072 1.82665 70 50 126 255 
10.9692 2.46408 1.72437 68 59 132 255 
11.1478 2.5249 1.65933 63 71 136 255 
11.1309 2.51682 1.54498 61 78 138 255 
11.1946 2.51902 1.44347 62 76 138 255 
11.3483 2.5451 1.35595 72 32 113 255 
11.2349 2.54462 1.24938 72 40 120 255 
12.8295 2.89383 1.30113 66 63 133 255 
13.216 2.97145 1.21133 71 47 125 255 
12.7004 2.84134 1.04253 69 53 129 255 
12.7213 2.87896 0.941802 62 73 137 255 
12.7407 2.87148 0.819397 72 24 106 255 
35.1555 7.88493 1.91972 70 8 92 255 
38.2898 8.55225 1.71982 70 7 90 255 
38.0175 8.58979 1.40193 70 11 94 255 
38.0197 8.55486 1.03409 71 16 99 255 
38.0798 8.53383 0.667545 70 11 94 255 
38.0405 8.48264 0.306114 71 13 96 255 
38.0075 8.58057 -0.0068005 71 13 96 255 
38.0099 8.53872 -0.373974 71 16 99 255 
37.9567 8.49233 -0.733242 71 19 101 255 
0 0 -0 69 4 87 255 
19.1358 4.30958 -0.712396 71 19 101 255 
16.4382 3.68672 -0.767942 72 31 112 255 
12.9766 2.90097 -0.731772 72 36 117 255 
12.7298 2.83162 -0.841032 71 45 123 255 
11.7933 2.65382 -0.877098 70 50 126 255 
10.7928 2.41662 -0.905411 61 78 138 255 
10.0775 2.24732 -0.943283 59 82 139 255 
9.27509 2.06316 -0.958454 71 46 124 255 
8.6289 1.937 -0.963849 62 76 138 255 
8.12776 1.81841 -0.98724 64 70 136 255 
7.61838 1.69754 -0.999871 63 72 137 255 
7.17293 1.59293 -1.01173 63 72 137 255 
6.77166 1.51637 -1.01358 59 82 139 255 
6.41877 1.43371 -1.02287 57 85 140 255 
6.10398 1.35898 -1.03189 55 91 141 255 
5.82455 1.29349 -1.04346 56 89 140 255 
5.59555 1.24891 -1.05225 51 98 141 255 
5.36028 1.19434 -1.05953 50 100 142 255 
5.09489 1.13432 -1.0591 57 85 140 255 
4.92169 1.09389 -1.07442 57 86 140 255 
4.75128 1.05787 -1.08002 58 84 140 255 
4.54848 1.01179 -1.07919 60 79 138 255 
4.37513 0.972468 -1.08346 63 72 137 255 
4.22683 0.940993 -1.09252 62 76 138 255 
4.09367 0.907707 -1.09613 62 76 138 255 
3.97903 0.882204 -1.1058 63 72 137 255 
3.85334 0.855783 -1.11249 64 70 136 255 
3.68105 0.820836 -1.105 68 59 132 255 
9.21139 2.02193 2.83293 49 104 142 255 
10.0998 2.22602 2.99099 71 47 125 255 
10.444 2.30581 2.98022 62 76 138 255 
14.2462 3.14495 3.91736 72 37 118 255 
10.3549 2.27862 2.75192 71 46 124 255 
10.2358 2.25413 2.60934 55 90 140 255 
12.8088 2.81853 3.13176 71 45 123 255 
16.6843 3.66793 3.91246 72 36 117 255 
16.7998 3.69989 3.79479 71 46 124 255 
12.5682 2.76545 2.70485 72 37 118 255 
10.576 2.3214 2.1695 71 47 125 255 
10.739 2.35305 2.09717 51 99 141 255 
10.7516 2.36787 2.00866 66 64 134 255 
10.8555 2.38662 1.91785 60 79 138 255 
10.9749 2.40494 1.82777 69 56 130 255 
11.0092 2.40221 1.72831 70 51 127 255 
11.1776 2.45964 1.66149 60 80 139 255 
11.3881 2.50163 1.57852 64 70 136 255 
28.2908 6.18388 3.64294 71 17 100 255 
28.041 6.10831 3.34592 71 19 101 255 
28.1388 6.19197 3.1249 71 19 101 255 
12.7926 2.80313 1.29562 65 68 135 255 
13.235 2.89052 1.21142 70 48 126 255 
12.6912 2.75765 1.04038 65 66 135 255 
12.7271 2.79828 0.940937 62 74 137 255 
26.5302 5.8085 1.70392 69 5 89 255 
35.3925 7.71031 1.93005 71 16 99 255 
38.3279 8.31419 1.71921 69 5 89 255 
46.8896 10.2924 1.72674 69 5 89 255 
46.8881 10.2485 1.27356 70 10 93 255 
0 0 0 68 1 84 255 
0 0 0 68 1 84 255 
38.1258 8.36176 -0.00681237 69 5 89 255 
38.0704 8.30725 -0.37406 70 8 92 255 
37.9885 8.25502 -0.732865 70 10 93 255 
31.1408 6.73241 -0.901068 70 7 90 255 
20.0913 4.39541 -0.746949 72 20 103 255 
16.4751 3.58897 -0.768625 70 48 126 255 
15.0539 3.26852 -0.847771 72 38 119 255 
12.6903 2.74124 -0.837299 72 35 116 255 
11.8289 2.58567 -0.878546 71 46 124 255 
10.8171 2.35247 -0.906227 66 63 133 255 
10.0911 2.18544 -0.943283 61 78 138 255 
9.30021 2.00894 -0.959759 70 52 128 255 
8.64256 1.88444 -0.964066 64 70 136 255 
8.14847 1.77061 -0.988417 61 77 138 255 
7.62284 1.6495 -0.999109 63 72 137 255 
7.17094 1.54638 -1.0101 62 74 137 255 
6.78084 1.47479 -1.01358 62 76 138 255 
6.44096 1.39723 -1.02502 56 88 140 255 
6.11992 1.32317 -1.03319 53 94 141 255 
5.84393 1.26022 -1.04552 53 95 141 255 
5.60119 1.21414 -1.05189 55 90 140 255 
5.36175 1.16018 -1.05839 52 96 141 255 
5.11229 1.10531 -1.06129 55 91 141 255 
4.93692 1.06552 -1.0763 56 88 140 255 
4.76341 1.02993 -1.08132 61 78 138 255 
4.56603 0.986332 -1.0819 61 77 138 255 
4.39241 0.948065 -1.08628 59 81 139 255 
4.21736 0.911762 -1.08861 62 73 137 255 
4.11051 0.885016 -1.09916 59 82 139 255 
3.98531 0.857975 -1.10606 61 78 138 255 
3.8444 0.82908 -1.10842 66 64 134 255 
3.67757 0.796406 -1.10246 68 58 131 255 
9.27327 1.97595 2.84818 61 77 138 255 
9.3843 2.00803 2.7754 60 79 138 255 
10.2263 2.19202 2.91419 62 74 137 255 
17.0841 3.66165 4.69144 71 17 100 255 
10.3432 2.20958 2.74513 71 42 122 255 
10.3548 2.2138 2.63616 57 86 140 255 
10.6448 2.27396 2.59919 72 31 112 255 
16.6931 3.56264 3.90933 72 40 120 255 
12.8201 2.74104 2.89197 67 61 132 255 
15.1229 3.23044 3.25034 68 57 131 255 
10.6073 2.26015 2.17304 69 56 130 255 
10.6389 2.2628 2.07487 51 98 141 255 
12.8333 2.74387 2.39438 71 13 96 255 
10.8776 2.32161 1.91921 59 82 139 255 
12.817 2.72629 2.13173 62 74 137 255 
12.1126 2.5652 1.89901 69 53 129 255 
12.2803 2.62339 1.82297 66 65 134 255 
16.3266 3.48161 2.26004 71 46 124 255 
28.2768 5.99926 3.63632 72 22 104 255 
11.2368 2.37565 1.33904 72 22 104 255 
28.2317 6.03104 3.13105 71 16 99 255 
13.2524 2.81878 1.34042 69 55 129 255 
12.5977 2.67045 1.15156 63 71 136 255 
12.6299 2.66327 1.03399 68 57 131 255 
33.7831 7.21081 2.49433 70 11 94 255 
33.6665 7.15472 2.15939 71 13 96 255 
36.1367 7.64048 1.96804 70 7 90 255 
42.2036 8.88412 1.89058 69 5 89 255 
37.9138 8.07866 1.39435 69 5 89 255 
46.8925 9.94837 1.272 70 8 92 255 
46.8119 9.88903 0.818432 71 13 96 255 
0 0 0 68 1 84 255 
0 0 -0 68 1 84 255 
65.0559 13.7781 -0.638364 69 4 87 255 
45.2065 9.53341 -0.870968 69 4 87 255 
31.3899 6.58492 -0.907089 69 5 89 255 
20.156 4.28015 -0.748364 72 20 103 255 
16.4949 3.4874 -0.768534 71 47 125 255 
14.8441 3.12771 -0.834858 71 42 122 255 
12.9482 2.71389 -0.853196 72 35 116 255 
11.8396 2.512 -0.878184 71 44 122 255 
10.8196 2.28358 -0.905248 67 61 132 255 
10.0799 2.11836 -0.941008 62 73 137 255 
9.28705 1.94653 -0.95715 70 50 126 255 
8.64813 1.83014 -0.963416 65 68 135 255 
8.14363 1.7173 -0.986534 61 77 138 255 
7.61437 1.59883 -0.996695 62 74 137 255 
7.20551 1.50763 -1.01364 62 74 137 255 
6.79848 1.435 -1.01488 60 79 138 255 
6.47649 1.36338 -1.02932 54 92 141 255 
6.13082 1.2862 -1.03368 54 93 141 255 
5.85444 1.22494 -1.04604 54 93 141 255 
5.60372 1.17874 -1.05098 55 90 140 255 
5.37742 1.12907 -1.0601 50 100 142 255 
5.12473 1.07513 -1.06248 53 94 141 255 
4.95006 1.03661 -1.07776 56 89 140 255 
4.7811 1.00309 -1.08392 58 84 140 255 
4.58058 0.960095 -1.08393 57 85 140 255 
4.38578 0.918506 -1.08322 62 76 138 255 
4.23711 0.888853 -1.09228 63 72 137 255 
4.11586 0.859777 -1.09916 59 82 139 255 
3.98483 0.832322 -1.10449 61 77 138 255 
3.82681 0.800744 -1.10191 66 65 134 255 
3.6899 0.775404 -1.10471 68 59 132 255 
9.26834 1.91552 2.843 48 106 142 255 
10.2552 2.12866 3.02905 64 70 136 255 
16.5736 3.44634 4.71687 72 40 120 255 
10.3776 2.15772 2.84609 63 72 137 255 
10.3869 2.15236 2.75317 64 69 136 255 
10.6276 2.20401 2.70211 71 45 123 255 
10.5862 2.1936 2.58154 66 65 134 255 
12.9023 2.67094 3.01767 72 33 115 255 
11.8374 2.45509 2.66686 70 50 126 255 
13.8546 2.87073 2.97389 70 10 93 255 
10.8054 2.23312 2.21076 48 106 142 255 
10.7613 2.2199 2.09605 54 92 141 255 
12.8595 2.66708 2.39618 71 44 122 255 
10.8126 2.23844 1.90527 51 98 141 255 
12.1259 2.50162 2.01419 67 62 133 255 
11.3409 2.32917 1.77576 72 41 121 255 
11.2157 2.3241 1.66278 71 47 125 255 
11.1433 2.30489 1.54055 56 89 140 255 
11.0963 2.28315 1.42512 54 93 141 255 
11.2765 2.31184 1.34205 72 32 113 255 
12.5833 2.6075 1.39376 72 40 120 255 
12.5589 2.59084 1.26864 60 80 139 255 
12.5875 2.58769 1.14916 67 62 133 255 
33.7777 6.90651 2.76181 71 13 96 255 
33.8238 7.00277 2.49411 71 14 97 255 
33.6628 6.93834 2.15638 72 20 103 255 
40.8197 8.3693 2.22024 69 4 87 255 
35.2967 7.20428 1.57916 69 5 89 255 
47.5047 9.81797 1.74482 70 7 90 255 
47.4304 9.75877 1.28494 70 8 92 255 
0 0 0 68 2 86 255 
0 0 0 68 1 84 255 
0 0 -0 68 1 84 255 
0 0 -0 68 2 86 255 
45.2602 9.25505 -0.870892 69 4 87 255 
31.1388 6.33302 -0.898693 69 5 89 255 
20.3502 4.19106 -0.754607 71 19 101 255 
16.5316 3.38934 -0.769262 70 52 128 255 
14.7926 3.02218 -0.830902 71 42 122 255 
13.0721 2.65625 -0.860275 72 36 117 255 
11.8548 2.43931 -0.878184 71 44 122 255 
10.8413 2.21875 -0.905901 68 59 132 255 
10.0908 2.05608 -0.940826 62 74 137 255 
9.31344 1.89248 -0.958655 71 45 123 255 
8.67283 1.77984 -0.964933 64 69 136 255 
8.13651 1.66372 -0.984415 60 79 138 255 
7.63279 1.55386 -0.997838 65 68 135 255 
7.20492 1.46142 -1.01228 61 77 138 255 
6.80521 1.39286 -1.01459 58 84 140 255 
6.48957 1.3246 -1.03009 53 94 141 255 
6.13377 1.24758 -1.03286 58 84 140 255 
5.86668 1.18997 -1.0469 57 86 140 255 
5.61952 1.1461 -1.05261 53 95 141 255 
5.37847 1.09488 -1.05896 53 95 141 255 
5.16004 1.04953 -1.06845 54 92 141 255 
4.95537 1.00603 -1.07755 57 85 140 255 
4.80152 0.976653 -1.08717 56 89 140 255 
4.60357 0.935463 -1.08799 60 80 139 255 
4.41229 0.895833 -1.08839 61 78 138 255 
4.25389 0.865157 -1.09521 64 69 136 255 
4.10684 0.831626 -1.09537 60 80 139 255 
3.95581 0.800961 -1.09507 62 74 137 255 
3.84014 0.77897 -1.10435 64 69 136 255 
3.69835 0.753515 -1.10584 69 55 129 255 
9.26113 1.85485 2.83725 62 73 137 255 
10.2643 2.06493 3.02793 70 51 127 255 
16.2545 3.27607 4.62024 72 35 116 255 
17.0643 3.43894 4.67407 72 26 108 255 
10.4786 2.1044 2.77402 66 63 133 255 
10.6314 2.13685 2.69969 61 77 138 255 
10.8483 2.17859 2.64216 58 83 139 255 
11.0997 2.22684 2.59283 71 44 122 255 
11.2013 2.25155 2.52038 72 35 116 255 
13.916 2.79453 2.98335 71 46 124 255 
12.7917 2.56189 2.61389 71 44 122 255 
10.818 2.16249 2.10448 55 90 140 255 
12.4764 2.50786 2.32187 71 46 124 255 
10.8106 2.16896 1.90255 61 78 138 255 
12.0239 2.40375 1.99476 72 28 110 255 
11.3084 2.25028 1.76848 66 63 133 255 
11.2627 2.26186 1.66767 67 62 133 255 
11.1019 2.22537 1.5329 67 61 132 255 
11.6267 2.31803 1.4914 72 40 120 255 
12.4186 2.46669 1.47615 63 72 137 255 
12.5075 2.51184 1.38362 65 68 135 255 
12.6702 2.53285 1.27829 66 63 133 255 
33.607 6.69416 3.0643 71 13 96 255 
34.0854 6.75181 2.78353 72 20 103 255 
34.0402 6.83003 2.50693 71 16 99 255 
33.8633 6.76332 2.16653 72 20 103 255 
35.4089 7.0338 1.92355 70 11 94 255 
35.0041 6.9211 1.56414 70 8 92 255 
41.5494 8.32168 1.52418 69 4 87 255 
47.2139 9.41263 1.27749 70 7 90 255 
0 0 0 69 4 87 255 
0 0 0 68 1 84 255 
0 0 -0 68 2 86 255 
66.6686 13.267 -0.652542 69 4 87 255 
0 0 -0 69 4 87 255 
32.1019 6.32404 -0.925352 70 8 92 255 
20.3755 4.06612 -0.754607 72 28 110 255 
16.6873 3.3147 -0.775546 71 45 123 255 
13.9234 2.75572 -0.781117 72 32 113 255 
13.1362 2.58543 -0.863429 72 40 120 255 
11.8725 2.36711 -0.878401 71 42 122 255 
10.8869 2.15859 -0.908593 66 64 134 255 
10.0866 1.99084 -0.93928 66 65 134 255 
9.31512 1.83338 -0.957651 70 52 128 255 
8.69723 1.72931 -0.96645 64 69 136 255 
8.14656 1.61377 -0.984415 60 80 139 255 
7.64899 1.50834 -0.998728 65 68 135 255 
7.21763 1.41794 -1.01282 60 79 138 255 
6.80975 1.35031 -1.01401 59 81 139 255 
6.47431 1.28016 -1.0264 57 86 140 255 
6.12678 1.20706 -1.03042 55 90 140 255 
5.88547 1.15623 -1.04897 57 85 140 255 
5.62452 1.11122 -1.05225 51 99 141 255 
5.3822 1.06129 -1.05839 52 96 141 255 
5.16735 1.01803 -1.06865 55 90 140 255 
4.95473 0.974281 -1.07609 56 89 140 255 
4.80167 0.946041 -1.08587 59 81 139 255 
4.61496 0.908328 -1.08935 58 84 140 255 
4.41484 0.86818 -1.08769 61 78 138 255 
4.23914 0.835104 -1.09007 62 73 137 255 
4.10617 0.805294 -1.09385 61 78 138 255 
4.008 0.785959 -1.10816 61 77 138 255 
3.84485 0.755393 -1.10435 62 74 137 255 
3.7255 0.735268 -1.11259 68 59 132 255 
12.3957 2.40365 3.79297 70 50 126 255 
10.5917 2.06326 3.12073 60 79 138 255 
14.6746 2.86405 4.16608 72 31 112 255 
17.1249 3.34194 4.68496 71 19 101 255 
15.928 3.09723 4.21153 72 37 118 255 
10.6938 2.08122 2.71225 72 40 120 255 
10.6877 2.07819 2.59989 62 76 138 255 
11.1112 2.15832 2.59238 63 71 136 255 
12.0085 2.33725 2.69875 69 56 130 255 
12.1049 2.35364 2.59192 63 71 136 255 
12.0246 2.33161 2.45417 61 78 138 255 
12.0607 2.33403 2.34339 69 55 129 255 
12.1062 2.35627 2.25025 71 44 122 255 
36.0678 7.00641 6.33985 70 8 92 255 
15.9427 3.08557 2.6417 72 36 117 255 
34.0748 6.56348 5.32243 71 13 96 255 
11.2637 2.19026 1.6658 66 64 134 255 
11.8381 2.29749 1.63258 70 52 128 255 
12.0119 2.31828 1.53895 71 44 122 255 
13.0812 2.51497 1.55305 71 44 122 255 
12.8691 2.50242 1.4219 70 51 127 255 
12.8399 2.48494 1.29385 72 27 109 255 
28.4406 5.48383 2.5901 70 11 94 255 
35.4175 6.7901 2.88885 71 14 97 255 
34.0951 6.6237 2.50794 71 19 101 255 
34.2177 6.61604 2.18656 71 19 101 255 
35.3445 6.79585 1.91775 70 8 92 255 
35.0488 6.70676 1.56427 71 13 96 255 
42.3532 8.21268 1.55179 70 8 92 255 
47.8303 9.23073 1.29261 70 7 90 255 
47.0557 9.03909 0.819646 69 4 87 255 
0 0 0 68 2 86 255 
0 0 -0 68 1 84 255 
66.8283 12.873 -0.653319 69 4 87 255 
52.3421 10.0356 -1.00472 69 4 87 255 
31.1877 5.94537 -0.89793 69 5 89 255 
20.562 3.9723 -0.760595 72 26 108 255 
16.7014 3.21111 -0.775273 70 50 126 255 
13.7371 2.63135 -0.769742 72 38 119 255 
13.2508 2.52364 -0.869929 69 56 130 255 
11.9034 2.29743 -0.879631 71 46 124 255 
10.901 2.09193 -0.908675 66 63 133 255 
10.0898 1.92724 -0.938461 62 73 137 255 
9.31642 1.77433 -0.956648 71 47 125 255 
8.70378 1.67516 -0.966016 63 71 136 255 
8.17191 1.56674 -0.986298 61 77 138 255 
7.6542 1.46063 -0.99822 66 64 134 255 
7.23398 1.37511 -1.01391 62 76 138 255 
6.8111 1.30719 -1.013 57 85 140 255 
6.4869 1.24134 -1.02717 54 92 141 255 
6.15346 1.17313 -1.03368 57 85 140 255 
5.88955 1.11955 -1.04845 58 83 139 255 
5.65732 1.08167 -1.05712 52 96 141 255 
5.41272 1.03285 -1.06313 52 97 141 255 
5.17638 0.986859 -1.06924 57 85 140 255 
4.96158 0.944044 -1.0763 60 80 139 255 
4.7978 0.914732 -1.0837 62 76 138 255 
4.60131 0.876348 -1.08483 60 80 139 255 
4.42868 0.84271 -1.0898 61 78 138 255 
4.26418 0.81289 -1.09521 61 78 138 255 
4.11008 0.779904 -1.0936 60 79 138 255 
3.98525 0.756135 -1.10057 62 73 137 255 
3.84468 0.730888 -1.10299 65 66 135 255 
3.71769 0.710055 -1.10893 68 58 131 255 
12.2549 2.29841 3.7455 72 40 120 255 
10.5787 1.99343 3.11322 66 64 134 255 
11.677 2.20472 3.31117 62 73 137 255 
11.6911 2.20714 3.19462 72 29 111 255 
11.7669 2.21326 3.10765 68 59 132 255 
11.886 2.23764 3.01109 71 42 122 255 
10.6859 2.00988 2.5964 64 69 136 255 
10.7995 2.02908 2.5167 64 69 136 255 
10.8845 2.04924 2.44326 70 50 126 255 
12.9673 2.43886 2.77334 66 63 133 255 
12.9638 2.43129 2.64277 71 46 124 255 
16.0846 3.01048 3.12159 72 24 106 255 
16.2138 3.0526 3.01021 72 29 111 255 
11.5705 2.17407 2.03144 71 19 101 255 
15.7479 2.94774 2.60638 68 57 131 255 
12.0873 2.25143 1.88583 71 45 123 255 
12.2019 2.29507 1.80243 62 73 137 255 
12.2542 2.30031 1.68799 67 62 133 255 
13.7386 2.56419 1.75813 68 57 131 255 
12.7771 2.37529 1.51518 72 24 106 255 
12.8871 2.42396 1.42222 69 53 129 255 
36.5233 6.83622 3.67608 70 8 92 255 
13.3204 2.48372 1.21168 71 46 124 255 
38.1518 7.07189 3.10828 69 5 89 255 
34.6213 6.50573 2.54366 71 14 97 255 
34.4774 6.44705 2.20059 71 16 99 255 
35.1706 6.53888 1.9061 72 22 104 255 
35.4086 6.55064 1.5785 71 13 96 255 
47.3247 8.87576 1.73192 69 5 89 255 
0 0 0 68 1 84 255 
0 0 0 68 2 86 255 
0 0 0 68 1 84 255 
0 0 -0 68 1 84 255 
0 0 -0 69 4 87 255 
53.3514 9.89015 -1.0229 69 5 89 255 
32.3629 5.96386 -0.930695 70 7 90 255 
20.8041 3.8868 -0.768653 72 20 103 255 
16.874 3.13705 -0.782377 72 40 120 255 
14.4324 2.67283 -0.807768 72 32 113 255 
13.2788 2.44463 -0.870766 72 40 120 255 
11.9271 2.22618 -0.880355 72 38 119 255 
10.8901 2.02064 -0.906716 68 57 131 255 
10.0877 1.86276 -0.937187 66 65 134 255 
9.36138 1.72343 -0.960161 69 55 129 255 
8.72953 1.62463 -0.96775 66 65 134 255 
8.19016 1.5182 -0.987357 61 77 138 255 
7.68351 1.41742 -1.00089 67 62 133 255 
7.23741 1.3298 -1.01323 62 76 138 255 
6.819 1.26538 -1.013 60 79 138 255 
6.51091 1.20457 -1.02978 52 97 141 255 
6.16442 1.13607 -1.03433 57 86 140 255 
5.89921 1.08392 -1.04897 56 88 140 255 
5.62999 1.04068 -1.0508 55 91 141 255 
5.43247 1.00211 -1.06578 51 99 141 255 
5.19873 0.958098 -1.07262 53 94 141 255 
4.97978 0.915882 -1.07901 58 84 140 255 
4.82828 0.889877 -1.08933 64 69 136 255 
4.60564 0.847922 -1.08461 56 88 140 255 
4.4309 0.814993 -1.0891 61 77 138 255 
4.26051 0.785129 -1.09301 62 73 137 255 
4.13858 0.759034 -1.09992 61 78 138 255 
4.00785 0.734975 -1.10554 62 76 138 255 
3.84531 0.706588 -1.10191 66 65 134 255 
3.72292 0.687404 -1.10921 68 58 131 255 
11.4018 2.06607 3.48082 72 38 119 255 
10.671 1.94311 3.13684 65 68 135 255 
11.6524 2.12612 3.30044 65 68 135 255 
11.7044 2.13536 3.19462 72 37 118 255 
16.7419 3.04277 4.41653 72 23 105 255 
10.4407 1.89929 2.64195 66 65 134 255 
10.6981 1.94427 2.5964 69 55 129 255 
12.9927 2.35872 3.02437 67 62 133 255 
10.8949 1.98207 2.44283 70 52 128 255 
11.0313 2.00474 2.35661 62 73 137 255 
11.1232 2.01552 2.26498 60 79 138 255 
11.262 2.03641 2.18318 66 64 134 255 
11.3561 2.06596 2.10595 64 70 136 255 
11.572 2.10092 2.0294 68 58 131 255 
11.8534 2.14356 1.9596 65 66 135 255 
12.0931 2.17582 1.88461 64 70 136 255 
12.2605 2.2283 1.80903 71 44 122 255 
13.7697 2.49742 1.8946 72 31 112 255 
34.5746 6.23377 4.41953 71 19 101 255 
35.3279 6.34354 4.18469 70 8 92 255 
12.9712 2.35746 1.42988 70 51 127 255 
13.3307 2.41059 1.34022 66 65 134 255 
13.3402 2.40283 1.21213 63 71 136 255 
13.155 2.35505 1.07056 68 59 132 255 
0 0 0 69 4 87 255 
35.8756 6.48094 2.28725 70 10 93 255 
35.3663 6.35102 1.91456 70 10 93 255 
0 0 0 68 2 86 255 
47.0282 8.52178 1.71912 70 8 92 255 
47.9459 8.64415 1.29277 69 4 87 255 
0 0 0 68 2 86 255 
0 0 0 68 1 84 255 
0 0 -0 68 1 84 255 
0 0 -0 69 4 87 255 
53.7083 9.61582 -1.0286 69 5 89 255 
32.8693 5.84888 -0.944209 70 7 90 255 
20.6544 3.72783 -0.762265 72 22 104 255 
16.9362 3.04123 -0.784381 72 38 119 255 
15.1031 2.70131 -0.844364 70 48 126 255 
13.2592 2.357 -0.868513 72 38 119 255 
12.0024 2.1641 -0.884914 71 47 125 255 
10.9111 1.95537 -0.907451 70 52 128 255 
10.0705 1.79576 -0.934549 65 66 135 255 
9.42271 1.67502 -0.965379 69 55 129 255 
8.75988 1.57473 -0.970025 63 72 137 255 
8.20226 1.46844 -0.987711 63 71 136 255 
7.70378 1.37233 -1.00241 66 64 134 255 
7.2269 1.28208 -1.01064 63 72 137 255 
6.83345 1.22474 -1.01401 55 90 140 255 
6.50845 1.16286 -1.02824 52 96 141 255 
6.20819 1.10479 -1.04051 56 88 140 255 
5.91254 1.04891 -1.05018 55 91 141 255 
5.6537 1.00923 -1.05405 56 89 140 255 
5.40565 0.962901 -1.05934 51 98 141 255 
5.19679 0.924808 -1.07103 55 90 140 255 
4.98723 0.885652 -1.07943 59 81 139 255 
4.82692 0.859037 -1.08782 61 78 138 255 
4.60788 0.819135 -1.08393 61 78 138 255 
4.42816 0.78643 -1.08722 57 86 140 255 
4.26524 0.758972 -1.09301 64 69 136 255 
4.12696 0.730758 -1.09562 60 79 138 255 
4.01894 0.711547 -1.10737 60 79 138 255 
3.8145 0.67676 -1.09187 68 59 132 255 
3.72896 0.664885 -1.10977 69 55 129 255 
12.7964 2.23777 3.90229 72 33 115 255 
11.3101 1.98785 3.32103 72 41 121 255 
15.0454 2.64993 4.2568 72 32 113 255 
13.0574 2.29952 3.56001 69 4 87 255 
13.066 2.29196 3.44304 71 42 122 255 
10.4484 1.83452 2.64099 61 77 138 255 
