ply
format ascii 1.0
comment VTK generated PLY File
obj_info vtkPolyData points and polygons: vtk4.0
element vertex 1168
property float x
property float y
property float z
property uchar red
property uchar green
property uchar blue
property uchar alpha
element face 0
property list uchar int vertex_indices
end_header
-18.3926 0.0757785 4.05738 71 17 100 255 
-18.4027 0.0792798 3.86803 71 13 96 255 
-18.2265 0.0879027 3.65199 61 78 138 255 
-18.2251 0.0945748 3.47667 64 70 136 255 
-18.2309 0.075112 3.32629 61 77 138 255 
-18.2344 0.0817366 3.14637 58 84 140 255 
-18.2173 0.094216 2.96365 60 79 138 255 
-18.2453 0.110577 2.79849 62 76 138 255 
-18.2198 0.078242 2.64502 57 85 140 255 
-18.2117 0.084813 2.46558 57 86 140 255 
-18.2112 0.103718 2.29096 62 76 138 255 
-18.2133 0.116731 2.1235 63 72 137 255 
-18.212 0.0782085 1.97526 59 81 139 255 
-18.2148 0.0943639 1.80205 57 85 140 255 
-18.1552 0.106568 1.62353 62 74 137 255 
-18.1903 0.126095 1.4572 63 71 136 255 
-18.1855 0.0812639 1.31314 59 82 139 255 
-18.18 0.097356 1.14062 57 86 140 255 
-28.2154 0.180391 1.50343 69 4 87 255 
-18.275 0.133052 0.801119 47 108 142 255 
-27.7777 0.13381 0.999156 69 4 87 255 
-0 0 0 68 1 84 255 
-0 0 0 68 2 86 255 
-33.388 0.254721 0.262242 70 7 90 255 
-0 0 -0 68 2 86 255 
-33.3469 0.201854 -0.320123 69 5 89 255 
-18.2293 0.12609 -0.343664 60 79 138 255 
-18.2241 0.145387 -0.515429 72 22 104 255 
-18.2387 0.100574 -0.662418 72 22 104 255 
-18.2027 0.116537 -0.829781 72 27 109 255 
-18.176 0.128894 -1.00031 72 20 103 255 
-18.1736 0.148152 -1.17209 72 24 106 255 
-18.1211 0.103083 -1.31485 72 41 121 255 
-17.6406 0.119095 -1.44415 72 40 120 255 
-17.3383 0.13203 -1.58406 72 24 106 255 
-15.4411 0.125876 -1.55761 72 27 109 255 
-13.806 0.0857546 -1.50471 72 32 113 255 
-12.5002 0.0865726 -1.48174 72 37 118 255 
-11.4293 0.0890279 -1.46417 71 47 125 255 
-10.4778 0.0890673 -1.44278 71 42 122 255 
-9.72657 0.0655009 -1.42072 68 57 131 255 
-9.10431 0.0662313 -1.41597 64 70 136 255 
-8.47709 0.0675115 -1.39886 64 70 136 255 
-7.95793 0.0676472 -1.39179 64 69 136 255 
-7.51625 0.0558554 -1.37953 63 71 136 255 
-7.08119 0.0552209 -1.36623 62 76 138 255 
-6.73553 0.0536417 -1.36673 64 69 136 255 
-6.3541 0.0529061 -1.35413 66 64 134 255 
-6.07213 0.0482982 -1.34731 63 72 137 255 
-5.73792 0.0467484 -1.32897 61 78 138 255 
-5.46149 0.0454016 -1.32031 67 61 132 255 
-5.27455 0.0420788 -1.33079 63 71 136 255 
-5.07138 0.0447567 -1.32577 61 78 138 255 
-4.86299 0.0430146 -1.31947 66 65 134 255 
-4.69588 0.0398566 -1.32354 68 57 131 255 
-4.49203 0.0342703 -1.31615 68 58 131 255 
-18.3517 0.201016 5.5131 72 24 106 255 
-18.3798 0.185549 5.31576 72 26 108 255 
-18.3799 0.178975 5.12164 72 22 104 255 
-18.3974 0.179507 4.94014 71 19 101 255 
-18.3354 0.19125 4.7592 72 23 105 255 
-18.3479 0.18843 4.5681 65 66 135 255 
-18.3792 0.191798 4.38896 71 19 101 255 
-18.419 0.195767 4.21876 71 13 96 255 
-18.3811 0.188522 4.05501 71 19 101 255 
-18.3608 0.191766 3.8594 71 16 99 255 
-18.2266 0.199748 3.65218 62 76 138 255 
-18.2045 0.206178 3.47293 64 70 136 255 
-18.2193 0.186862 3.32432 60 80 139 255 
-18.2227 0.193504 3.1445 59 82 139 255 
-18.2213 0.206049 2.96445 58 83 139 255 
-18.2146 0.222165 2.79394 61 78 138 255 
-18.2121 0.189963 2.64402 59 82 139 255 
-18.2068 0.196513 2.46504 57 86 140 255 
-18.1884 0.2152 2.28821 56 89 140 255 
-18.1804 0.228085 2.11979 62 76 138 255 
-18.1923 0.189757 1.97321 58 83 139 255 
-18.1791 0.205732 1.79861 59 81 139 255 
-18.1542 0.217965 1.62353 61 77 138 255 
-18.1752 0.237523 1.45608 61 78 138 255 
-18.1677 0.192667 1.31191 61 77 138 255 
-18.1491 0.20856 1.13874 57 85 140 255 
-0 0 0 68 2 86 255 
-18.2498 0.244861 0.800068 48 105 142 255 
-33.4064 0.365917 1.20168 70 11 94 255 
-18.2183 0.215715 0.483461 72 31 112 255 
-18.1939 0.231142 0.311248 71 19 101 255 
-33.3958 0.459719 0.26232 69 4 87 255 
-33.3609 0.371234 -0.00582294 70 11 94 255 
-33.371 0.406779 -0.320372 71 13 96 255 
-18.2212 0.23785 -0.343532 57 86 140 255 
-18.1899 0.25674 -0.514496 72 24 106 255 
-18.1798 0.211807 -0.660313 72 24 106 255 
-18.1797 0.227949 -0.82878 72 23 105 255 
-18.1659 0.240298 -0.999819 72 24 106 255 
-18.1544 0.259404 -1.17093 72 23 105 255 
-18.0802 0.213798 -1.31196 72 40 120 255 
-17.6236 0.227128 -1.44285 72 40 120 255 
-17.3939 0.239194 -1.58924 72 22 104 255 
-15.4659 0.220988 -1.56022 72 29 111 255 
-13.7943 0.17033 -1.50352 72 33 115 255 
-12.4895 0.163141 -1.48057 72 41 121 255 
-11.4047 0.158823 -1.46112 71 46 124 255 
-10.4721 0.153283 -1.4421 71 47 125 255 
-9.74874 0.125474 -1.42404 69 56 130 255 
-9.12152 0.122332 -1.41873 66 63 133 255 
-8.47849 0.119553 -1.39918 63 71 136 255 
-7.96327 0.116561 -1.39283 64 69 136 255 
-7.51379 0.101946 -1.37917 63 71 136 255 
-7.09545 0.0988745 -1.36907 63 71 136 255 
-6.70469 0.0945407 -1.36056 67 62 133 255 
-6.35854 0.0919639 -1.35517 68 59 132 255 
-6.06489 0.0854589 -1.3458 66 63 133 255 
-5.73948 0.0819826 -1.32942 62 73 137 255 
-5.47083 0.0790522 -1.32266 64 69 136 255 
-5.26449 0.0743052 -1.32834 66 65 134 255 
-5.05553 0.0756417 -1.32173 62 73 137 255 
-4.89255 0.0733007 -1.32759 66 64 134 255 
-4.68881 0.0685707 -1.32164 67 62 133 255 
-4.52532 0.0622945 -1.32599 68 59 132 255 
-18.3683 0.313927 5.51856 72 24 106 255 
-18.4062 0.298775 5.32382 72 27 109 255 
-18.4276 0.292528 5.13532 72 26 108 255 
-18.3883 0.292266 4.93806 71 19 101 255 
-18.3523 0.304055 4.76398 72 24 106 255 
-18.3358 0.300832 4.56544 70 48 126 255 
-18.3865 0.304712 4.39106 71 16 99 255 
-18.3629 0.307865 4.20626 71 16 99 255 
-18.3708 0.301159 4.05307 71 14 97 255 
-18.369 0.304584 3.86145 71 16 99 255 
-18.2133 0.311379 3.64983 61 77 138 255 
-18.1872 0.3176 3.46993 63 71 136 255 
-18.1902 0.298198 3.31929 62 76 138 255 
-18.2103 0.305131 3.14263 59 81 139 255 
-18.2078 0.317642 2.96252 61 77 138 255 
-18.1803 0.333325 2.78894 61 78 138 255 
-18.2056 0.301625 2.6433 58 84 140 255 
-18.1875 0.307923 2.46263 59 82 139 255 
-18.1639 0.326387 2.28534 59 82 139 255 
-18.1529 0.339151 2.11678 62 74 137 255 
-18.1888 0.301346 1.973 62 76 138 255 
-18.1705 0.317151 1.79792 57 86 140 255 
-18.1476 0.329262 1.62309 60 79 138 255 
-18.1435 0.348466 1.45369 62 73 137 255 
-18.1821 0.304405 1.31306 60 80 139 255 
-18.1435 0.319847 1.13849 57 86 140 255 
-0 0 0 68 2 86 255 
-18.233 0.356542 0.799411 48 105 142 255 
-33.3386 0.569778 1.19934 70 11 94 255 
-18.2066 0.327317 0.483196 71 45 123 255 
-18.1901 0.342735 0.311213 71 17 100 255 
-33.3634 0.664046 0.262093 69 5 89 255 
-33.385 0.576392 -0.00582765 71 19 101 255 
-33.3789 0.611734 -0.320478 71 16 99 255 
-18.2134 0.349533 -0.343419 57 86 140 255 
-18.152 0.367618 -0.513478 72 23 105 255 
-18.1422 0.322712 -0.659006 72 28 110 255 
-18.1859 0.339643 -0.829144 72 29 111 255 
-18.1362 0.351217 -0.99828 72 23 105 255 
-18.1196 0.37012 -1.16881 72 24 106 255 
-18.1085 0.32527 -1.31413 71 45 123 255 
-17.6308 0.335431 -1.44358 72 41 121 255 
-17.3901 0.345877 -1.58906 72 20 103 255 
-15.3449 0.313443 -1.54818 72 27 109 255 
-13.7572 0.254305 -1.49962 72 35 116 255 
-12.4694 0.23941 -1.47833 72 41 121 255 
-11.3876 0.22848 -1.45908 71 47 125 255 
-10.4392 0.216877 -1.43773 71 46 124 255 
-9.71613 0.184687 -1.41942 70 52 128 255 
-9.10182 0.177931 -1.41581 64 69 136 255 
-8.47661 0.171553 -1.39902 66 64 134 255 
-7.95847 0.165339 -1.39214 65 66 135 255 
-7.51499 0.148087 -1.37953 62 74 137 255 
-7.09569 0.142429 -1.36926 63 72 137 255 
-6.69223 0.13544 -1.35818 64 70 136 255 
-6.35884 0.130998 -1.35538 68 57 131 255 
-6.05254 0.122434 -1.3432 64 69 136 255 
-5.74763 0.117377 -1.33145 61 77 138 255 
-5.46149 0.112439 -1.32055 65 68 135 255 
-5.26588 0.106645 -1.32883 66 63 133 255 
-5.07819 0.10715 -1.3278 62 76 138 255 
-4.89683 0.103421 -1.3289 63 72 137 255 
-4.66521 0.0968599 -1.31513 68 58 131 255 
-4.52965 0.0901557 -1.3274 67 62 133 255 
-18.3756 0.42685 5.52144 72 27 109 255 
-18.4309 0.412309 5.3316 72 22 104 255 
-18.3725 0.404426 5.12056 72 24 106 255 
-18.3823 0.405003 4.93703 72 26 108 255 
-18.3791 0.417316 4.77151 72 27 109 255 
-18.3549 0.413814 4.57075 72 41 121 255 
-18.3677 0.417148 4.38711 72 20 103 255 
-18.3587 0.420487 4.20581 70 11 94 255 
-18.351 0.413478 4.0492 71 19 101 255 
-18.3805 0.4176 3.86433 71 14 97 255 
-18.1895 0.422627 3.6455 62 74 137 255 
-18.18 0.429073 3.46899 62 73 137 255 
-18.1851 0.40974 3.31875 62 76 138 255 
-18.1844 0.41632 3.13855 59 81 139 255 
-18.1937 0.429078 2.9606 59 82 139 255 
-18.17 0.444678 2.78773 63 72 137 255 
-18.1738 0.412653 2.63899 57 86 140 255 
-18.1674 0.419102 2.46021 58 84 140 255 
-18.1725 0.438096 2.28671 57 85 140 255 
-18.1494 0.450504 2.11667 62 76 138 255 
-18.1628 0.412404 1.97041 61 77 138 255 
-18.1443 0.428074 1.79556 58 83 139 255 
-18.1432 0.440559 1.62291 59 81 139 255 
-18.1341 0.459609 1.45313 61 78 138 255 
-18.144 0.415141 1.31047 60 80 139 255 
-18.1452 0.431262 1.13874 57 85 140 255 
-19.3985 0.481202 1.03393 71 17 100 255 
-18.2305 0.468411 0.799411 46 110 142 255 
-33.3045 0.773633 1.19826 70 10 93 255 
-18.1883 0.438639 0.482771 71 44 122 255 
-18.1637 0.453742 0.310803 71 14 97 255 
-33.3447 0.868383 0.261983 69 4 87 255 
-33.3229 0.779871 -0.00581753 71 14 97 255 
-33.3115 0.81499 -0.319873 71 13 96 255 
-18.1999 0.461004 -0.343211 53 95 141 255 
-18.1464 0.47891 -0.513394 72 23 105 255 
-18.1428 0.434096 -0.659115 72 27 109 255 
-18.1406 0.450157 -0.827186 72 28 110 255 
-18.1676 0.463357 -1.00015 72 26 108 255 
-18.1249 0.481504 -1.16932 72 27 109 255 
-18.0991 0.436207 -1.31362 71 46 124 255 
-17.6085 0.443103 -1.44195 70 48 126 255 
-17.3877 0.452574 -1.58906 72 24 106 255 
-15.3517 0.40783 -1.54908 72 28 110 255 
-13.7255 0.337979 -1.49637 72 40 120 255 
-12.4727 0.316042 -1.47892 72 36 117 255 
-11.3384 0.297102 -1.45298 71 45 123 255 
-10.4298 0.280714 -1.43664 68 57 131 255 
-9.73064 0.244698 -1.42173 70 52 128 255 
-9.07389 0.23309 -1.41167 66 64 134 255 
-8.43891 0.222599 -1.393 67 62 133 255 
-7.9317 0.213479 -1.38766 66 63 133 255 
-7.51296 0.19417 -1.37935 63 71 136 255 
-7.08192 0.18563 -1.3668 63 71 136 255 
-6.69715 0.176655 -1.35937 67 61 132 255 
-6.34911 0.169777 -1.3535 66 65 134 255 
-6.04582 0.159415 -1.3419 64 69 136 255 
-5.74485 0.15259 -1.331 61 78 138 255 
-5.45876 0.145896 -1.32008 63 72 137 255 
-5.28839 0.139568 -1.3347 64 69 136 255 
-5.06679 0.138018 -1.32502 64 69 136 255 
-4.88935 0.133282 -1.32707 65 66 135 255 
-4.66934 0.125613 -1.31649 66 63 133 255 
-4.5127 0.117523 -1.32262 69 53 129 255 
-18.387 0.540014 5.52575 72 22 104 255 
-18.4136 0.52498 5.32743 72 26 108 255 
-18.3552 0.516743 5.11654 72 26 108 255 
-18.3707 0.517542 4.93469 72 23 105 255 
-18.3588 0.529578 4.76699 72 26 108 255 
-18.3181 0.525456 4.5623 72 31 112 255 
-18.3425 0.529198 4.38176 71 14 97 255 
-18.3344 0.532504 4.2009 71 16 99 255 
-18.3355 0.525706 4.0464 71 14 97 255 
-18.3434 0.529385 3.85713 71 14 97 255 
-18.1944 0.534458 3.64708 60 79 138 255 
-18.1878 0.540937 3.47105 60 79 138 255 
-18.1813 0.521285 3.31857 59 82 139 255 
-18.1825 0.527918 3.13872 57 85 140 255 
-18.1641 0.539913 2.95626 60 79 138 255 
-18.1521 0.555705 2.78545 61 77 138 255 
-18.156 0.523729 2.63683 58 83 139 255 
-18.1615 0.53048 2.45981 58 84 140 255 
-18.1625 0.549382 2.28584 60 80 139 255 
-18.1453 0.561827 2.11655 60 80 139 255 
-18.1301 0.522981 1.96717 60 80 139 255 
-18.1215 0.538806 1.79359 60 80 139 255 
-18.1382 0.551815 1.62273 59 81 139 255 
-18.1349 0.570994 1.45345 64 70 136 255 
-18.1291 0.526116 1.30961 59 81 139 255 
-18.1412 0.542561 1.13868 58 84 140 255 
-18.1885 0.562876 0.969599 69 4 87 255 
-18.1404 0.577496 0.795601 59 82 139 255 
-33.3041 0.978117 1.19844 70 11 94 255 
-33.302 1.00762 0.884081 70 11 94 255 
-33.315 1.03681 0.570159 70 10 93 255 
-33.3087 1.072 0.261747 70 7 90 255 
-33.3085 0.984056 -0.00581596 70 11 94 255 
-33.3339 1.02023 -0.320142 70 10 93 255 
-18.1998 0.572762 -0.343268 54 93 141 255 
-18.1441 0.590278 -0.513422 72 24 106 255 
-18.1488 0.545681 -0.659442 72 28 110 255 
-18.1395 0.561519 -0.827277 72 29 111 255 
-18.1454 0.574222 -0.999104 72 27 109 255 
-18.1127 0.592414 -1.16874 72 26 108 255 
-18.0971 0.547283 -1.31369 71 47 125 255 
-17.6144 0.551419 -1.44269 71 47 125 255 
-17.3696 0.558774 -1.5877 72 20 103 255 
-15.3399 0.501725 -1.54818 72 27 109 255 
-13.6815 0.420907 -1.49182 72 41 121 255 
-12.4338 0.391411 -1.47456 71 42 122 255 
-11.3146 0.365962 -1.45019 71 42 122 255 
-10.4229 0.344541 -1.43596 70 51 127 255 
-9.725 0.304276 -1.42115 70 50 126 255 
-9.0476 0.287976 -1.40782 66 65 134 255 
-8.43245 0.274215 -1.39218 66 63 133 255 
-7.91547 0.261655 -1.38507 68 59 132 255 
-7.49098 0.239605 -1.37556 62 76 138 255 
-7.07967 0.229049 -1.36661 62 73 137 255 
-6.70671 0.218095 -1.36156 66 64 134 255 
-6.33231 0.208217 -1.35017 70 52 128 255 
-6.0418 0.196413 -1.34125 64 69 136 255 
-5.72921 0.187359 -1.32761 65 68 135 255 
-5.4665 0.179675 -1.32219 61 77 138 255 
-5.2884 0.172046 -1.33495 67 61 132 255 
-5.04748 0.168491 -1.32021 61 78 138 255 
-4.88265 0.163086 -1.3255 67 61 132 255 
-4.67425 0.154452 -1.31811 67 61 132 255 
-4.49751 0.144747 -1.3184 68 57 131 255 
-18.3508 0.651669 5.51597 72 24 106 255 
-18.3899 0.637256 5.3216 72 24 106 255 
-18.369 0.629953 5.12137 72 22 104 255 
-18.3778 0.630617 4.93754 71 19 101 255 
-18.3465 0.641911 4.76473 72 28 110 255 
-18.2951 0.637168 4.55747 72 24 106 255 
-18.3292 0.641395 4.37944 71 17 100 255 
-18.3181 0.644546 4.198 71 17 100 255 
-18.3221 0.637861 4.04424 71 16 99 255 
-18.3075 0.640798 3.85034 71 16 99 255 
-18.1878 0.645982 3.64649 60 80 139 255 
-18.1577 0.651574 3.46599 64 69 136 255 
-18.1738 0.632697 3.31786 57 85 140 255 
-18.1691 0.639128 3.13702 58 84 140 255 
-18.1634 0.651461 2.95674 57 85 140 255 
-18.1454 0.666965 2.785 61 78 138 255 
-18.1644 0.635538 2.63856 60 80 139 255 
-18.1599 0.641977 2.46008 57 86 140 255 
-18.133 0.659876 2.28259 60 80 139 255 
-18.1376 0.673007 2.11609 60 80 139 255 
-18.1047 0.63345 1.9648 61 78 138 255 
-18.1159 0.649916 1.79339 59 81 139 255 
-18.1205 0.662589 1.62149 60 79 138 255 
-18.13 0.68222 1.45337 63 72 137 255 
-18.1086 0.636748 1.30838 59 81 139 255 
-18.1266 0.653468 1.13799 60 79 138 255 
-0 0 0 68 2 86 255 
-18.1505 0.689324 0.796214 60 80 139 255 
-33.2875 1.18209 1.19808 70 10 93 255 
-33.3092 1.21245 0.884453 70 8 92 255 
-18.1438 0.67612 0.310581 70 8 92 255 
-18.1101 0.694114 0.142344 72 22 104 255 
-33.2928 1.18809 -0.00581439 71 14 97 255 
-33.334 1.225 -0.320209 72 23 105 255 
-18.1789 0.683784 -0.342947 52 96 141 255 
-18.1552 0.702177 -0.513846 72 28 110 255 
-18.1631 0.657681 -0.660095 72 32 113 255 
-18.1546 0.673514 -0.828142 72 32 113 255 
-18.1396 0.685474 -0.998994 72 24 106 255 
-18.1037 0.703346 -1.16842 72 28 110 255 
-18.0715 0.657517 -1.3121 72 41 121 255 
-17.6157 0.659676 -1.44309 71 46 124 255 
-17.3002 0.662825 -1.58169 72 20 103 255 
-15.3236 0.595338 -1.54688 72 26 108 255 
-13.6607 0.504187 -1.48987 72 36 117 255 
-12.4103 0.466911 -1.47209 72 38 119 255 
-11.3349 0.436257 -1.45311 71 44 122 255 
-10.4018 0.407751 -1.43337 71 45 123 255 
-9.71801 0.363757 -1.42043 69 53 129 255 
-9.04072 0.343298 -1.40705 67 62 133 255 
-8.43554 0.326141 -1.393 66 65 134 255 
-7.92553 0.310681 -1.38714 67 62 133 255 
-7.49724 0.285864 -1.377 62 76 138 255 
-7.08598 0.272787 -1.36812 61 77 138 255 
-6.70427 0.259205 -1.36136 65 66 135 255 
-6.30941 0.246228 -1.34558 69 55 129 255 
-6.01414 0.232463 -1.3354 65 66 135 255 
-5.726 0.222434 -1.32716 64 69 136 255 
-5.47015 0.213403 -1.32336 65 68 135 255 
-5.26108 0.20348 -1.32834 68 59 132 255 
-5.01928 0.198389 -1.31313 64 69 136 255 
-4.86902 0.192547 -1.32209 66 65 134 255 
-4.66263 0.182715 -1.31513 68 58 131 255 
-4.48791 0.172009 -1.31587 71 47 125 255 
-18.3331 0.763697 5.51195 72 23 105 255 
-18.3789 0.749808 5.31965 72 24 106 255 
-18.3388 0.741601 5.11412 72 24 106 255 
-18.364 0.742979 4.93495 72 20 103 255 
-18.3471 0.75467 4.76599 72 23 105 255 
-18.2996 0.74977 4.55964 72 22 104 255 
-18.3424 0.754568 4.38362 71 16 99 255 
-18.3089 0.75673 4.19688 71 14 97 255 
-18.3471 0.75147 4.0507 71 19 101 255 
-18.2671 0.75163 3.84273 71 13 96 255 
-18.1766 0.757282 3.64511 60 80 139 255 
-18.1582 0.763182 3.46693 62 76 138 255 
-18.1735 0.744358 3.31857 58 84 140 255 
-18.1579 0.750315 3.13583 57 86 140 255 
-18.165 0.763146 2.95771 61 77 138 255 
-18.1518 0.778756 2.78667 60 79 138 255 
-18.1542 0.746737 2.6377 59 81 139 255 
-18.1477 0.753063 2.459 58 83 139 255 
-18.1306 0.77121 2.28284 57 85 140 255 
-18.1063 0.783126 2.11296 62 74 137 255 
-18.1064 0.744772 1.96545 59 81 139 255 
-18.1294 0.761813 1.79516 57 86 140 255 
-18.1161 0.773762 1.62149 60 79 138 255 
-18.1225 0.79332 1.45313 62 73 137 255 
-18.1054 0.74789 1.30845 61 77 138 255 
-18.1132 0.764299 1.13743 61 77 138 255 
-18.1283 0.783791 0.966832 72 32 113 255 
-18.1898 0.802618 0.798141 50 101 142 255 
-18.1835 0.757464 0.654613 54 93 141 255 
-18.1941 0.774074 0.483222 48 106 142 255 
-18.1692 0.788736 0.311094 50 100 142 255 
-18.1505 0.807222 0.142698 54 92 141 255 
-18.1631 0.759787 -0.00317283 54 92 141 255 
-18.1605 0.778991 -0.174494 48 105 142 255 
-18.1624 0.79479 -0.342721 46 109 142 255 
-18.1565 0.81383 -0.514015 49 104 142 255 
-18.1537 0.768903 -0.659913 57 85 140 255 
-18.1721 0.785846 -0.829144 54 92 141 255 
-18.135 0.796764 -0.998994 55 90 140 255 
-18.123 0.815492 -1.16997 55 91 141 255 
-18.0472 0.767542 -1.31065 72 40 120 255 
-17.5894 0.766796 -1.4413 72 38 119 255 
-17.2391 0.766444 -1.5765 72 20 103 255 
-15.2084 0.684341 -1.53563 72 24 106 255 
-13.6604 0.588126 -1.4902 72 40 120 255 
-12.3744 0.541618 -1.46821 72 40 120 255 
-11.3112 0.50487 -1.45044 72 41 121 255 
-10.3773 0.47058 -1.43037 71 46 124 255 
-9.69681 0.42256 -1.41768 71 46 124 255 
-9.02068 0.397981 -1.40429 65 66 135 255 
-8.40775 0.376746 -1.38876 65 68 135 255 
-7.91167 0.35877 -1.38507 67 61 132 255 
-7.48355 0.331338 -1.37483 62 74 137 255 
-7.06652 0.315472 -1.36471 62 76 138 255 
-6.66437 0.298626 -1.3536 65 66 135 255 
-6.31072 0.28507 -1.34621 67 61 132 255 
-5.99212 0.268443 -1.33085 65 66 135 255 
-5.72939 0.257782 -1.32829 66 63 133 255 
-5.45806 0.246481 -1.32078 63 72 137 255 
-5.24617 0.23515 -1.32492 66 65 134 255 
-5.04407 0.230375 -1.31996 63 72 137 255 
-4.87546 0.222771 -1.32419 68 59 132 255 
-4.65854 0.21119 -1.31432 68 57 131 255 
-4.4791 0.199202 -1.31362 71 46 124 255 
-18.3568 0.877545 5.52058 72 26 108 255 
-18.3385 0.860898 5.30937 72 22 104 255 
-18.3166 0.853305 5.10929 72 20 103 255 
-18.3301 0.854296 4.92717 72 23 105 255 
-18.3218 0.866271 4.76071 72 24 106 255 
-18.3111 0.862817 4.56375 71 19 101 255 
-18.3461 0.867514 4.38571 71 19 101 255 
-18.3059 0.869149 4.19733 71 14 97 255 
-18.3012 0.862102 4.04166 71 16 99 255 
-18.3129 0.866105 3.85343 71 19 101 255 
-18.1521 0.867861 3.64118 59 81 139 255 
-18.1493 0.874395 3.46618 64 69 136 255 
-18.1529 0.855114 3.3157 59 81 139 255 
-18.1382 0.861015 3.13328 59 82 139 255 
-18.1304 0.873166 2.95289 62 76 138 255 
-18.127 0.889151 2.78364 60 79 138 255 
-18.1285 0.857133 2.63468 57 85 140 255 
-18.1457 0.864542 2.45941 57 85 140 255 
-18.1186 0.882105 2.28197 59 81 139 255 
-18.1131 0.894797 2.11435 61 77 138 255 
-18.1283 0.857124 1.96836 59 82 139 255 
-18.0896 0.871363 1.79172 59 82 139 255 
-18.1061 0.884663 1.62104 62 73 137 255 
-18.1094 0.904105 1.45249 64 69 136 255 
-18.1034 0.85911 1.30867 58 83 139 255 
-18.1102 0.875522 1.13755 61 78 138 255 
-18.1212 0.894911 0.966725 71 14 97 255 
-33.268 1.67252 1.46017 70 10 93 255 
-18.1186 0.866158 0.652457 68 57 131 255 
-18.0722 0.880008 0.480119 71 44 122 255 
-17.9813 0.891149 0.307964 72 24 106 255 
-17.9764 0.910032 0.14137 71 13 96 255 
-18.1311 0.869926 -0.00316812 63 72 137 255 
-18.1284 0.889085 -0.174234 68 58 131 255 
-18.1262 0.904672 -0.342137 62 73 137 255 
-18.1232 0.923796 -0.513224 71 45 123 255 
-18.1327 0.879504 -0.659333 56 89 140 255 
-18.1231 0.895164 -0.82714 60 79 138 255 
-18.0909 0.906076 -0.996851 68 58 131 255 
-18.0847 0.924995 -1.16784 70 50 126 255 
-18.0541 0.878845 -1.31152 70 48 126 255 
-17.5694 0.873965 -1.44007 72 28 110 255 
-17.243 0.87266 -1.57732 71 16 99 255 
-15.1572 0.775256 -1.53092 72 28 110 255 
-13.6337 0.67081 -1.4877 72 36 117 255 
-12.3431 0.616149 -1.46491 71 44 122 255 
-11.297 0.573711 -1.44904 72 36 117 255 
-10.3584 0.53343 -1.42818 71 44 122 255 
-9.68712 0.481706 -1.41667 71 47 125 255 
-8.99932 0.452381 -1.40137 63 71 136 255 
-8.3974 0.427926 -1.38746 64 69 136 255 
-7.89161 0.406397 -1.38197 69 56 130 255 
-7.46959 0.376656 -1.37267 66 65 134 255 
-7.06151 0.358676 -1.36414 63 71 136 255 
-6.67318 0.340061 -1.35579 66 64 134 255 
-6.31959 0.324338 -1.3485 69 55 129 255 
-6.00791 0.306099 -1.33475 68 59 132 255 
-5.71895 0.292485 -1.32626 67 62 133 255 
-5.45159 0.279717 -1.31961 64 70 136 255 
-5.23882 0.267039 -1.32345 66 64 134 255 
-5.04546 0.26147 -1.32072 66 64 134 255 
-4.8875 0.253382 -1.32785 66 63 133 255 
-4.64274 0.239028 -1.31025 68 59 132 255 
-4.46245 0.225906 -1.30912 71 47 125 255 
-18.3118 0.988048 5.50878 72 23 105 255 
-18.3655 0.975136 5.31882 72 27 109 255 
-18.3255 0.966438 5.11331 72 24 106 255 
-18.3467 0.967921 4.93314 72 22 104 255 
-18.3306 0.97945 4.76448 72 24 106 255 
-18.3055 0.975156 4.56375 71 19 101 255 
-18.3346 0.979756 4.38432 71 16 99 255 
-18.2895 0.980881 4.19487 71 16 99 255 
-18.2995 0.974588 4.04252 71 17 100 255 
-18.3092 0.978559 3.85384 70 11 94 255 
-18.1552 0.9797 3.64295 58 83 139 255 
-18.123 0.984621 3.46224 65 68 135 255 
-18.1394 0.966063 3.31427 59 82 139 255 
-18.1287 0.972082 3.1326 58 84 140 255 
-18.104 0.983271 2.94952 63 72 137 255 
-18.1123 0.999869 2.78227 62 74 137 255 
-18.1199 0.968193 2.63425 56 88 140 255 
-18.1262 0.975121 2.45753 57 85 140 255 
-18.0989 0.992501 2.28022 57 86 140 255 
-18.1003 1.00553 2.11354 62 76 138 255 
-18.1009 0.967174 1.96599 60 80 139 255 
-18.0988 0.983152 1.79319 58 84 140 255 
-18.0894 0.995141 1.62006 59 82 139 255 
-18.1045 1.01526 1.45257 64 70 136 255 
-18.0919 0.969854 1.30824 62 76 138 255 
-18.1174 0.987334 1.13836 59 82 139 255 
-28.5395 1.58502 1.52301 69 4 87 255 
-33.2252 1.87482 1.45877 71 16 99 255 
-33.1862 1.79062 1.19542 70 11 94 255 
-33.1994 1.82087 0.882278 71 13 96 255 
-33.2496 1.85242 0.569646 70 11 94 255 
-33.2065 1.88537 0.261229 70 11 94 255 
-33.2224 1.79838 -0.00580688 69 5 89 255 
-33.2908 1.83753 -0.320065 70 7 90 255 
-18.1083 1.0152 -0.341911 69 53 129 255 
-18.1152 1.03487 -0.513167 72 24 106 255 
-18.0771 0.98802 -0.657518 72 27 109 255 
-18.0933 1.00502 -0.826047 72 32 113 255 
-18.091 1.0174 -0.997181 72 29 111 255 
-18.0598 1.03486 -1.16662 72 23 105 255 
-17.9976 0.986821 -1.30783 71 42 122 255 
-17.5568 0.981364 -1.4395 71 45 123 255 
-17.2264 0.977824 -1.57632 72 20 103 255 
-15.1432 0.867732 -1.53001 72 28 110 255 
-13.6065 0.753188 -1.48521 72 41 121 255 
-12.3341 0.691595 -1.46432 72 38 119 255 
-11.2854 0.642567 -1.44803 71 44 122 255 
-10.3411 0.59618 -1.42627 71 46 124 255 
-9.67607 0.540695 -1.41552 70 48 126 255 
-9.01018 0.50837 -1.40352 64 69 136 255 
-8.39068 0.479218 -1.38681 64 69 136 255 
-7.88208 0.454414 -1.38077 65 68 135 255 
-7.47499 0.422926 -1.37411 63 72 137 255 
-7.05917 0.401998 -1.36414 65 66 135 255 
-6.6739 0.381168 -1.35639 66 65 134 255 
-6.32334 0.363445 -1.34975 70 50 126 255 
-6.02054 0.343792 -1.338 66 65 134 255 
-5.70732 0.327013 -1.324 66 64 134 255 
-5.45074 0.313218 -1.31984 63 72 137 255 
-5.22644 0.29857 -1.32076 67 61 132 255 
-5.03893 0.292144 -1.31945 65 68 135 255 
-4.87814 0.282919 -1.32576 68 59 132 255 
-4.65464 0.268286 -1.31404 66 64 134 255 
-4.45428 0.252902 -1.30716 69 53 129 255 
-18.3054 1.10039 5.50878 72 24 106 255 
-18.3515 1.08735 5.3166 72 26 108 255 
-18.3019 1.07784 5.10848 72 23 105 255 
-18.3105 1.07872 4.9251 72 23 105 255 
-18.3214 1.09173 4.76372 72 28 110 255 
-18.2963 1.08729 4.56302 71 19 101 255 
-18.3186 1.09166 4.382 71 19 101 255 
-18.2685 1.09221 4.19152 71 14 97 255 
-18.2795 1.08604 4.0395 71 17 100 255 
-18.2394 1.0871 3.84047 70 8 92 255 
-18.1244 1.08961 3.63804 60 80 139 255 
-18.1127 1.09557 3.46149 62 73 137 255 
-18.1312 1.07723 3.31391 58 84 140 255 
-18.1263 1.08353 3.13328 57 85 140 255 
-18.1143 1.09535 2.95225 58 83 139 255 
-18.1117 1.11135 2.78318 60 80 139 255 
-18.1186 1.07965 2.63497 55 90 140 255 
-18.108 1.08561 2.45592 57 86 140 255 
-18.0935 1.1036 2.28035 57 86 140 255 
-18.0829 1.1159 2.11226 61 78 138 255 
-18.0986 1.07846 1.96642 58 83 139 255 
-18.0944 1.09431 1.79339 58 84 140 255 
-18.076 1.10569 1.61944 60 79 138 255 
-18.076 1.12497 1.45081 61 78 138 255 
-18.0836 1.08073 1.30809 59 82 139 255 
-18.0941 1.09745 1.1373 58 84 140 255 
-28.7325 1.77264 1.53386 70 8 92 255 
-33.1622 2.07546 1.45654 71 14 97 255 
-33.2105 1.99638 1.19672 71 13 96 255 
-33.1756 2.02381 0.881959 71 17 100 255 
-33.2426 2.05671 0.569731 70 8 92 255 
-33.2392 2.09192 0.261582 71 13 96 255 
-33.1957 2.00129 -0.00580427 71 17 100 255 
-33.211 2.0376 -0.319412 71 13 96 255 
-18.0818 1.12505 -0.341534 68 59 132 255 
-18.0756 1.14392 -0.512234 72 27 109 255 
-18.0787 1.09941 -0.657808 72 27 109 255 
-18.0808 1.11565 -0.825774 72 26 108 255 
-18.0824 1.12826 -0.997071 72 24 106 255 
-18.0212 1.14363 -1.16456 72 29 111 255 
-18.036 1.09997 -1.31109 70 50 126 255 
-17.5534 1.08926 -1.43975 69 53 129 255 
-17.1624 1.07988 -1.57105 72 20 103 255 
-15.1227 0.959687 -1.52851 72 29 111 255 
-13.5808 0.83538 -1.48294 70 48 126 255 
-12.3277 0.76714 -1.46409 72 40 120 255 
-11.2891 0.7123 -1.44904 71 47 125 255 
-10.3382 0.659684 -1.42641 71 44 122 255 
-9.64887 0.598585 -1.41205 69 53 129 255 
-8.98322 0.562165 -1.39983 62 73 137 255 
-8.37576 0.529946 -1.38486 65 68 135 255 
-7.87718 0.502644 -1.38042 66 63 133 255 
-7.45164 0.46749 -1.37032 66 65 134 255 
-7.04285 0.444439 -1.36149 64 69 136 255 
-6.66263 0.421554 -1.3546 66 64 134 255 
-6.31514 0.401864 -1.3485 69 55 129 255 
-6.02124 0.380912 -1.33865 69 55 129 255 
-5.71493 0.362643 -1.32626 64 70 136 255 
-5.45066 0.346781 -1.32031 63 71 136 255 
-5.21096 0.329776 -1.31734 68 59 132 255 
-5.03897 0.32318 -1.31996 63 71 136 255 
-4.85416 0.311425 -1.31974 68 58 131 255 
-4.6481 0.296535 -1.31269 68 59 132 255 
-4.46797 0.281192 -1.31165 70 52 128 255 
-18.0967 1.19932 5.44808 58 83 139 255 
-18.1403 1.18658 5.25742 63 71 136 255 
-18.1853 1.18299 5.07788 67 62 133 255 
-18.2351 1.18659 4.90668 68 58 131 255 
-18.2004 1.19664 4.73408 64 70 136 255 
-18.2311 1.19572 4.54853 64 70 136 255 
-18.2232 1.19823 4.36086 67 61 132 255 
-18.2265 1.20198 4.18348 71 46 124 255 
-18.215 1.19441 4.02679 70 51 127 255 
-18.1826 1.19572 3.82998 71 42 122 255 
-18.1095 1.20028 3.63647 62 73 137 255 
-18.1086 1.20688 3.46206 61 77 138 255 
-18.1183 1.18807 3.31283 58 83 139 255 
-18.1134 1.19435 3.13226 57 86 140 255 
-18.0905 1.20536 2.94952 61 77 138 255 
-18.0868 1.22126 2.78045 61 78 138 255 
-18.0958 1.18977 2.63267 57 86 140 255 
-18.1059 1.19703 2.45659 55 90 140 255 
-18.0874 1.21466 2.28047 56 88 140 255 
-18.0807 1.22717 2.11284 60 80 139 255 
-18.0867 1.18916 1.96588 56 89 140 255 
-18.0665 1.20392 1.79132 57 85 140 255 
-18.0539 1.21558 1.6181 61 78 138 255 
-18.025 1.23286 1.4473 65 68 135 255 
-18.0378 1.18911 1.30528 62 76 138 255 
-18.086 1.20839 1.13724 58 83 139 255 
-28.6384 1.9433 1.52945 70 7 90 255 
-33.1439 2.27856 1.45632 71 14 97 255 
-33.1707 2.19833 1.19574 71 14 97 255 
-33.1835 2.22874 0.882516 71 13 96 255 
-33.1994 2.25861 0.569218 70 7 90 255 
-33.2038 2.29431 0.261409 71 16 99 255 
-33.1788 2.20467 -0.00580357 72 20 103 255 
-33.1789 2.24006 -0.31923 71 16 99 255 
-18.0666 1.23544 -0.341383 65 68 135 255 
-18.0732 1.25515 -0.512376 72 31 112 255 
-18.0706 1.21025 -0.657772 72 35 116 255 
-18.0806 1.22704 -0.826093 72 35 116 255 
-18.0602 1.23817 -0.996247 72 27 109 255 
-18.0079 1.25377 -1.16417 72 31 112 255 
-18.012 1.20948 -1.30986 72 37 118 255 
-17.5454 1.19687 -1.43967 70 52 128 255 
-17.1068 1.1818 -1.56659 71 19 101 255 
-15.1205 1.05274 -1.52891 72 33 115 255 
-13.5317 0.915741 -1.47817 72 37 118 255 
-12.297 0.841005 -1.46103 71 44 122 255 
-11.2539 0.779431 -1.44511 71 45 123 255 
-10.3261 0.722552 -1.42532 70 48 126 255 
-9.65785 0.658654 -1.41393 68 58 131 255 
-8.97073 0.616664 -1.39845 66 65 134 255 
-8.37826 0.581739 -1.38583 66 63 133 255 
-7.88279 0.551586 -1.38197 68 58 131 255 
-7.44471 0.512934 -1.3696 63 71 136 255 
-7.02432 0.486559 -1.35846 64 69 136 255 
-6.65308 0.461952 -1.35321 67 61 132 255 
-6.30865 0.440333 -1.34767 67 62 133 255 
-5.99152 0.415957 -1.33258 66 63 133 255 
-5.69219 0.396281 -1.32152 62 74 137 255 
-5.45813 0.380895 -1.32266 65 66 135 255 
-5.21464 0.362147 -1.3188 65 66 135 255 
-5.0504 0.355043 -1.3235 64 69 136 255 
-4.85601 0.341474 -1.32078 67 62 133 255 
-4.65195 0.325453 -1.31432 69 55 129 255 
-4.48435 0.309859 -1.317 68 59 132 255 
-17.9142 1.29768 5.39543 56 88 140 255 
-17.9228 1.28284 5.19658 55 91 141 255 
-17.8683 1.27252 4.99145 57 85 140 255 
-17.8586 1.27218 4.80736 59 81 139 255 
-17.8596 1.28434 4.64741 58 84 140 255 
-17.8905 1.28367 4.46542 61 78 138 255 
-17.8731 1.28539 4.27887 59 81 139 255 
-17.8755 1.28904 4.10468 63 71 136 255 
-17.8742 1.28226 3.95312 59 81 139 255 
-17.8664 1.28508 3.76498 58 83 139 255 
-17.871 1.29465 3.5901 53 94 141 255 
-17.8334 1.29849 3.4109 58 83 139 255 
-17.8477 1.28036 3.26473 56 89 140 255 
-17.8512 1.28711 3.08822 53 95 141 255 
-17.8515 1.2995 2.91178 54 92 141 255 
-17.8394 1.31456 2.74361 53 95 141 255 
-17.8562 1.2841 2.59891 53 94 141 255 
-17.8541 1.29045 2.42345 54 92 141 255 
-17.8292 1.30726 2.24889 52 96 141 255 
-17.8628 1.32254 2.08829 62 73 137 255 
-17.9551 1.2912 1.9524 61 77 138 255 
-17.9427 1.3063 1.7798 57 85 140 255 
-17.8912 1.31494 1.60421 60 79 138 255 
-17.8581 1.33158 1.43452 61 77 138 255 
-18.0003 1.29761 1.30312 61 77 138 255 
-18.0663 1.31847 1.13649 59 81 139 255 
-18.046 1.33582 0.964171 60 80 139 255 
-17.9982 1.34834 0.791178 62 74 137 255 
-18.0729 1.30918 0.651774 66 63 133 255 
-18.0561 1.32406 0.48041 64 69 136 255 
-18.0428 1.33875 0.309486 63 72 137 255 
-18.0464 1.35828 0.14214 62 74 137 255 
-18.0455 1.31035 -0.00315782 71 44 122 255 
-18.0672 1.33121 -0.173908 68 59 132 255 
-18.0866 1.34835 -0.341911 38 130 142 255 
-18.0582 1.3655 -0.512178 43 117 142 255 
-18.0309 1.31877 -0.656611 70 48 126 255 
-18.0747 1.33811 -0.826184 67 62 133 255 
-18.0393 1.34799 -0.995532 67 61 132 255 
-18.0357 1.36695 -1.16649 63 71 136 255 
-18.0042 1.31997 -1.30986 72 37 118 255 
-17.5298 1.30392 -1.43901 71 46 124 255 
-17.0585 1.28368 -1.56286 72 20 103 255 
-15.1038 1.14474 -1.52791 72 29 111 255 
-13.5447 1.00014 -1.48023 72 40 120 255 
-12.2797 0.915556 -1.45961 71 42 122 255 
-11.2261 0.846752 -1.44218 72 40 120 255 
-10.274 0.782288 -1.41877 71 42 122 255 
-9.65461 0.717974 -1.41407 69 55 129 255 
-8.97663 0.672434 -1.39999 63 72 137 255 
-8.38043 0.633582 -1.38681 65 68 135 255 
-7.84881 0.597626 -1.37663 68 58 131 255 
-7.43259 0.557941 -1.36797 62 73 137 255 
-7.00358 0.528321 -1.35505 64 69 136 255 
-6.64914 0.502692 -1.35301 66 63 133 255 
-6.31168 0.479479 -1.34892 69 55 129 255 
-5.95478 0.450137 -1.325 67 61 132 255 
-5.67313 0.429949 -1.31769 65 68 135 255 
-5.46053 0.414747 -1.32383 64 69 136 255 
-5.20845 0.393844 -1.31782 67 61 132 255 
-5.04041 0.385434 -1.32147 65 66 135 255 
-4.84805 0.370822 -1.31921 67 61 132 255 
-4.64123 0.353333 -1.31187 69 56 130 255 
-4.48332 0.33744 -1.31728 68 57 131 255 
-17.883 1.40577 5.38852 58 84 140 255 
-17.8945 1.39123 5.19075 58 84 140 255 
-17.864 1.38243 4.99253 57 86 140 255 
-17.8822 1.38419 4.81592 57 86 140 255 
-17.861 1.39465 4.64992 59 81 139 255 
-17.8736 1.39274 4.46325 58 83 139 255 
-17.8571 1.39443 4.27702 60 80 139 255 
-17.8576 1.39794 4.10244 64 69 136 255 
-17.8641 1.39176 3.95269 59 82 139 255 
-17.8446 1.39361 3.7621 56 88 140 255 
-17.8315 1.40183 3.58382 56 89 140 255 
-17.8251 1.40789 3.4109 57 85 140 255 
-17.8337 1.38939 3.26365 54 93 141 255 
-17.8194 1.39477 3.08414 53 94 141 255 
-17.8559 1.41002 2.91387 56 89 140 255 
-17.831 1.424 2.74361 55 91 141 255 
-17.8431 1.39325 2.59819 50 101 142 255 
-17.8311 1.39882 2.42144 53 95 141 255 
-17.8001 1.41499 2.24627 51 98 141 255 
-17.8276 1.42998 2.08517 60 79 138 255 
-17.8289 1.39214 1.93957 57 85 140 255 
-17.8232 1.40759 1.76878 55 90 140 255 
-17.7924 1.4175 1.5961 59 82 139 255 
-17.8118 1.43808 1.43149 63 72 137 255 
-17.82 1.39457 1.29066 58 83 139 255 
-17.7823 1.40748 1.11914 62 74 137 255 
-17.8145 1.42864 0.952253 65 66 135 255 
-17.7974 1.44317 0.782726 68 59 132 255 
-17.7826 1.39788 0.641601 67 61 132 255 
-17.7826 1.41375 0.473355 66 64 134 255 
-17.7811 1.42909 0.305142 68 58 131 255 
-17.7427 1.44496 0.139815 67 62 133 255 
-17.8068 1.40291 -0.00311751 68 59 132 255 
-17.7427 1.41681 -0.170865 71 47 125 255 
-17.7342 1.43155 -0.335408 69 53 129 255 
-17.7456 1.45142 -0.503555 70 48 126 255 
-17.8312 1.41421 -0.649642 68 57 131 255 
-17.7834 1.42631 -0.813251 69 56 130 255 
-17.7521 1.43611 -0.980146 71 42 122 255 
-17.7594 1.45566 -1.14918 70 48 126 255 
-17.7621 1.41185 -1.29285 71 46 124 255 
-17.6943 1.42538 -1.45321 71 44 122 255 
-17.0047 1.38461 -1.55867 72 20 103 255 
-15.0559 1.23406 -1.52379 72 31 112 255 
-13.5145 1.08133 -1.47763 72 40 120 255 
-12.2115 0.985851 -1.4522 72 40 120 255 
-11.2276 0.916183 -1.44307 71 44 122 255 
-10.2631 0.844826 -1.41795 70 48 126 255 
-9.62833 0.775453 -1.41089 68 58 131 255 
-8.97431 0.727661 -1.40029 66 64 134 255 
-8.34 0.682016 -1.38079 68 59 132 255 
-7.87543 0.648279 -1.38197 68 57 131 255 
-7.41726 0.60258 -1.36581 62 74 137 255 
-7.01684 0.572642 -1.35827 65 66 135 255 
-6.63421 0.542522 -1.35062 66 64 134 255 
-6.29205 0.516836 -1.34538 69 53 129 255 
-5.94704 0.486269 -1.32392 68 57 131 255 
-5.67524 0.465148 -1.31881 62 74 137 255 
-5.44432 0.44713 -1.32055 68 58 131 255 
-5.23107 0.42785 -1.32419 67 62 133 255 
-5.01963 0.414841 -1.31667 66 65 134 255 
-4.85627 0.401437 -1.32209 66 63 133 255 
-4.63898 0.381804 -1.31187 68 57 131 255 
-4.47351 0.36432 -1.31503 69 53 129 255 
-17.874 1.51547 5.38852 57 86 140 255 
-17.876 1.5002 5.18797 58 84 140 255 
-17.8514 1.4917 4.99145 57 86 140 255 
-17.8907 1.49534 4.82059 56 89 140 255 
-17.8676 1.50552 4.65394 59 81 139 255 
-17.8502 1.50117 4.45963 60 79 138 255 
-17.8588 1.50487 4.27957 61 78 138 255 
-17.8467 1.50732 4.102 62 76 138 255 
-17.863 1.502 3.95441 59 82 139 255 
-17.862 1.5053 3.76766 56 89 140 255 
-17.8411 1.51278 3.58755 53 95 141 255 
-17.8366 1.51899 3.41484 57 85 140 255 
-17.8317 1.49936 3.26491 53 94 141 255 
-17.7899 1.50234 3.08057 54 92 141 255 
-17.8057 1.51604 2.90713 53 94 141 255 
-17.822 1.53338 2.74361 53 95 141 255 
-17.8214 1.50163 2.59632 50 101 142 255 
-17.8142 1.50753 2.42037 51 99 141 255 
-17.7881 1.52393 2.2459 55 91 141 255 
-17.7839 1.53635 2.08111 62 74 137 255 
-17.8091 1.50059 1.93839 56 88 140 255 
-17.8033 1.516 1.76769 57 86 140 255 
-17.7774 1.52613 1.59557 60 79 138 255 
-17.7967 1.54683 1.43101 61 78 138 255 
-17.7972 1.50271 1.28966 56 88 140 255 
-17.7714 1.5164 1.11902 62 74 137 255 
-17.7815 1.53586 0.950976 65 66 135 255 
-17.7733 1.55104 0.782069 67 62 133 255 
-17.7637 1.50612 0.641241 66 63 133 255 
-17.7656 1.52216 0.473142 68 57 131 255 
-17.763 1.53738 0.304988 66 64 134 255 
-17.7245 1.55301 0.139744 68 59 132 255 
-17.765 1.50935 -0.00311175 67 61 132 255 
-17.7397 1.52617 -0.170923 66 64 134 255 
-17.742 1.5418 -0.335728 69 55 129 255 
-17.7274 1.55949 -0.503301 69 55 129 255 
-17.7406 1.51662 -0.646666 67 62 133 255 
-17.7564 1.53385 -0.812432 68 58 131 255 
-17.7061 1.5418 -0.978113 70 52 128 255 
-17.7154 1.56154 -1.14693 69 53 129 255 
-17.7293 1.51876 -1.29111 69 53 129 255 
-17.6991 1.53513 -1.45435 71 44 122 255 
-16.979 1.48744 -1.55713 72 24 106 255 
-15.0084 1.32293 -1.51978 72 33 115 255 
-13.5126 1.16466 -1.47817 72 37 118 255 
-12.223 1.06231 -1.45432 72 38 119 255 
-11.204 0.983496 -1.44079 71 42 122 255 
-10.2577 0.907783 -1.41795 69 53 129 255 
-9.58987 0.83161 -1.40598 70 51 127 255 
-8.95983 0.781854 -1.39876 66 64 134 255 
-8.35237 0.734646 -1.38355 66 65 134 255 
-7.85855 0.695461 -1.37973 66 64 134 255 
-7.41539 0.648252 -1.36617 61 77 138 255 
-6.9995 0.614483 -1.35562 65 66 135 255 
-6.6249 0.582704 -1.34943 66 65 134 255 
-6.26148 0.553025 -1.33954 71 45 123 255 
-5.942 0.522579 -1.32349 70 52 128 255 
-5.65773 0.498679 -1.31543 63 71 136 255 
-5.46084 0.482238 -1.32524 68 58 131 255 
-5.22061 0.45926 -1.32223 68 59 132 255 
-5.01121 0.445119 -1.31515 66 63 133 255 
-4.84987 0.430885 -1.32104 68 58 131 255 
-4.62408 0.409158 -1.30835 69 55 129 255 
-4.48171 0.392683 -1.31812 70 51 127 255 
-17.8615 1.62486 5.38766 57 85 140 255 
-17.8608 1.60934 5.1863 57 86 140 255 
-17.8572 1.60258 4.99575 59 82 139 255 
-17.8369 1.60111 4.80866 57 86 140 255 
-17.8406 1.61355 4.64942 59 82 139 255 
-17.8581 1.61223 4.46397 60 79 138 255 
-17.8396 1.61355 4.27725 60 79 138 255 
-17.8245 1.61565 4.0991 65 68 135 255 
-17.8447 1.61078 3.95247 59 81 139 255 
-17.8407 1.61381 3.76519 57 85 140 255 
-17.8237 1.62152 3.58598 53 95 141 255 
-17.8104 1.62689 3.41165 56 88 140 255 
-17.8251 1.60901 3.26544 54 92 141 255 
-17.7989 1.61316 3.0838 54 93 141 255 
-17.7862 1.62436 2.90552 53 94 141 255 
-17.7994 1.64153 2.74164 56 88 140 255 
-17.7872 1.60872 2.59273 51 98 141 255 
-17.7928 1.61574 2.41876 51 99 141 255 
-17.7775 1.63295 2.24577 53 95 141 255 
-17.781 1.64608 2.08192 60 80 139 255 
-17.7995 1.60984 1.93839 58 84 140 255 
-17.7848 1.62439 1.76681 56 88 140 255 
-17.7747 1.63582 1.59619 58 83 139 255 
-17.7769 1.65507 1.43021 62 74 137 255 
-17.7926 1.61233 1.29002 58 84 140 255 
-17.7577 1.62505 1.11877 60 79 138 255 
-17.7578 1.64365 0.950231 66 64 134 255 
-17.7595 1.65969 0.781894 66 63 133 255 
-17.7422 1.61401 0.64081 66 65 134 255 
-17.753 1.63086 0.473063 67 61 132 255 
-17.7243 1.64367 0.304492 69 55 129 255 
-17.7217 1.66239 0.139799 68 59 132 255 
-17.7484 1.61769 -0.00311053 66 64 134 255 
-17.73 1.63499 -0.170923 67 61 132 255 
-17.7182 1.64934 -0.335465 69 55 129 255 
-17.7066 1.6672 -0.50299 70 51 127 255 
-17.721 1.62453 -0.646303 68 58 131 255 
-17.7178 1.6401 -0.811111 66 64 134 255 
-17.6913 1.64995 -0.977838 70 52 128 255 
-17.6826 1.66805 -1.14545 71 46 124 255 
-17.7077 1.62643 -1.29025 70 50 126 255 
-17.6596 1.64093 -1.4519 71 47 125 255 
-16.9517 1.58992 -1.55549 72 23 105 255 
-14.9316 1.40854 -1.51285 72 29 111 255 
-13.4804 1.24526 -1.47546 72 41 121 255 
-12.241 1.13959 -1.45726 72 40 120 255 
-11.1879 1.0513 -1.43951 71 42 122 255 
-10.2589 0.97136 -1.41891 68 59 132 255 
-9.61809 0.893549 -1.41089 69 56 130 255 
-8.94404 0.835804 -1.39707 65 66 135 255 
-8.36539 0.787546 -1.38648 65 68 135 255 
-7.86786 0.744967 -1.38215 66 64 134 255 
-7.39854 0.692548 -1.36382 65 68 135 255 
-6.98974 0.656869 -1.35448 66 63 133 255 
-6.61632 0.622883 -1.34843 65 68 135 255 
-6.26965 0.592538 -1.34204 71 44 122 255 
-5.94257 0.559394 -1.32435 68 57 131 255 
-5.64001 0.532013 -1.31205 65 68 135 255 
-5.44423 0.514455 -1.32196 66 63 133 255 
-5.21384 0.490921 -1.32125 68 58 131 255 
-5.00742 0.475767 -1.3149 67 62 133 255 
-4.80774 0.456892 -1.31031 68 59 132 255 
-4.59274 0.434802 -1.30021 69 55 129 255 
-4.45246 0.417666 -1.31025 69 56 130 255 
-17.835 1.73285 5.38277 58 83 139 255 
-17.8381 1.7177 5.18269 58 83 139 255 
-17.849 1.7123 4.99629 57 86 140 255 
-17.8297 1.7108 4.80944 59 82 139 255 
-17.8371 1.72364 4.65118 60 80 139 255 
-17.8401 1.72103 4.46204 60 80 139 255 
-17.84 1.72401 4.2798 59 81 139 255 
-17.824 1.72593 4.10133 62 74 137 255 
-17.8111 1.718 3.9473 60 80 139 255 
-17.8305 1.72325 3.76519 58 84 140 255 
-17.8114 1.73066 3.58558 55 91 141 255 
-17.7785 1.73404 3.40753 57 85 140 255 
-17.8002 1.71694 3.26275 55 91 141 255 
-17.7887 1.72234 3.0838 54 93 141 255 
-17.7857 1.73443 2.90713 55 90 140 255 
-17.7871 1.75052 2.74134 52 96 141 255 
-17.7809 1.71821 2.5933 50 101 142 255 
-17.7766 1.72431 2.41795 50 102 142 255 
-17.7829 1.74355 2.24777 53 94 141 255 
-17.7824 1.75632 2.08331 61 78 138 255 
-17.7923 1.71931 1.93871 58 83 139 255 
-17.7656 1.73262 1.76592 58 83 139 255 
-17.7732 1.74573 1.59699 60 79 138 255 
-17.7595 1.76343 1.42965 59 82 139 255 
-17.7774 1.721 1.28966 57 85 140 255 
-17.7643 1.73563 1.11983 61 77 138 255 
-17.7394 1.75179 0.949805 66 64 134 255 
-17.744 1.76814 0.781675 67 61 132 255 
-17.735 1.72313 0.640918 67 61 132 255 
-17.7416 1.73966 0.473036 67 61 132 255 
-17.7249 1.75348 0.30468 68 58 131 255 
-17.6912 1.76911 0.139642 69 55 129 255 
-17.7392 1.72666 -0.0031107 66 64 134 255 
-17.7186 1.74365 -0.170913 66 64 134 255 
-17.7197 1.75921 -0.335691 68 57 131 255 
-17.689 1.77512 -0.502792 71 45 123 255 
-17.6957 1.73177 -0.645758 67 61 132 255 
-17.6945 1.74751 -0.810519 68 58 131 255 
-17.6859 1.75897 -0.978113 70 50 126 255 
-17.678 1.77712 -1.14583 69 55 129 255 
-17.7014 1.73544 -1.29054 70 50 126 255 
-17.6819 1.7525 -1.4546 70 48 126 255 
-16.9466 1.6944 -1.55594 72 26 108 255 
-14.9524 1.50312 -1.51586 72 29 111 255 
-13.4102 1.32181 -1.46864 72 40 120 255 
-12.1725 1.20859 -1.44996 71 42 122 255 
-11.1763 1.11943 -1.43888 71 46 124 255 
-10.2458 1.03359 -1.41795 70 50 126 255 
-9.60159 0.951474 -1.4093 68 58 131 255 
-8.9476 0.89155 -1.39845 65 66 135 255 
-8.33095 0.835905 -1.3816 66 64 134 255 
-7.84746 0.791647 -1.37939 66 65 134 255 
-7.39415 0.737932 -1.36382 65 66 135 255 
-6.98069 0.699255 -1.35354 63 71 136 255 
-6.6114 0.66337 -1.34824 65 66 135 255 
-6.23476 0.627861 -1.33537 71 46 124 255 
-5.93903 0.595847 -1.32435 67 61 132 255 
-5.64536 0.567486 -1.31408 65 68 135 255 
-5.43517 0.547267 -1.32055 68 59 132 255 
-5.21362 0.523193 -1.32198 67 62 133 255 
-5.01885 0.507945 -1.31869 65 66 135 255 
-4.80581 0.48648 -1.31057 68 59 132 255 
-4.59765 0.463747 -1.30238 70 51 127 255 
-4.44504 0.4445 -1.30884 70 48 126 255 
-17.8145 1.84126 5.37989 56 89 140 255 
-17.8272 1.82712 5.18269 56 89 140 255 
-17.8333 1.8213 4.99494 57 86 140 255 
-17.8207 1.82037 4.80996 55 90 140 255 
-17.8368 1.83415 4.65394 62 76 138 255 
-17.8234 1.82987 4.46059 59 81 139 255 
-17.8175 1.83225 4.27702 62 74 137 255 
-17.8101 1.83496 4.10066 65 68 135 255 
-17.8109 1.82835 3.94967 59 81 139 255 
-17.8196 1.83262 3.76519 58 84 140 255 
-17.8044 1.84032 3.58637 54 93 141 255 
-17.7568 1.84198 3.40547 59 82 139 255 
-17.7785 1.82502 3.26078 54 93 141 255 
-17.7749 1.83116 3.08329 55 91 141 255 
-17.7953 1.84566 2.9105 53 95 141 255 
-17.7789 1.85993 2.74179 55 91 141 255 
-17.7769 1.82799 2.59431 50 101 142 255 
-17.7835 1.83518 2.42037 52 97 141 255 
-17.7926 1.85479 2.25039 53 95 141 255 
-17.7763 1.86592 2.08389 59 81 139 255 
-17.7715 1.82743 1.93763 59 81 139 255 
-17.7655 1.84272 1.76701 57 86 140 255 
-17.7453 1.85299 1.59548 59 82 139 255 
-17.7364 1.87111 1.42869 61 77 138 255 
-17.7516 1.82851 1.28858 57 86 140 255 
-17.7474 1.84398 1.11945 62 76 138 255 
-17.7403 1.86186 0.950444 68 58 131 255 
-17.7497 1.87877 0.782419 66 63 133 255 
-17.73 1.83253 0.641133 67 62 133 255 
-17.7147 1.84683 0.472612 69 56 130 255 
-17.6959 1.86032 0.304372 68 57 131 255 
-17.6761 1.8772 0.139611 69 55 129 255 
-17.7093 1.83351 -0.00310738 68 59 132 255 
-17.7026 1.85181 -0.170865 68 58 131 255 
-17.7146 1.86853 -0.335804 68 59 132 255 
-17.6878 1.88468 -0.503075 68 58 131 255 
-17.6888 1.84073 -0.645904 68 58 131 255 
-17.6923 1.85698 -0.810929 68 59 132 255 
-17.6886 1.86892 -0.978882 70 50 126 255 
-17.6866 1.88767 -1.14712 70 52 128 255 
-17.6924 1.84422 -1.29068 69 55 129 255 
-17.6738 1.86128 -1.45484 70 50 126 255 
-16.9329 1.79804 -1.55567 72 26 108 255 
-14.9211 1.59252 -1.51366 72 33 115 255 
-13.3752 1.40127 -1.46571 72 35 116 255 
-12.154 1.28211 -1.44867 71 45 123 255 
-11.1465 1.18557 -1.43596 72 40 120 255 
-10.2452 1.09707 -1.41877 70 52 128 255 
-9.56999 1.00768 -1.40554 69 56 130 255 
-8.91346 0.943418 -1.39399 66 64 134 255 
-8.31683 0.886066 -1.38014 66 64 134 255 
-7.84539 0.840098 -1.37991 66 63 133 255 
-7.36308 0.780488 -1.35895 68 59 132 255 
-6.9665 0.741036 -1.35164 64 70 136 255 
-6.59551 0.702679 -1.34585 64 69 136 255 
-6.2162 0.664545 -1.33225 70 51 127 255 
-5.92652 0.631346 -1.3224 64 69 136 255 
-5.64178 0.602115 -1.31408 66 64 134 255 
-5.40465 0.577713 -1.31397 66 64 134 255 
-5.21513 0.555687 -1.32321 68 58 131 255 
-4.99832 0.53687 -1.31414 66 64 134 255 
-4.80945 0.51668 -1.3124 68 58 131 255 
-4.60237 0.492769 -1.30455 70 52 128 255 
-4.48326 0.476124 -1.32093 70 48 126 255 
-17.8057 1.95085 5.38076 56 88 140 255 
-17.8176 1.93668 5.18324 58 84 140 255 
-17.8247 1.931 4.99575 58 84 140 255 
-17.8198 1.93082 4.81281 57 86 140 255 
-17.8329 1.9444 4.65595 59 82 139 255 
-17.8215 1.94025 4.46301 59 82 139 255 
-17.8156 1.94259 4.27934 58 83 139 255 
-17.7889 1.94315 4.09843 63 71 136 255 
-17.8169 1.9395 3.95355 61 78 138 255 
-17.8031 1.9414 3.76416 58 83 139 255 
-17.7889 1.9491 3.58558 52 96 141 255 
-17.7842 1.95519 3.41296 55 91 141 255 
-17.768 1.93418 3.26096 54 92 141 255 
-17.7594 1.93976 3.08261 53 94 141 255 
-17.7533 1.95148 2.90552 55 91 141 255 
-17.7564 1.96779 2.74012 55 91 141 255 
-17.7674 1.93725 2.5946 51 99 141 255 
-17.762 1.94318 2.41902 50 100 142 255 
-17.7661 1.9623 2.24852 54 92 141 255 
-17.7546 1.97386 2.08273 61 78 138 255 
-17.7491 1.93526 1.93644 61 78 138 255 
-17.7469 1.95094 1.76632 59 82 139 255 
-17.7237 1.96075 1.59459 59 81 139 255 
-17.7286 1.98035 1.42901 61 78 138 255 
-17.7381 1.93718 1.28843 58 84 140 255 
-17.7318 1.9524 1.1192 63 72 137 255 
-17.7255 1.97034 0.950284 66 63 133 255 
-17.718 1.98542 0.781543 68 59 132 255 
-17.7165 1.94107 0.641062 66 64 134 255 
-17.719 1.95725 0.473036 64 69 136 255 
-17.6911 1.96964 0.304492 68 58 131 255 
-17.6602 1.98518 0.13958 68 59 132 255 
-17.7007 1.94247 -0.00310791 69 56 130 255 
-17.6919 1.96051 -0.170875 68 57 131 255 
-17.6978 1.97664 -0.33571 68 57 131 255 
-17.6868 1.99441 -0.503386 70 48 126 255 
-17.6642 1.94781 -0.645432 69 56 130 255 
-17.6786 1.96529 -0.810838 69 53 129 255 
-17.6768 1.97742 -0.978882 70 52 128 255 
-17.637 1.99191 -1.14467 70 51 127 255 
-17.6896 1.95373 -1.29133 69 55 129 255 
-17.665 1.97002 -1.45509 71 44 122 255 
-16.9077 1.90034 -1.5544 71 17 100 255 
-14.8626 1.67857 -1.50874 72 33 115 255 
-13.3525 1.48178 -1.46419 72 37 118 255 
-12.1202 1.3538 -1.44561 72 35 116 255 
-11.1351 1.2535 -1.43545 72 41 121 255 
-10.2501 1.16126 -1.42041 70 48 126 255 
-9.54986 1.06484 -1.40352 70 51 127 255 
-8.89572 0.996772 -1.39215 66 65 134 255 
-8.28967 0.934649 -1.37655 67 62 133 255 
-7.78919 0.882454 -1.37095 68 57 131 255 
-7.34837 0.824556 -1.35714 67 61 132 255 
-6.96865 0.784537 -1.35297 64 69 136 255 
-6.58231 0.742147 -1.34406 63 72 137 255 
-6.19257 0.700476 -1.32808 69 53 129 255 
-5.9109 0.666386 -1.3198 64 69 136 255 
-5.64475 0.637486 -1.31566 62 74 137 255 
-5.4068 0.61152 -1.31538 66 63 133 255 
-5.20199 0.58659 -1.32076 69 55 129 255 
-4.99109 0.567092 -1.31313 68 59 132 255 
-4.80139 0.545636 -1.31109 67 61 132 255 
-4.61648 0.522949 -1.30943 69 53 129 255 
-4.45832 0.501158 -1.31447 70 50 126 255 
-17.8077 2.06172 5.38507 58 84 140 255 
-17.8254 2.04827 5.18908 57 86 140 255 
-17.8077 2.03979 4.99441 57 86 140 255 
-17.8115 2.04057 4.81385 56 88 140 255 
-17.812 2.05278 4.65369 60 79 138 255 
-17.8044 2.04901 4.4618 61 77 138 255 
-17.8062 2.0522 4.28004 60 79 138 255 
-17.764 2.05081 4.09552 64 69 136 255 
-17.7998 2.04823 3.95247 61 78 138 255 
-17.787 2.05015 3.76334 56 88 140 255 
-17.7746 2.05799 3.58519 55 90 140 255 
-17.7719 2.06428 3.41296 56 89 140 255 
-17.79 2.0471 3.26724 52 97 141 255 
-17.756 2.04971 3.08414 50 100 142 255 
-17.7331 2.05946 2.90424 55 91 141 255 
-17.74 2.07624 2.73952 54 93 141 255 
-17.7492 2.04555 2.59373 51 98 141 255 
-17.7517 2.05236 2.41929 52 96 141 255 
-17.7172 2.06702 2.2439 56 88 140 255 
-17.7293 2.08126 2.08123 61 77 138 255 
-17.7329 2.04367 1.93601 60 79 138 255 
-17.7178 2.05784 1.76464 58 83 139 255 
-17.6975 2.06784 1.59334 61 77 138 255 
-17.725 2.09014 1.42973 62 74 137 255 
