ply
format ascii 1.0
comment VTK generated PLY File
obj_info vtkPolyData points and polygons: vtk4.0
element vertex 1157
property float x
property float y
property float z
property uchar red
property uchar green
property uchar blue
property uchar alpha
element face 0
property list uchar int vertex_indices
end_header
-5.78872 -0.0238772 -1.3407 59 82 139 255 
-5.4733 -0.0216689 -1.32313 69 56 130 255 
-5.24558 -0.0225262 -1.32345 64 69 136 255 
-5.07735 -0.0175003 -1.32729 63 72 137 255 
-4.88824 -0.016751 -1.32628 65 66 135 255 
-4.70853 -0.0178195 -1.32706 69 53 129 255 
-4.53242 -0.0210436 -1.32796 68 57 131 255 
-18.4448 -0.0243245 5.54072 72 22 104 255 
-18.4422 -0.0401473 5.33354 72 24 106 255 
-18.4703 -0.0468159 5.1466 72 22 104 255 
-18.4079 -0.0462953 4.94273 72 23 105 255 
-18.4429 -0.0339648 4.78684 72 24 106 255 
-18.3887 -0.0368217 4.578 58 83 139 255 
-18.4327 -0.0338548 4.40151 71 19 101 255 
-18.3957 -0.0302375 4.21318 71 14 97 255 
-18.3771 -0.0370466 4.05393 71 16 99 255 
-18.4166 -0.0336637 3.87091 70 11 94 255 
-18.264 -0.0239838 3.65945 59 81 139 255 
-18.2342 -0.0172626 3.47836 64 69 136 255 
-18.2536 -0.0367976 3.33042 61 77 138 255 
-18.2641 -0.0301977 3.15148 56 89 140 255 
-18.2451 -0.0175915 2.96814 60 79 138 255 
-18.2219 -0.00137405 2.79485 62 74 137 255 
-18.2437 -0.033598 2.64847 58 84 140 255 
-18.2227 -0.0269493 2.46705 59 82 139 255 
-18.2134 -0.00802613 2.29121 60 79 138 255 
-18.2017 0.00497141 2.12211 62 76 138 255 
-18.2032 -0.0335234 1.97429 61 78 138 255 
-18.2091 -0.0173963 1.80146 60 80 139 255 
-18.2083 -0.00484648 1.62825 60 80 139 255 
-18.2097 0.0144939 1.45872 63 72 137 255 
-18.2016 -0.0303482 1.31429 62 74 137 255 
-18.2022 -0.0142133 1.142 56 89 140 255 
-28.3348 0.00729173 1.50976 70 7 90 255 
-18.2814 0.020923 0.801382 50 100 142 255 
-18.2252 -0.0240349 0.655548 70 50 126 255 
-18.1806 -0.00785123 0.482426 72 38 119 255 
-18.1463 0.00783643 0.310409 71 19 101 255 
-18.1154 0.0270473 0.142281 70 7 90 255 
-18.215 -0.020847 -0.00317912 66 65 134 255 
-18.2162 -0.00150899 -0.174868 71 45 123 255 
-18.2478 0.0142489 -0.344003 59 82 139 255 
-18.1857 0.0334912 -0.514326 72 35 116 255 
-18.202 -0.0113156 -0.661075 61 77 138 255 
-18.2331 0.00485306 -0.831148 64 69 136 255 
-18.2184 0.0174052 -1.00262 69 55 129 255 
-18.1942 0.0366777 -1.17338 71 45 123 255 
-18.1503 -0.00812041 -1.31695 70 51 127 255 
-17.6719 0.0108712 -1.44668 72 36 117 255 
-17.3866 0.0257128 -1.58842 72 24 106 255 
-15.5003 0.0312472 -1.56354 72 27 109 255 
-13.8579 0.00104498 -1.51035 72 35 116 255 
-12.5025 0.00987286 -1.48198 72 40 120 255 
-11.4286 0.018896 -1.46404 71 42 122 255 
-10.4732 0.0247636 -1.4421 72 35 116 255 
-9.7347 0.00582327 -1.42188 70 52 128 255 
-8.98301 0.0102287 -1.39707 71 44 122 255 
-7.59232 0.013878 -1.25282 71 45 123 255 
-7.42824 0.0175639 -1.29911 67 61 132 255 
-7.48497 0.00969474 -1.37375 65 66 135 255 
-7.10104 0.0118031 -1.37002 64 69 136 255 
-6.73377 0.0123087 -1.36633 65 68 135 255 
-6.3631 0.0139364 -1.35601 64 69 136 255 
-6.0606 0.0110181 -1.34471 66 63 133 255 
-5.78486 0.0116343 -1.3398 57 85 140 255 
-5.44806 0.01186 -1.31702 68 59 132 255 
-5.25919 0.00968543 -1.32688 65 68 135 255 
-5.05414 0.0135916 -1.32122 65 66 135 255 
-4.88825 0.013243 -1.32628 65 66 135 255 
-4.70085 0.0110537 -1.32489 68 58 131 255 
-4.52958 0.00676291 -1.32712 68 58 131 255 
-18.4436 0.0888463 5.54043 72 24 106 255 
-18.395 0.0728264 5.31993 72 26 108 255 
-18.4019 0.0662704 5.12754 72 24 106 255 
-18.3982 0.0666194 4.94014 72 26 108 255 
-18.4185 0.0790953 4.78056 72 23 105 255 
-18.3779 0.0759656 4.57534 63 71 136 255 
-18.4277 0.0792261 4.40035 71 17 100 255 
-18.3984 0.0826499 4.21385 71 13 96 255 
-18.4004 0.0758106 4.0591 71 19 101 255 
-18.4272 0.0793852 3.87318 71 14 97 255 
-18.2197 0.0878696 3.65061 59 81 139 255 
-18.2231 0.0945646 3.4763 63 71 136 255 
-18.222 0.0750756 3.32468 62 76 138 255 
-18.2294 0.0817145 3.14552 60 79 138 255 
-18.2261 0.0942619 2.96509 61 77 138 255 
-18.2067 0.110344 2.79258 63 71 136 255 
-18.2169 0.0782293 2.64459 58 83 139 255 
-18.2136 0.0848223 2.46585 60 80 139 255 
-18.1973 0.103639 2.28921 63 72 137 255 
-18.1944 0.11661 2.1213 63 71 136 255 
-18.1981 0.0781487 1.97375 59 82 139 255 
-18.1999 0.0942865 1.80058 57 85 140 255 
-18.1881 0.106761 1.62647 61 77 138 255 
-18.1983 0.12615 1.45784 62 76 138 255 
-18.2014 0.0813352 1.31429 57 85 140 255 
-18.2 0.0974629 1.14187 56 89 140 255 
-0 0 0 68 2 86 255 
-18.249 0.132863 0.799981 62 74 137 255 
-0 0 0 68 2 86 255 
-0 0 0 68 2 86 255 
-0 0 0 68 2 86 255 
-33.334 0.254309 0.261818 70 7 90 255 
-0 0 -0 68 2 86 255 
-36.2477 0.219413 -0.34797 69 4 87 255 
-18.2343 0.126125 -0.343758 61 78 138 255 
-18.1861 0.145084 -0.514355 72 23 105 255 
-18.1617 0.100149 -0.659623 72 23 105 255 
-18.2257 0.116684 -0.830829 72 24 106 255 
-18.194 0.129021 -1.0013 72 26 108 255 
-18.1796 0.1482 -1.17248 72 23 105 255 
-18.1201 0.103078 -1.31478 71 44 122 255 
-17.6466 0.119135 -1.44464 72 40 120 255 
-7.3681 0.0561078 -0.673163 71 46 124 255 
-7.40219 0.0603427 -0.746691 68 59 132 255 
-7.40401 0.0459894 -0.806964 69 53 129 255 
-7.39902 0.0512435 -0.877063 66 64 134 255 
-7.40228 0.0576599 -0.948283 63 72 137 255 
-7.35731 0.0625416 -1.0131 65 68 135 255 
-7.42801 0.0500219 -1.08498 67 62 133 255 
-7.41763 0.0539612 -1.15364 66 64 134 255 
-7.41647 0.0590647 -1.22384 66 64 134 255 
-7.41223 0.0630084 -1.29635 70 48 126 255 
-7.41592 0.0551099 -1.36111 67 61 132 255 
-7.09298 0.0553128 -1.3685 63 72 137 255 
-6.72769 0.0535792 -1.36514 66 64 134 255 
-6.36094 0.0529632 -1.35559 67 61 132 255 
-6.06335 0.0482283 -1.34536 63 72 137 255 
-5.76617 0.0469786 -1.33551 60 79 138 255 
-5.46149 0.0454016 -1.32031 69 55 129 255 
-5.26776 0.0420247 -1.32908 65 68 135 255 
-5.05783 0.0446372 -1.32223 62 74 137 255 
-4.8794 0.0431597 -1.32393 67 61 132 255 
-4.70069 0.0398974 -1.32489 68 59 132 255 
-4.53521 0.0345997 -1.32881 67 61 132 255 
-18.4389 0.20197 5.53928 72 23 105 255 
-18.4106 0.18586 5.32465 72 23 105 255 
-18.3847 0.179021 5.12298 72 24 106 255 
-18.4042 0.179573 4.94195 72 20 103 255 
-18.4071 0.191997 4.77779 72 24 106 255 
-18.3567 0.188519 4.57027 68 57 131 255 
-18.3977 0.191991 4.39338 71 17 100 255 
-18.4434 0.196026 4.22434 71 17 100 255 
-18.3586 0.188292 4.05006 71 17 100 255 
-18.3285 0.191429 3.85261 71 14 97 255 
-18.2139 0.199608 3.64963 62 76 138 255 
-18.2124 0.206267 3.47442 65 66 135 255 
-18.2055 0.186721 3.3218 62 74 137 255 
-18.2177 0.193452 3.14365 60 80 139 255 
-18.1917 0.205714 2.95963 59 81 139 255 
-18.1978 0.22196 2.79137 60 80 139 255 
-18.2091 0.189932 2.64359 59 82 139 255 
-18.2019 0.19646 2.46437 57 86 140 255 
-18.1973 0.215305 2.28933 58 83 139 255 
-18.1695 0.227948 2.11852 60 79 138 255 
-18.1804 0.189632 1.97192 62 76 138 255 
-18.1811 0.205755 1.7988 58 83 139 255 
-18.1772 0.21824 1.62558 60 79 138 255 
-18.1593 0.237315 1.45481 63 71 136 255 
-18.1876 0.192878 1.31335 58 83 139 255 
-18.1671 0.208767 1.13987 55 90 140 255 
-0 0 0 68 1 84 255 
-7.48813 0.100469 0.328278 39 127 142 255 
-33.3544 0.365348 1.19981 71 13 96 255 
-18.2543 0.216141 0.484416 72 35 116 255 
-18.2029 0.231256 0.311401 71 19 101 255 
-33.4058 0.459857 0.262399 70 7 90 255 
-33.4079 0.371757 -0.00583115 70 11 94 255 
-7.23613 0.0882056 -0.0694691 72 27 109 255 
-18.2232 0.237876 -0.343569 61 77 138 255 
-18.1859 0.256683 -0.514383 72 22 104 255 
-18.1408 0.211353 -0.658897 72 26 108 255 
-18.2286 0.228563 -0.831011 72 24 106 255 
-18.2029 0.240787 -1.00185 72 22 104 255 
-18.1834 0.259817 -1.1728 71 17 100 255 
-7.33221 0.0867034 -0.532048 72 33 115 255 
-7.35777 0.094825 -0.602383 69 56 130 255 
-7.35567 0.101152 -0.672071 66 65 134 255 
-7.36885 0.105291 -0.743379 64 69 136 255 
-7.38769 0.0912223 -0.80523 65 66 135 255 
-7.40651 0.0967458 -0.878004 64 69 136 255 
-7.39386 0.102968 -0.947267 63 72 137 255 
-7.37264 0.107916 -1.01528 62 76 138 255 
-7.39195 0.0951399 -1.07978 61 78 138 255 
-7.4221 0.0995402 -1.15441 62 76 138 255 
-7.44359 0.10496 -1.2284 66 65 134 255 
-7.40185 0.108344 -1.29463 67 61 132 255 
-7.41545 0.100612 -1.36111 66 64 134 255 
-7.08563 0.0987377 -1.36718 62 73 137 255 
-6.71057 0.0946236 -1.36176 68 59 132 255 
-6.36734 0.0920912 -1.35705 67 61 132 255 
-6.06099 0.0854039 -1.34493 66 64 134 255 
-5.75798 0.0822469 -1.33371 61 78 138 255 
-5.46597 0.078982 -1.32149 65 66 135 255 
-5.26449 0.0743052 -1.32834 64 70 136 255 
-5.07391 0.0759167 -1.32653 65 68 135 255 
-4.84237 0.0725489 -1.31397 66 65 134 255 
-4.68592 0.0685285 -1.32083 68 58 131 255 
-4.51764 0.0621888 -1.32374 68 58 131 255 
-18.4181 0.314778 5.53352 72 24 106 255 
-18.4062 0.298775 5.32382 72 23 105 255 
-18.3708 0.291626 5.11949 72 24 106 255 
-18.4095 0.292603 4.94377 72 20 103 255 
-18.421 0.305193 4.78181 72 20 103 255 
-18.3397 0.300896 4.56641 69 53 129 255 
-18.3524 0.304148 4.38293 72 20 103 255 
-18.4068 0.3086 4.2163 71 17 100 255 
-18.3825 0.301351 4.05566 72 22 104 255 
-18.3573 0.30439 3.85898 71 16 99 255 
-18.2025 0.311195 3.64766 60 79 138 255 
-18.2078 0.317961 3.47386 62 76 138 255 
-18.1981 0.298328 3.32073 62 73 137 255 
-18.2064 0.305065 3.14195 59 82 139 255 
-18.1812 0.317177 2.95819 60 80 139 255 
-18.1941 0.333579 2.79106 61 77 138 255 
-18.2037 0.301592 2.64301 55 91 141 255 
-18.1894 0.307956 2.46289 58 84 140 255 
-18.1887 0.326833 2.28846 58 84 140 255 
-18.1717 0.339504 2.11898 61 78 138 255 
-18.1749 0.301116 1.97149 59 81 139 255 
-18.1675 0.317099 1.79762 59 81 139 255 
-18.1785 0.329823 1.62585 59 82 139 255 
-18.1485 0.348562 1.45409 62 74 137 255 
-18.1751 0.304288 1.31256 61 77 138 255 
-18.1655 0.320234 1.13987 57 86 140 255 
-0 0 0 68 2 86 255 
-7.48838 0.146433 0.328322 36 134 142 255 
-7.41412 0.126712 0.26672 72 27 109 255 
-7.45217 0.133974 0.197777 64 70 136 255 
-18.2011 0.342942 0.311401 72 20 103 255 
-7.23134 0.143929 0.0568073 69 56 130 255 
-7.26992 0.125515 -0.00126903 56 88 140 255 
-7.30344 0.13385 -0.0701219 42 120 142 255 
-7.33735 0.140811 -0.138348 46 109 142 255 
-7.34556 0.148763 -0.207789 51 99 141 255 
-7.35199 0.130777 -0.267058 66 64 134 255 
-7.31013 0.136525 -0.333288 62 74 137 255 
-7.36447 0.142617 -0.405367 47 108 142 255 
-7.32026 0.149527 -0.472196 63 71 136 255 
-7.34151 0.13187 -0.532772 62 74 137 255 
-7.3451 0.139742 -0.601404 62 76 138 255 
-7.34197 0.146026 -0.670888 62 74 137 255 
-7.33822 0.149894 -0.740368 65 68 135 255 
-7.37605 0.136348 -0.804038 64 69 136 255 
-7.40777 0.142228 -0.87824 63 71 136 255 
-7.38317 0.148135 -0.945996 63 72 137 255 
-7.38372 0.153399 -1.01692 65 68 135 255 
-7.38529 0.140381 -1.07891 64 69 136 255 
-7.44012 0.145446 -1.15733 63 72 137 255 
-7.44774 0.150731 -1.22921 68 57 131 255 
-7.8265 0.162597 -1.36905 68 59 132 255 
-7.48943 0.147583 -1.37483 65 66 135 255 
-7.0898 0.142311 -1.36812 62 74 137 255 
-6.71182 0.135837 -1.36216 62 74 137 255 
-6.36079 0.131038 -1.3558 66 63 133 255 
-6.06328 0.122651 -1.34558 63 72 137 255 
-5.75932 0.117616 -1.33416 60 80 139 255 
-5.48093 0.112839 -1.32524 66 64 134 255 
-5.27363 0.106802 -1.33079 64 69 136 255 
-5.07432 0.107069 -1.32679 62 73 137 255 
-4.85438 0.102525 -1.31738 65 66 135 255 
-4.67579 0.0970797 -1.31811 68 59 132 255 
-4.51718 0.0899074 -1.32374 69 55 129 255 
-18.3986 0.427383 5.52834 71 19 101 255 
-18.4223 0.412115 5.3291 72 28 110 255 
-18.3552 0.404045 5.11573 71 19 101 255 
-18.4209 0.405854 4.9474 72 26 108 255 
-18.382 0.417382 4.77227 72 26 108 255 
-18.3549 0.413814 4.57075 72 40 120 255 
-18.3706 0.417215 4.3878 71 19 101 255 
-18.3188 0.419572 4.19666 71 16 99 255 
-18.3803 0.414138 4.05566 72 22 104 255 
-18.3893 0.4178 3.86618 71 16 99 255 
-18.2022 0.422923 3.64806 60 80 139 255 
-18.2036 0.429629 3.47349 64 70 136 255 
-18.2028 0.410138 3.32198 61 77 138 255 
-18.1923 0.4165 3.13991 59 81 139 255 
-18.171 0.428543 2.9569 61 78 138 255 
-18.175 0.444799 2.78849 61 78 138 255 
-18.1945 0.413125 2.64201 57 86 140 255 
-18.1714 0.419193 2.46075 57 85 140 255 
-18.1486 0.437522 2.28372 61 78 138 255 
-18.1415 0.450307 2.11574 62 76 138 255 
-18.1638 0.412426 1.97052 59 81 139 255 
-18.1493 0.428192 1.79605 60 80 139 255 
-18.1622 0.441019 1.6246 56 88 140 255 
-18.14 0.459761 1.45361 63 72 137 255 
-18.151 0.415301 1.31097 60 79 138 255 
-18.1602 0.431618 1.13968 55 90 140 255 
-7.44914 0.184784 0.397034 66 63 133 255 
-7.44439 0.191275 0.326439 35 137 142 255 
-7.43718 0.172759 0.267582 44 113 142 255 
-7.43322 0.179263 0.1973 51 98 141 255 
-7.23368 0.180703 0.123777 68 58 131 255 
-7.24032 0.188557 0.0568858 37 132 142 255 
-7.24901 0.169652 -0.00126554 44 114 142 255 
-7.21951 0.176631 -0.0693252 41 121 142 255 
-7.24039 0.183399 -0.136538 50 101 142 255 
-7.2156 0.19043 -0.204142 49 103 142 255 
-7.25714 0.173639 -0.263646 51 99 141 255 
-7.23226 0.179468 -0.329781 48 105 142 255 
-7.18379 0.18322 -0.395476 49 103 142 255 
-7.20149 0.191314 -0.464601 47 107 142 255 
-7.19599 0.17343 -0.522279 53 94 141 255 
-7.3172 0.184131 -0.599201 60 80 139 255 
-7.34491 0.191177 -0.671252 62 76 138 255 
-7.34711 0.195182 -0.741372 64 70 136 255 
-7.42576 0.182853 -0.809564 64 69 136 255 
-7.4276 0.188206 -0.880712 71 45 123 255 
-11.3364 0.29705 -1.45273 72 35 116 255 
-10.4169 0.280368 -1.43487 69 53 129 255 
-9.70789 0.244126 -1.41841 70 48 126 255 
-9.01265 0.231517 -1.40214 69 55 129 255 
-8.42806 0.222313 -1.39121 68 57 131 255 
-7.91004 0.212896 -1.38387 68 59 132 255 
-7.49428 0.193687 -1.37592 64 70 136 255 
-7.07702 0.185502 -1.36585 62 73 137 255 
-6.70107 0.176759 -1.36017 66 64 134 255 
-6.3452 0.169672 -1.35267 65 66 135 255 
-6.03703 0.159183 -1.33995 65 68 135 255 
-5.72051 0.151943 -1.32536 63 72 137 255 
-5.4675 0.14613 -1.32219 62 76 138 255 
-5.28742 0.139543 -1.33446 64 69 136 255 
-5.0842 0.138492 -1.32957 61 77 138 255 
-4.85751 0.132414 -1.31843 66 63 133 255 
-4.67703 0.12582 -1.31866 66 63 133 255 
-4.53285 0.118047 -1.32852 69 56 130 255 
-18.3985 0.540352 5.52921 72 20 103 255 
-18.3915 0.524351 5.32104 72 24 106 255 
-18.3523 0.516662 5.11573 72 23 105 255 
-18.3785 0.51776 4.93677 72 26 108 255 
-18.3433 0.529132 4.76297 72 24 106 255 
-18.3588 0.526624 4.57244 72 33 115 255 
-18.3804 0.530291 4.39082 71 19 101 255 
-18.3626 0.533324 4.20737 71 14 97 255 
-18.315 0.525119 4.04187 71 16 99 255 
-18.359 0.529837 3.86042 71 13 96 255 
-18.1797 0.534026 3.64413 59 81 139 255 
-18.1937 0.541112 3.47218 64 70 136 255 
-18.1911 0.521567 3.32037 59 81 139 255 
-18.1747 0.52769 3.13736 58 84 140 255 
-18.1631 0.539883 2.9561 61 78 138 255 
-18.1432 0.555433 2.78409 62 73 137 255 
-18.1857 0.524585 2.64114 58 83 139 255 
-18.1466 0.530046 2.4578 59 81 139 255 
-18.1407 0.548722 2.28309 57 86 140 255 
-18.1404 0.561674 2.11597 61 77 138 255 
-18.1539 0.523669 1.96976 62 76 138 255 
-18.1414 0.539398 1.79556 58 84 140 255 
-18.1412 0.551906 1.623 59 82 139 255 
-18.1229 0.570618 1.45249 62 74 137 255 
-18.1301 0.526144 1.30968 58 83 139 255 
-18.1242 0.542054 1.13761 61 78 138 255 
-7.43888 0.23021 0.396555 47 108 142 255 
-7.4251 0.236377 0.32565 38 130 142 255 
-7.424 0.218037 0.267151 41 122 142 255 
-7.42998 0.224809 0.197247 46 111 142 255 
-7.28441 0.226702 0.124667 44 113 142 255 
-7.25302 0.23343 0.0569958 35 137 142 255 
-7.24584 0.214069 -0.00126519 33 144 141 255 
-7.20629 0.220558 -0.06921 36 135 142 255 
-7.18616 0.226155 -0.135539 44 115 142 255 
-7.18832 0.233856 -0.203407 45 113 142 255 
-7.17303 0.215671 -0.260633 42 119 142 255 
-7.17111 0.221987 -0.327049 42 119 142 255 
-7.24441 0.229253 -0.398883 42 119 142 255 
-7.25803 0.23739 -0.468334 59 82 139 255 
-7.23167 0.218696 -0.524956 59 82 139 255 
-7.29202 0.228277 -0.597243 60 80 139 255 
-7.3446 0.236273 -0.671343 61 77 138 255 
-7.3597 0.240715 -0.742777 72 41 121 255 
-13.6248 0.419164 -1.48565 72 38 119 255 
-12.401 0.390379 -1.47068 72 38 119 255 
-11.3156 0.365994 -1.45032 71 42 122 255 
-10.4061 0.343985 -1.43364 71 46 124 255 
-9.70324 0.303595 -1.41797 70 50 126 255 
-9.03476 0.287568 -1.40583 67 62 133 255 
-8.4502 0.274792 -1.39511 66 63 133 255 
-7.91843 0.261752 -1.38559 67 61 132 255 
-7.47525 0.239102 -1.37267 62 74 137 255 
-7.08261 0.229144 -1.36718 63 71 136 255 
-6.69104 0.217586 -1.35838 64 70 136 255 
-6.32254 0.207895 -1.34809 69 56 130 255 
-6.03009 0.196032 -1.33865 66 64 134 255 
-5.70486 0.186563 -1.32197 65 68 135 255 
-5.44513 0.178973 -1.31702 63 71 136 255 
-5.28646 0.171983 -1.33446 66 64 134 255 
-5.08132 0.169621 -1.32906 63 72 137 255 
-4.87108 0.1627 -1.32235 68 57 131 255 
-4.67521 0.154483 -1.31838 68 57 131 255 
-4.51765 0.145395 -1.32431 70 52 128 255 
-18.3824 0.652791 5.52547 72 24 106 255 
-18.3601 0.636224 5.31299 72 23 105 255 
-18.3892 0.630647 5.127 72 23 105 255 
-18.3711 0.630386 4.93573 71 19 101 255 
-18.3958 0.643637 4.77754 72 24 106 255 
-18.3543 0.639228 4.5722 72 27 109 255 
-18.3301 0.641429 4.37967 71 17 100 255 
-18.2976 0.643826 4.19331 71 16 99 255 
-18.3016 0.637147 4.03972 71 17 100 255 
-18.33 0.641586 3.85508 71 13 96 255 
-18.1829 0.645808 3.6455 61 78 138 255 
-18.1842 0.652525 3.47105 62 76 138 255 
-18.1689 0.632526 3.31696 60 80 139 255 
-18.1681 0.639093 3.13685 57 85 140 255 
-18.1545 0.651143 2.9553 58 84 140 255 
-18.1474 0.667037 2.7853 61 78 138 255 
-18.1466 0.634915 2.63597 57 85 140 255 
-18.1391 0.641242 2.45726 59 82 139 255 
-18.132 0.65984 2.28247 59 82 139 255 
-18.1326 0.672823 2.11551 62 76 138 255 
-18.1474 0.634945 1.96944 60 80 139 255 
-18.1407 0.650808 1.79585 57 85 140 255 
-18.1275 0.662844 1.62211 61 78 138 255 
-18.1121 0.681545 1.45193 63 71 136 255 
-18.1126 0.636888 1.30867 59 82 139 255 
-18.1016 0.652569 1.13642 60 80 139 255 
-7.42835 0.275516 0.396076 62 73 137 255 
-7.41253 0.281515 0.325169 35 137 142 255 
-7.39655 0.262664 0.266216 58 84 140 255 
-7.45044 0.271194 0.19783 37 132 142 255 
-7.30586 0.27225 0.12506 48 106 142 255 
-7.25745 0.278159 0.0570429 36 135 142 255 
-7.24239 0.258453 -0.00126484 36 135 142 255 
-7.2058 0.264808 -0.0692196 45 113 142 255 
-7.19164 0.270507 -0.135671 47 108 142 255 
-7.21672 0.279117 -0.204255 49 104 142 255 
-7.19254 0.26044 -0.261396 46 109 142 255 
-7.2974 0.270724 -0.332878 35 137 142 255 
-7.29574 0.275698 -0.401796 37 131 142 255 
-7.28935 0.283198 -0.470458 57 86 140 255 
-7.28502 0.265059 -0.528937 57 85 140 255 
-7.3124 0.273836 -0.599038 63 71 136 255 
-7.35296 0.281715 -0.672253 63 72 137 255 
-15.2371 0.591977 -1.53814 72 20 103 255 
-13.628 0.502977 -1.4863 72 33 115 255 
-12.3865 0.466015 -1.46927 72 41 121 255 
-11.3399 0.436448 -1.45375 72 38 119 255 
-10.3671 0.406393 -1.42859 71 47 125 255 
-9.69329 0.362831 -1.41682 70 52 128 255 
-9.04171 0.343336 -1.40721 67 62 133 255 
-8.44441 0.326484 -1.39446 63 71 136 255 
-7.90486 0.309871 -1.38352 66 64 134 255 
-7.44613 0.283915 -1.36761 62 74 137 255 
-7.085 0.272749 -1.36793 62 73 137 255 
-6.68272 0.258372 -1.35699 66 64 134 255 
-6.3231 0.246762 -1.3485 68 58 131 255 
-6.02877 0.233029 -1.33865 65 68 135 255 
-5.70458 0.221602 -1.3222 66 63 133 255 
-5.4381 0.212153 -1.31561 62 74 137 255 
-5.28627 0.204454 -1.3347 69 55 129 255 
-5.07825 0.20072 -1.32856 61 78 138 255 
-4.85167 0.19186 -1.31738 68 59 132 255 
-4.68091 0.183431 -1.32028 68 58 131 255 
-4.51572 0.173075 -1.32403 69 53 129 255 
-18.3168 0.76302 5.50705 72 24 106 255 
-18.354 0.74879 5.31243 72 20 103 255 
-18.3667 0.74273 5.1219 72 23 105 255 
-18.3765 0.743487 4.93832 72 22 104 255 
-18.3268 0.753835 4.76071 72 20 103 255 
-18.3238 0.750764 4.56568 71 19 101 255 
-18.3326 0.754168 4.3813 71 19 101 255 
-18.3011 0.756408 4.19509 71 17 100 255 
-18.3149 0.750151 4.04359 71 16 99 255 
-18.269 0.751711 3.84315 70 11 94 255 
-18.1551 0.756384 3.64079 59 82 139 255 
-18.171 0.763718 3.46937 63 72 137 255 
-18.1647 0.743996 3.31696 60 80 139 255 
-18.1511 0.75003 3.13464 61 78 138 255 
-18.1502 0.762525 2.9553 61 78 138 255 
-18.1607 0.779138 2.78803 57 85 140 255 
-18.1285 0.745679 2.63396 59 81 139 255 
-18.1249 0.752118 2.45592 58 83 139 255 
-18.1246 0.770957 2.28209 59 82 139 255 
-18.1222 0.783813 2.11481 58 84 140 255 
-18.1193 0.745303 1.96685 60 80 139 255 
-18.1274 0.761729 1.79497 58 84 140 255 
-18.0992 0.77304 1.61997 60 79 138 255 
-18.0807 0.791489 1.44977 62 73 137 255 
-18.1064 0.747931 1.30853 61 78 138 255 
-18.1013 0.763794 1.13667 59 81 139 255 
-18.0904 0.782152 0.96481 72 35 116 255 
-7.40568 0.326772 0.32495 52 97 141 255 
-7.38382 0.307586 0.265821 70 50 126 255 
-7.43266 0.316224 0.197406 54 92 141 255 
-7.35899 0.319458 0.126001 47 107 142 255 
-7.29456 0.324417 0.0573492 42 118 142 255 
-7.27664 0.304391 -0.00127112 35 137 142 255 
-7.26498 0.311631 -0.0698051 38 130 142 255 
-7.32269 0.320442 -0.138178 37 133 142 255 
-7.29276 0.326884 -0.20646 43 116 142 255 
-7.3216 0.310107 -0.26615 34 139 141 255 
-7.32354 0.316703 -0.334153 38 130 142 255 
-7.31586 0.321423 -0.403005 40 125 142 255 
-7.29146 0.328099 -0.470715 60 80 139 255 
-7.29023 0.310051 -0.529443 60 80 139 255 
-7.31157 0.318742 -0.59912 66 65 134 255 
-7.369 0.327623 -0.67389 61 77 138 255 
-7.36513 0.331414 -0.74368 63 71 136 255 
-13.6097 0.585945 -1.48467 72 28 110 255 
-12.3596 0.540966 -1.46644 71 44 122 255 
-11.333 0.505843 -1.45324 71 42 122 255 
-10.3615 0.469862 -1.42818 71 47 125 255 
-9.68791 0.422172 -1.41638 71 44 122 255 
-9.03055 0.398416 -1.40583 65 68 135 255 
-8.43535 0.377982 -1.39332 64 69 136 255 
-7.9156 0.358949 -1.38576 66 63 133 255 
-7.38922 0.327162 -1.3575 72 37 118 255 
-7.07829 0.315998 -1.36699 62 73 137 255 
-6.69276 0.299898 -1.35937 65 66 135 255 
-6.32537 0.285732 -1.34934 68 59 132 255 
-6.0126 0.269361 -1.3354 67 61 132 255 
-5.70896 0.256863 -1.32355 67 62 133 255 
-5.45612 0.246393 -1.32031 62 74 137 255 
-5.26458 0.235975 -1.32957 66 65 134 255 
-5.04407 0.230375 -1.31996 62 73 137 255 
-4.87836 0.222904 -1.32497 67 61 132 255 
-4.66046 0.211277 -1.31486 69 55 129 255 
-4.5021 0.200226 -1.32037 70 52 128 255 
-18.3329 0.876402 5.51338 72 24 106 255 
-18.3759 0.862655 5.32021 72 26 108 255 
-18.3195 0.853439 5.11009 72 27 109 255 
-18.3272 0.854161 4.92639 72 22 104 255 
-18.3121 0.865814 4.7582 72 23 105 255 
-18.2821 0.861447 4.5565 72 20 103 255 
-18.3286 0.866687 4.38153 71 19 101 255 
-18.2767 0.867762 4.19063 71 13 96 255 
-18.2924 0.861689 4.03972 72 22 104 255 
-18.2983 0.865411 3.85034 71 16 99 255 
-18.1462 0.86758 3.64 59 81 139 255 
-18.1542 0.874631 3.46712 63 71 136 255 
-18.1332 0.854188 3.31211 60 80 139 255 
-18.156 0.861856 3.13634 57 85 140 255 
-18.1383 0.873545 2.95417 60 79 138 255 
-18.1477 0.890168 2.78682 60 80 139 255 
-18.1206 0.856759 2.63353 60 80 139 255 
-18.111 0.862892 2.45471 59 81 139 255 
-18.1146 0.881912 2.28147 58 84 140 255 
-18.1131 0.894797 2.11435 59 82 139 255 
-18.1055 0.856044 1.96588 57 85 140 255 
-18.1135 0.872512 1.79408 58 84 140 255 
-18.1051 0.884615 1.62095 59 82 139 255 
-18.0964 0.903459 1.45145 62 74 137 255 
-18.0975 0.858826 1.30824 59 81 139 255 
-18.1102 0.875522 1.13755 61 78 138 255 
-18.0743 0.892596 0.964225 71 16 99 255 
-33.2181 1.67001 1.45798 70 11 94 255 
-7.41872 0.354652 0.267151 71 45 123 255 
-18.0972 0.881224 0.480782 72 31 112 255 
-7.40183 0.366833 0.12677 39 128 142 255 
-7.36234 0.372709 0.057899 43 116 142 255 
-7.32557 0.351478 -0.00128002 39 126 142 255 
-7.32286 0.359141 -0.0703811 40 125 142 255 
-7.34156 0.366414 -0.138574 39 126 142 255 
-7.34652 0.374475 -0.208043 42 118 142 255 
-7.33753 0.355897 -0.266804 39 126 142 255 
-7.3494 0.363014 -0.335428 45 112 142 255 
-7.35264 0.368254 -0.405148 41 123 142 255 
-7.28931 0.372832 -0.470715 66 65 134 255 
-7.29018 0.354874 -0.529588 58 83 139 255 
-7.34034 0.365134 -0.601649 64 70 136 255 
-7.36287 0.372631 -0.673526 59 82 139 255 
-7.3421 0.375532 -0.741573 63 71 136 255 
-7.35649 0.361957 -0.802738 62 76 138 255 
-7.35529 0.367164 -0.872943 64 70 136 255 
-7.285 0.369964 -0.934433 72 32 113 255 
-10.3604 0.533532 -1.42846 72 35 116 255 
-9.70194 0.482444 -1.41884 72 41 121 255 
-9.00425 0.452629 -1.40214 64 69 136 255 
-8.39839 0.427976 -1.38762 67 62 133 255 
-7.86505 0.405029 -1.37732 70 50 126 255 
-7.29473 0.367839 -1.34054 72 33 115 255 
-7.05464 0.358328 -1.36282 64 69 136 255 
-6.68297 0.340559 -1.35778 65 68 135 255 
-6.31276 0.323987 -1.34704 71 46 124 255 
-6.00889 0.306149 -1.33497 65 66 135 255 
-5.681 0.290544 -1.31746 67 62 133 255 
-5.45062 0.279667 -1.31937 62 74 137 255 
-5.23108 0.266644 -1.32149 67 62 133 255 
-5.02903 0.260619 -1.31642 64 70 136 255 
-4.85087 0.251483 -1.3179 66 63 133 255 
-4.65235 0.239523 -1.31296 68 58 131 255 
-4.4682 0.226197 -1.31081 69 53 129 255 
-18.3195 0.98846 5.51108 72 22 104 255 
-18.3319 0.973354 5.3091 72 28 110 255 
-18.3168 0.965982 5.1109 72 24 106 255 
-18.2956 0.965225 4.91939 72 23 105 255 
-18.2939 0.977488 4.75493 72 24 106 255 
-18.259 0.972678 4.55215 71 14 97 255 
-18.323 0.979133 4.38153 71 16 99 255 
-18.2622 0.97942 4.18862 71 14 97 255 
-18.279 0.973497 4.03799 71 19 101 255 
-18.2809 0.977044 3.84788 70 11 94 255 
-18.1493 0.979383 3.64177 59 82 139 255 
-18.1436 0.985741 3.46618 61 77 138 255 
-18.1119 0.964598 3.30924 60 80 139 255 
-18.11 0.971079 3.12937 59 82 139 255 
-18.1316 0.98477 2.95401 59 82 139 255 
-18.135 1.00112 2.78576 57 85 140 255 
-18.1338 0.968932 2.63626 55 91 141 255 
-18.1222 0.974908 2.45699 58 84 140 255 
-18.096 0.992338 2.27985 57 85 140 255 
-18.1082 1.00598 2.11446 61 78 138 255 
-18.0939 0.966803 1.96523 59 81 139 255 
-18.1018 0.983314 1.79349 57 86 140 255 
-18.0963 0.995524 1.62068 59 82 139 255 
-18.0965 1.01481 1.45193 64 70 136 255 
-18.0829 0.969374 1.30759 61 78 138 255 
-18.0885 0.985759 1.13655 59 81 139 255 
-28.5484 1.58551 1.52349 69 4 87 255 
-33.2142 1.8742 1.45829 70 11 94 255 
-33.1713 1.78982 1.19488 71 19 101 255 
-33.1944 1.82059 0.882145 70 11 94 255 
-7.42839 0.413856 0.127266 67 61 132 255 
-7.42681 0.421674 0.0584252 41 122 142 255 
-7.40416 0.400799 -0.00129416 37 131 142 255 
-7.40938 0.408971 -0.0712354 39 127 142 255 
-7.40006 0.414868 -0.139723 41 121 142 255 
-7.39299 0.422339 -0.209428 45 113 142 255 
-7.3841 0.403585 -0.268582 44 114 142 255 
-7.40588 0.411371 -0.338115 45 112 142 255 
-7.38813 0.415492 -0.407236 43 116 142 255 
-7.27094 0.416638 -0.469686 64 69 136 255 
-7.31774 0.401237 -0.531759 63 71 136 255 
-7.35985 0.411391 -0.603444 57 85 140 255 
-7.3694 0.418309 -0.674345 60 79 138 255 
-7.35257 0.421315 -0.742877 62 73 137 255 
-7.34321 0.406484 -0.801546 60 80 139 255 
-7.33009 0.41101 -0.870235 59 81 139 255 
-7.29943 0.415616 -0.936593 64 69 136 255 
-7.31868 0.421933 -1.00941 62 73 137 255 
-7.30596 0.408254 -1.06879 66 64 134 255 
-7.2995 0.411851 -1.13705 69 56 130 255 
-7.27363 0.41542 -1.20218 67 61 132 255 
-7.26155 0.418639 -1.27206 67 61 132 255 
-7.28645 0.412258 -1.33945 71 17 100 255 
-7.05035 0.401496 -1.36244 64 70 136 255 
-6.66705 0.380777 -1.355 66 65 134 255 
-6.30772 0.362547 -1.34642 70 52 128 255 
-5.9796 0.341455 -1.3289 68 58 131 255 
-5.67231 0.325006 -1.31588 64 69 136 255 
-5.43328 0.312214 -1.31561 65 68 135 255 
-5.23418 0.299013 -1.32272 66 64 134 255 
-5.0283 0.291528 -1.31667 65 66 135 255 
-4.86851 0.282361 -1.32314 66 63 133 255 
-4.64695 0.267843 -1.31187 69 56 130 255 
-4.49835 0.255404 -1.32009 69 55 129 255 
-18.3274 1.10171 5.5154 72 22 104 255 
-18.3064 1.08468 5.30354 72 26 108 255 
-18.3336 1.07971 5.11734 72 26 108 255 
-18.2884 1.07741 4.91913 72 27 109 255 
-18.3049 1.09075 4.75945 72 24 106 255 
-18.3137 1.08832 4.56737 71 16 99 255 
-18.2419 1.08709 4.36365 71 17 100 255 
-18.2734 1.0925 4.19264 70 11 94 255 
-18.2717 1.08558 4.03778 71 14 97 255 
-18.2472 1.08757 3.84212 70 11 94 255 
-18.1312 1.09002 3.63941 60 80 139 255 
-18.147 1.09764 3.46805 59 82 139 255 
-18.0998 1.07536 3.30816 59 81 139 255 
-18.0889 1.0813 3.12682 57 85 140 255 
-18.1045 1.09475 2.95064 59 82 139 255 
-18.1098 1.11123 2.78288 62 74 137 255 
-18.1107 1.07918 2.63382 57 85 140 255 
-18.1159 1.08609 2.45699 55 90 140 255 
-18.1024 1.10414 2.28147 58 84 140 255 
-18.0779 1.1156 2.11169 60 80 139 255 
-18.0857 1.07769 1.96502 59 82 139 255 
-18.0895 1.09401 1.7929 55 90 140 255 
-18.0819 1.10606 1.61997 59 81 139 255 
-18.078 1.12509 1.45097 62 76 138 255 
-18.0696 1.07989 1.30709 59 81 139 255 
-18.0901 1.09721 1.13705 59 82 139 255 
-28.6408 1.76699 1.52897 70 10 93 255 
-33.1782 2.07646 1.45724 70 11 94 255 
-33.1896 1.99512 1.19596 71 14 97 255 
-33.2086 2.02582 0.882835 70 11 94 255 
-33.2136 2.05492 0.569235 70 8 92 255 
-7.46101 0.46956 0.0587158 58 84 140 255 
-7.44249 0.44869 -0.00130132 41 122 142 255 
-7.45364 0.457305 -0.0716866 45 113 142 255 
-7.4343 0.462564 -0.140421 60 79 138 255 
-7.49899 0.474575 -0.21251 72 41 121 255 
-7.41441 0.450888 -0.26978 57 86 140 255 
-7.42515 0.458158 -0.339117 54 92 141 255 
-7.40537 0.462061 -0.408335 58 83 139 255 
-7.31008 0.463898 -0.472389 65 66 135 255 
-7.33704 0.447466 -0.533351 59 82 139 255 
-7.36316 0.456912 -0.603934 60 79 138 255 
-7.38259 0.46452 -0.675801 67 62 133 255 
-7.39651 0.469384 -0.747594 69 53 129 255 
-7.3624 0.452877 -0.80393 63 72 137 255 
-7.3304 0.456164 -0.870588 62 73 137 255 
-7.29872 0.460521 -0.936847 63 72 137 255 
-7.29915 0.465759 -1.00709 65 68 135 255 
-7.30332 0.453075 -1.06879 62 73 137 255 
-7.28204 0.455706 -1.13474 62 73 137 255 
-7.26799 0.459855 -1.2017 65 68 135 255 
-7.20674 0.459863 -1.26293 70 50 126 255 
-7.2131 0.452525 -1.32645 72 20 103 255 
-7.06147 0.445614 -1.36509 66 64 134 255 
-6.62156 0.418955 -1.34625 65 68 135 255 
-6.3083 0.40143 -1.34704 69 56 130 255 
-5.98909 0.378878 -1.3315 67 62 133 255 
-5.67118 0.359867 -1.31611 63 72 137 255 
-5.43514 0.345793 -1.31655 64 69 136 255 
-5.23128 0.331062 -1.32247 67 61 132 255 
-5.03607 0.322994 -1.3192 62 73 137 255 
-4.87824 0.312969 -1.32628 66 64 134 255 
-4.65098 0.296719 -1.3135 66 64 134 255 
-4.47275 0.281494 -1.31306 68 57 131 255 
-18.0852 1.19856 5.44462 61 78 138 255 
-18.1566 1.18764 5.26214 62 73 137 255 
-18.2036 1.18418 5.08298 66 63 133 255 
-18.1908 1.18371 4.89475 69 56 130 255 
-18.1637 1.19422 4.72453 66 64 134 255 
-18.2137 1.19457 4.54418 66 64 134 255 
-18.2242 1.19829 4.36109 69 55 129 255 
-18.1953 1.19992 4.17634 69 53 129 255 
-18.2023 1.19358 4.02399 70 51 127 255 
-18.1943 1.19649 3.83245 71 44 122 255 
-18.1056 1.20002 3.63568 62 73 137 255 
-18.0968 1.2061 3.45981 64 69 136 255 
-18.086 1.18595 3.30691 62 76 138 255 
-18.0987 1.19337 3.12971 60 79 138 255 
-18.0807 1.2047 2.94791 62 74 137 255 
-18.1046 1.22246 2.78318 61 77 138 255 
-18.083 1.18892 2.6308 55 91 141 255 
-18.0911 1.19605 2.45458 58 84 140 255 
-18.0616 1.21293 2.27723 57 85 140 255 
-18.0757 1.22684 2.11226 59 82 139 255 
-18.0628 1.1876 1.96329 60 80 139 255 
-18.1063 1.20657 1.79526 56 89 140 255 
-18.0758 1.21705 1.62006 60 80 139 255 
-18.0588 1.23518 1.45001 62 76 138 255 
-18.0577 1.19042 1.30673 61 77 138 255 
-18.085 1.20832 1.13718 58 84 140 255 
-28.7002 1.94749 1.53275 70 8 92 255 
-33.1738 2.28062 1.45763 70 11 94 255 
-33.1857 2.19932 1.19628 71 14 97 255 
-33.1875 2.22901 0.882623 71 17 100 255 
-33.2134 2.25956 0.569457 70 7 90 255 
-33.2098 2.29473 0.261456 71 13 96 255 
-7.4825 0.497199 -0.00130882 71 46 124 255 
-7.4896 0.505658 -0.0720609 72 36 117 255 
-18.0616 1.23509 -0.341289 65 68 135 255 
-18.0613 1.25432 -0.512037 72 27 109 255 
-18.0546 1.20918 -0.657191 72 29 111 255 
-18.0636 1.22589 -0.825319 72 31 112 255 
-18.111 1.24165 -0.999049 72 32 113 255 
-18.0557 1.2571 -1.16726 72 22 104 255 
-7.37198 0.495016 -0.536101 63 72 137 255 
-7.33735 0.500523 -0.602057 71 44 122 255 
-17.1018 1.18146 -1.56613 72 23 105 255 
-15.1145 1.05232 -1.52831 72 27 109 255 
-13.5684 0.918225 -1.48218 72 29 111 255 
-7.3344 0.501608 -0.871412 72 29 111 255 
-7.30467 0.505914 -0.937991 68 58 131 255 
-7.28627 0.509846 -1.00573 66 63 133 255 
-7.29349 0.497407 -1.06778 62 73 137 255 
-7.25939 0.499024 -1.13167 64 69 136 255 
-7.26798 0.504647 -1.20218 64 69 136 255 
-7.20575 0.504211 -1.26328 66 64 134 255 
-7.19547 0.495761 -1.32375 69 55 129 255 
-7.05371 0.488595 -1.36414 64 70 136 255 
-6.62375 0.459915 -1.34724 66 64 134 255 
-6.29987 0.43972 -1.34579 67 62 133 255 
-5.9847 0.415484 -1.33107 66 64 134 255 
-5.67664 0.395199 -1.31791 65 68 135 255 
-5.44067 0.379677 -1.31843 63 72 137 255 
-5.23109 0.363289 -1.32296 67 62 133 255 
-5.02724 0.353414 -1.31743 64 69 136 255 
-4.83291 0.339849 -1.3145 65 66 135 255 
-4.63947 0.324579 -1.31079 68 58 131 255 
-4.46233 0.308337 -1.31053 68 57 131 255 
-17.8951 1.29629 5.38968 59 81 139 255 
-17.9027 1.2814 5.19075 55 90 140 255 
-17.9068 1.27526 5.00219 56 88 140 255 
-17.8807 1.27376 4.81333 57 86 140 255 
-17.8818 1.28593 4.65319 56 88 140 255 
-17.8683 1.28207 4.45987 60 80 139 255 
-17.8866 1.28637 4.28213 59 81 139 255 
-17.8823 1.28953 4.10624 61 78 138 255 
-17.8625 1.28142 3.95053 58 83 139 255 
-17.8772 1.28585 3.76725 58 84 140 255 
-17.8417 1.29253 3.58421 53 94 141 255 
-17.8706 1.3012 3.41802 56 89 140 255 
-17.8301 1.27909 3.2615 57 86 140 255 
-17.8384 1.28619 3.08601 53 95 141 255 
-17.8249 1.29756 2.90745 54 93 141 255 
-17.8463 1.31507 2.74467 52 96 141 255 
-17.874 1.28537 2.60149 53 95 141 255 
-17.8759 1.29203 2.4264 53 95 141 255 
-17.854 1.30908 2.25201 53 95 141 255 
-17.836 1.32056 2.08517 61 78 138 255 
-17.9303 1.28942 1.94971 65 68 135 255 
-17.9248 1.305 1.77803 61 78 138 255 
-17.8375 1.311 1.5994 62 74 137 255 
-17.8034 1.32751 1.43013 65 68 135 255 
-17.9695 1.29539 1.30089 63 71 136 255 
-18.0464 1.31702 1.13523 60 79 138 255 
-18.037 1.33516 0.963693 60 79 138 255 
-18.0361 1.35118 0.792842 60 79 138 255 
-18.0759 1.30939 0.651881 67 62 133 255 
-18.0771 1.3256 0.480967 65 68 135 255 
-18.0438 1.33882 0.309503 62 73 137 255 
-18.0344 1.35738 0.142046 61 77 138 255 
-18.0235 1.30876 -0.00315398 71 45 123 255 
-18.0532 1.33018 -0.173774 66 63 133 255 
-18.0856 1.34827 -0.341892 38 129 142 255 
-18.0542 1.36519 -0.512065 44 114 142 255 
-18.0429 1.31965 -0.657046 71 46 124 255 
-18.0468 1.33604 -0.824909 67 62 133 255 
-18.0513 1.34888 -0.996192 67 62 133 255 
-18.0238 1.36605 -1.16572 65 66 135 255 
-17.9465 1.31574 -1.30566 72 24 106 255 
-17.5278 1.30377 -1.43885 71 46 124 255 
-17.0764 1.28503 -1.5645 72 22 104 255 
-15.1256 1.1464 -1.53011 72 29 111 255 
-13.5169 0.998094 -1.47719 72 37 118 255 
-12.2421 0.91275 -1.45514 72 40 120 255 
-11.1856 0.843694 -1.43697 72 40 120 255 
-10.2997 0.784244 -1.42232 71 44 122 255 
-9.58653 0.712911 -1.4041 71 42 122 255 
-8.88992 0.665939 -1.38646 69 56 130 255 
-8.35682 0.631797 -1.3829 68 57 131 255 
-7.80461 0.59426 -1.36888 70 50 126 255 
-7.36982 0.553229 -1.35642 72 41 121 255 
-7.03393 0.530611 -1.36092 63 71 136 255 
-6.61201 0.499884 -1.34545 65 66 135 255 
-6.30583 0.479034 -1.34767 69 56 130 255 
-5.9577 0.450358 -1.32565 66 63 133 255 
-5.68091 0.430538 -1.31949 63 72 137 255 
-5.46247 0.414894 -1.3243 65 66 135 255 
-5.22199 0.394868 -1.32125 67 62 133 255 
-5.02594 0.384328 -1.31768 66 65 134 255 
-4.83747 0.370012 -1.31633 66 64 134 255 
-4.65755 0.354575 -1.31649 68 57 131 255 
-4.47183 0.336576 -1.3139 70 52 128 255 
-17.8772 1.40532 5.3868 57 86 140 255 
-17.8916 1.391 5.18991 55 90 140 255 
-17.8871 1.38421 4.99897 58 83 139 255 
-17.8658 1.38292 4.81151 56 89 140 255 
-17.8803 1.39616 4.65494 56 88 140 255 
-17.9055 1.39523 4.47122 61 77 138 255 
-17.8765 1.39595 4.28166 58 83 139 255 
-17.8449 1.39695 4.09954 65 68 135 255 
-17.8631 1.39168 3.95247 61 77 138 255 
-17.8836 1.39666 3.77033 57 86 140 255 
-17.8403 1.40252 3.58558 54 92 141 255 
-17.8593 1.4106 3.41746 55 90 140 255 
-17.818 1.38817 3.26078 55 90 140 255 
-17.8164 1.39454 3.08363 54 92 141 255 
-17.8205 1.40722 2.90809 54 93 141 255 
-17.836 1.42439 2.74437 53 94 141 255 
-17.8441 1.39333 2.59833 50 100 142 255 
-17.837 1.39928 2.42224 50 101 142 255 
-17.8248 1.41695 2.24939 53 95 141 255 
-17.8187 1.42926 2.08412 58 83 139 255 
-17.8328 1.39245 1.94 57 85 140 255 
-17.8103 1.40657 1.7675 57 86 140 255 
-17.7874 1.4171 1.59566 58 83 139 255 
-17.7929 1.43656 1.42997 61 78 138 255 
-17.8001 1.39301 1.28922 57 85 140 255 
-17.8022 1.40906 1.12039 62 76 138 255 
-17.7886 1.42657 0.95087 66 65 134 255 
-17.7735 1.44123 0.781675 66 65 134 255 
-17.7806 1.39773 0.641529 66 63 133 255 
-17.7806 1.4136 0.473302 65 68 135 255 
-17.7591 1.42732 0.304765 65 66 135 255 
-17.7547 1.44593 0.139909 69 56 130 255 
-17.7819 1.40095 -0.00311314 66 63 133 255 
-17.7816 1.41992 -0.171239 68 57 131 255 
-17.7551 1.43323 -0.335804 69 53 129 255 
-17.7536 1.45207 -0.503781 70 50 126 255 
-17.8073 1.41232 -0.648771 69 56 130 255 
-17.7864 1.42655 -0.813388 69 53 129 255 
-17.7322 1.4345 -0.979047 71 47 125 255 
-17.7425 1.45428 -1.14808 70 52 128 255 
-17.7482 1.41074 -1.29184 72 40 120 255 
-17.6734 1.4237 -1.4515 71 46 124 255 
-17.0196 1.38582 -1.56004 72 20 103 255 
-15.0668 1.23496 -1.5249 72 28 110 255 
-13.5106 1.08101 -1.47719 72 41 121 255 
-12.2471 0.988728 -1.45643 72 37 118 255 
-11.2019 0.914086 -1.43977 71 42 122 255 
-10.2769 0.845964 -1.41986 70 50 126 255 
-9.6017 0.773308 -1.40699 69 55 129 255 
-8.95264 0.725904 -1.39691 66 65 134 255 
-8.36459 0.684026 -1.38486 66 64 134 255 
-7.84499 0.645774 -1.37663 69 56 130 255 
-7.43001 0.603616 -1.36815 60 80 139 255 
-7.01293 0.572322 -1.35751 64 69 136 255 
-6.62542 0.541803 -1.34883 66 65 134 255 
-6.27938 0.515795 -1.34267 69 55 129 255 
-5.95872 0.487223 -1.32652 70 51 127 255 
-5.68787 0.466183 -1.32175 62 73 137 255 
-5.42882 0.445857 -1.31679 68 57 131 255 
-5.21077 0.42619 -1.31905 68 59 132 255 
-5.01288 0.414283 -1.3149 67 62 133 255 
-4.80817 0.397461 -1.309 66 64 134 255 
-4.64281 0.38212 -1.31296 67 61 132 255 
-4.47351 0.36432 -1.31503 70 52 128 255 
-17.8654 1.51475 5.38594 58 83 139 255 
-17.8722 1.49987 5.18686 59 82 139 255 
-17.8783 1.49394 4.99897 57 86 140 255 
-17.8512 1.49204 4.80996 56 88 140 255 
-17.8512 1.50414 4.64967 58 84 140 255 
-17.8841 1.50401 4.46808 61 78 138 255 
-17.854 1.50446 4.27841 60 79 138 255 
-17.8496 1.50757 4.10267 65 68 135 255 
-17.8513 1.50102 3.95183 58 83 139 255 
-17.864 1.50546 3.76807 55 90 140 255 
-17.8343 1.5122 3.58617 51 99 141 255 
-17.8288 1.51832 3.41334 59 82 139 255 
-17.8258 1.49887 3.26383 56 89 140 255 
-17.8026 1.50342 3.08278 55 91 141 255 
-17.8175 1.51704 2.90905 53 94 141 255 
-17.8348 1.53448 2.74558 54 92 141 255 
-17.8302 1.50237 2.59761 50 102 142 255 
-17.8241 1.50837 2.42171 50 102 142 255 
-17.8049 1.52537 2.24802 50 100 142 255 
-17.7908 1.53695 2.08192 61 77 138 255 
-17.8259 1.50201 1.94022 56 88 140 255 
-17.7855 1.51448 1.76592 55 91 141 255 
-17.7943 1.52758 1.59708 60 80 139 255 
-17.7887 1.54614 1.43037 63 72 137 255 
-17.7773 1.50103 1.28822 60 80 139 255 
-17.7813 1.51725 1.11964 61 77 138 255 
-17.7705 1.53491 0.950391 65 66 135 255 
-17.7564 1.54956 0.781324 67 62 133 255 
-17.7837 1.50781 0.64196 65 66 135 255 
-17.7746 1.52292 0.473381 65 66 135 255 
-17.767 1.53773 0.305056 66 65 134 255 
-17.7395 1.55432 0.139862 66 64 134 255 
-17.754 1.50842 -0.00310983 67 61 132 255 
-17.7397 1.52617 -0.170923 67 62 133 255 
-17.736 1.54129 -0.335615 68 58 131 255 
-17.7234 1.55914 -0.503188 69 53 129 255 
-17.7495 1.51738 -0.646992 68 58 131 255 
-17.7454 1.5329 -0.811931 65 68 135 255 
-17.732 1.54405 -0.979542 69 53 129 255 
-17.7422 1.56391 -1.14866 69 55 129 255 
-17.6925 1.51561 -1.28844 71 46 124 255 
-17.6743 1.53297 -1.45231 70 48 126 255 
-16.9651 1.48623 -1.55585 72 20 103 255 
-15.0113 1.32319 -1.52008 72 32 113 255 
-13.5057 1.16406 -1.47741 71 46 124 255 
-12.2121 1.06136 -1.45302 72 38 119 255 
-11.204 0.983496 -1.44079 72 40 120 255 
-10.2637 0.908307 -1.41877 68 59 132 255 
-9.59874 0.832379 -1.40728 70 50 126 255 
-8.949 0.780909 -1.39707 66 65 134 255 
-8.33959 0.733522 -1.38144 66 63 133 255 
-7.83892 0.693724 -1.37629 67 61 132 255 
-7.42421 0.649023 -1.36779 63 72 137 255 
-6.99852 0.614398 -1.35543 67 62 133 255 
-6.62685 0.582875 -1.34983 66 64 134 255 
-6.2683 0.553627 -1.341 71 44 122 255 
-5.92547 0.521125 -1.3198 68 57 131 255 
-5.67325 0.500048 -1.31904 63 72 137 255 
-5.42695 0.479245 -1.31702 69 56 130 255 
-5.20806 0.458155 -1.31905 67 61 132 255 
-4.99001 0.443236 -1.30959 66 65 134 255 
-4.85563 0.431398 -1.32262 68 58 131 255 
-4.64518 0.411025 -1.31432 70 52 128 255 
-4.47406 0.392013 -1.31587 70 50 126 255 
-17.8586 1.6246 5.3868 57 86 140 255 
-17.8531 1.60865 5.18408 57 85 140 255 
-17.8659 1.60335 4.99816 59 81 139 255 
-17.8331 1.60077 4.80762 56 88 140 255 
-17.8426 1.61373 4.64992 58 84 140 255 
-17.8397 1.61058 4.45938 59 81 139 255 
-17.8415 1.61372 4.27771 62 76 138 255 
-17.843 1.61732 4.10334 64 69 136 255 
-17.832 1.60964 3.94967 62 76 138 255 
-17.8407 1.61381 3.76519 58 83 139 255 
-17.8129 1.62054 3.58382 54 93 141 255 
-17.8182 1.6276 3.41315 54 92 141 255 
-17.8163 1.60822 3.26383 55 91 141 255 
-17.8009 1.61334 3.08414 54 93 141 255 
-17.8216 1.6276 2.9113 55 90 140 255 
-17.7916 1.6408 2.74043 53 94 141 255 
-17.8059 1.61041 2.59546 51 99 141 255 
-17.8037 1.61672 2.42023 50 101 142 255 
-17.7883 1.63395 2.24715 53 95 141 255 
-17.779 1.6459 2.08169 59 82 139 255 
-17.7886 1.60885 1.9372 57 85 140 255 
-17.764 1.62249 1.76474 57 85 140 255 
-17.7836 1.63664 1.59699 58 84 140 255 
-17.7789 1.65526 1.43037 62 74 137 255 
-17.7687 1.61017 1.28829 57 86 140 255 
-17.7796 1.62705 1.12014 60 79 138 255 
-17.7588 1.64374 0.950284 66 64 134 255 
-17.7555 1.65932 0.781718 66 65 134 255 
-17.7671 1.61627 0.641709 66 65 134 255 
-17.7808 1.63342 0.473805 69 56 130 255 
-17.7363 1.64478 0.304697 68 59 132 255 
-17.7067 1.66099 0.139682 70 52 128 255 
-17.7355 1.61651 -0.00310826 65 68 135 255 
-17.728 1.6348 -0.170904 68 57 131 255 
-17.7332 1.65073 -0.335747 68 59 132 255 
-17.7115 1.66767 -0.503131 70 52 128 255 
-17.7289 1.62526 -0.646593 66 63 133 255 
-17.7237 1.64065 -0.811384 68 58 131 255 
-17.7321 1.65375 -0.980091 70 51 127 255 
-17.7124 1.67087 -1.14738 70 48 126 255 
-17.6749 1.62342 -1.28786 70 51 127 255 
-17.6834 1.64314 -1.45386 71 46 124 255 
-16.9279 1.58769 -1.55331 72 26 108 255 
-14.99 1.41406 -1.51877 72 28 110 255 
-13.4725 1.24453 -1.47459 72 35 116 255 
-12.1767 1.13361 -1.44961 71 44 122 255 
-11.1829 1.05083 -1.43888 71 42 122 255 
-10.2283 0.968466 -1.41468 70 52 128 255 
-9.58163 0.890162 -1.40554 69 55 129 255 
-8.93224 0.834701 -1.39522 66 65 134 255 
-8.33199 0.784402 -1.38095 65 68 135 255 
-7.81687 0.740138 -1.37319 65 68 135 255 
-7.40442 0.693098 -1.36491 65 68 135 255 
-6.97018 0.655031 -1.35069 66 65 134 255 
-6.59876 0.62123 -1.34486 66 64 134 255 
-6.26186 0.591802 -1.34037 71 47 125 255 
-5.92508 0.557748 -1.32045 67 61 132 255 
-5.66038 0.533934 -1.31678 64 70 136 255 
-5.43649 0.513724 -1.32008 68 58 131 255 
-5.21384 0.490921 -1.32125 67 62 133 255 
-5.00646 0.475676 -1.31465 66 63 133 255 
-4.8356 0.45954 -1.3179 66 65 134 255 
-4.62819 0.438158 -1.31025 69 56 130 255 
-4.47539 0.419817 -1.317 69 55 129 255 
-17.8579 1.73507 5.38968 56 88 140 255 
-17.8611 1.71991 5.18936 56 88 140 255 
-17.8586 1.71322 4.99897 56 88 140 255 
-17.8441 1.71219 4.81333 60 80 139 255 
-17.8304 1.72299 4.64942 59 81 139 255 
-17.8343 1.72047 4.46059 60 80 139 255 
-17.8352 1.72354 4.27864 60 80 139 255 
-17.8055 1.72415 4.09709 62 73 137 255 
-17.816 1.71847 3.94838 61 77 138 255 
-17.8383 1.724 3.76683 58 84 140 255 
-17.8017 1.72971 3.58362 53 94 141 255 
-17.7854 1.73471 3.40884 60 80 139 255 
-17.7933 1.71628 3.2615 55 90 140 255 
-17.8005 1.72348 3.08584 52 96 141 255 
-17.7945 1.73529 2.90857 55 91 141 255 
-17.7635 1.74819 2.7377 55 91 141 255 
-17.8026 1.7203 2.59646 50 100 142 255 
-17.7757 1.72421 2.41782 55 91 141 255 
-17.7641 1.74171 2.2454 52 96 141 255 
-17.7647 1.75456 2.08123 61 77 138 255 
-17.7656 1.71673 1.9358 60 80 139 255 
-17.7636 1.73243 1.76573 57 86 140 255 
-17.7732 1.74573 1.59699 59 81 139 255 
-17.7635 1.76383 1.42997 59 81 139 255 
-17.7595 1.71927 1.28836 58 84 140 255 
-17.7673 1.73592 1.12002 60 79 138 255 
-17.7474 1.75258 0.950231 65 66 135 255 
-17.748 1.76853 0.78185 67 61 132 255 
-17.7489 1.72448 0.641421 66 64 134 255 
-17.7486 1.74035 0.473222 66 65 134 255 
-17.7547 1.75643 0.305193 69 55 129 255 
-17.6892 1.76891 0.139627 67 62 133 255 
-17.7242 1.72521 -0.00310808 66 64 134 255 
-17.7226 1.74404 -0.170952 68 58 131 255 
-17.7128 1.75852 -0.335559 68 57 131 255 
-17.7119 1.77741 -0.503442 71 45 123 255 
-17.6858 1.7308 -0.645395 67 61 132 255 
-17.7094 1.74898 -0.811202 69 56 130 255 
-17.6958 1.75995 -0.978663 69 53 129 255 
-17.673 1.77662 -1.14551 70 50 126 255 
-17.6885 1.73417 -1.2896 70 51 127 255 
-17.6442 1.74877 -1.4515 71 42 122 255 
-16.897 1.68945 -1.55139 72 28 110 255 
-14.9286 1.50073 -1.51345 72 31 112 255 
-13.435 1.32425 -1.47134 72 37 118 255 
-12.1458 1.20594 -1.44678 71 44 122 255 
-11.1566 1.11745 -1.43634 71 46 124 255 
-10.2173 1.03071 -1.414 70 51 127 255 
-9.57599 0.948937 -1.40554 69 56 130 255 
-8.9122 0.888023 -1.39292 66 64 134 255 
-8.32211 0.835019 -1.38014 65 66 135 255 
-7.80532 0.787396 -1.37198 68 59 132 255 
-7.39317 0.737834 -1.36364 64 70 136 255 
-6.95626 0.696809 -1.3488 65 68 135 255 
-6.5958 0.661805 -1.34505 64 70 136 255 
-6.24449 0.628841 -1.33746 70 48 126 255 
-5.93223 0.595165 -1.32284 68 58 131 255 
-5.65312 0.568266 -1.31588 64 70 136 255 
-5.44194 0.547948 -1.32219 68 59 132 255 
-5.21362 0.523193 -1.32198 67 62 133 255 
-5.015 0.507555 -1.31768 66 63 133 255 
-4.82213 0.488132 -1.31502 68 58 131 255 
-4.61297 0.465293 -1.30672 70 50 126 255 
-4.46032 0.446028 -1.31334 70 51 127 255 
-17.8393 1.84382 5.38737 56 88 140 255 
-17.8549 1.82996 5.19075 55 91 141 255 
-17.8458 1.82257 4.99843 59 82 139 255 
-17.8486 1.82321 4.81748 54 92 141 255 
-17.8166 1.83207 4.64866 60 80 139 255 
-17.8224 1.82977 4.46035 60 79 138 255 
-17.8223 1.83274 4.27818 61 77 138 255 
-17.815 1.83546 4.10177 64 69 136 255 
-17.7973 1.82695 3.94666 62 76 138 255 
-17.8254 1.83322 3.76642 57 85 140 255 
-17.7985 1.83972 3.58519 52 97 141 255 
-17.7793 1.84431 3.40978 57 85 140 255 
-17.7932 1.82653 3.26347 55 90 140 255 
-17.7896 1.83267 3.08584 52 96 141 255 
-17.7728 1.84332 2.9068 55 90 140 255 
-17.7593 1.85788 2.73876 57 86 140 255 
-17.7858 1.8289 2.5956 53 95 141 255 
-17.7746 1.83426 2.41916 52 96 141 255 
-17.7511 1.85047 2.24515 53 94 141 255 
-17.7397 1.86208 2.07961 61 78 138 255 
-17.7587 1.82611 1.93623 56 88 140 255 
-17.7665 1.84283 1.7671 58 84 140 255 
-17.7592 1.85444 1.59672 59 82 139 255 
-17.7513 1.87268 1.42989 63 71 136 255 
-17.7685 1.83025 1.2898 61 77 138 255 
-17.7365 1.84284 1.11877 62 74 137 255 
-17.7462 1.86248 0.950763 64 70 136 255 
-17.7219 1.87582 0.781193 66 65 134 255 
-17.741 1.83366 0.641529 67 61 132 255 
-17.7257 1.84797 0.472904 68 59 132 255 
-17.7188 1.86272 0.304765 69 55 129 255 
-17.687 1.87836 0.139697 68 59 132 255 
-17.7034 1.8329 -0.00310634 67 62 133 255 
-17.7235 1.854 -0.171067 67 62 133 255 
-17.7195 1.86906 -0.335898 68 59 132 255 
-17.7076 1.8868 -0.50364 69 53 129 255 
-17.6858 1.84042 -0.645795 68 59 132 255 
-17.7013 1.85792 -0.811339 68 59 132 255 
-17.6737 1.86735 -0.978058 70 52 128 255 
-17.6648 1.88534 -1.1457 70 51 127 255 
-17.6924 1.84422 -1.29068 69 56 130 255 
-17.6272 1.85637 -1.45101 71 44 122 255 
-16.8794 1.79236 -1.55076 72 24 106 255 
-14.9053 1.59083 -1.51205 72 31 112 255 
-13.4108 1.405 -1.46961 72 38 119 255 
-12.1925 1.28618 -1.45326 71 45 123 255 
-11.1406 1.18494 -1.43519 71 45 123 255 
-10.26 1.09866 -1.42082 70 50 126 255 
-9.56113 1.00674 -1.40424 68 57 131 255 
-8.88202 0.94009 -1.38907 67 61 132 255 
-8.31879 0.886275 -1.38046 66 65 134 255 
-7.80328 0.835588 -1.3725 69 56 130 255 
-7.37677 0.78194 -1.36148 66 64 134 255 
-6.95479 0.73979 -1.34937 62 76 138 255 
-6.59551 0.702679 -1.34585 64 69 136 255 
-6.21523 0.664441 -1.33204 70 51 127 255 
-5.92167 0.630829 -1.32132 67 62 133 255 
-5.62725 0.600564 -1.31069 65 68 135 255 
-5.43364 0.580813 -1.32102 67 61 132 255 
-5.19392 0.553427 -1.31782 68 58 131 255 
-5.00602 0.537697 -1.31616 66 63 133 255 
-4.8296 0.518845 -1.3179 69 55 129 255 
