ply
format ascii 1.0
comment VTK generated PLY File
obj_info vtkPolyData points and polygons: vtk4.0
element vertex 1170
property float x
property float y
property float z
property uchar red
property uchar green
property uchar blue
property uchar alpha
element face 0
property list uchar int vertex_indices
end_header
-15.8114 8.04406 1.92404 71 44 122 255 
-15.9367 8.12562 1.76976 71 42 122 255 
-13.7889 7.04249 1.38456 63 72 137 255 
-15.8373 8.10991 1.42534 71 42 122 255 
-15.7778 8.03046 1.27835 63 71 136 255 
-9.41421 4.80207 0.663044 66 64 134 255 
-9.24811 4.72945 0.553463 52 97 141 255 
-9.21702 4.72388 0.45401 53 94 141 255 
-9.29742 4.7362 0.375313 50 101 142 255 
-9.03865 4.61448 0.269291 59 82 139 255 
-8.05382 4.12047 0.154751 61 77 138 255 
-8.02457 4.11626 0.0708343 59 81 139 255 
-8.03654 4.09566 -0.00157429 59 81 139 255 
-8.03182 4.104 -0.0865845 58 84 140 255 
-8.02276 4.10812 -0.169919 62 73 137 255 
-8.02018 4.11754 -0.254972 63 72 137 255 
-7.244 3.69653 -0.295368 57 85 140 255 
-7.22552 3.69519 -0.369945 48 106 142 255 
-7.24265 3.71025 -0.447844 53 95 141 255 
-7.22043 3.70854 -0.523489 59 81 139 255 
-7.22557 3.68871 -0.58864 55 91 141 255 
-7.21649 3.69375 -0.663658 52 96 141 255 
-7.17197 3.67878 -0.736394 61 78 138 255 
-6.46255 3.31928 -0.732841 66 65 134 255 
-6.44052 3.29218 -0.788328 50 100 142 255 
-6.42331 3.28917 -0.855404 52 97 141 255 
-6.41654 3.29271 -0.923887 56 88 140 255 
-6.39912 3.28952 -0.990726 55 91 141 255 
-6.42037 3.28612 -1.05347 53 95 141 255 
-6.40349 3.28185 -1.11907 57 85 140 255 
-6.40228 3.2868 -1.18753 59 81 139 255 
-6.39183 3.28577 -1.2569 60 80 139 255 
-6.13455 3.14523 -1.26526 59 81 139 255 
-5.80582 2.97937 -1.25901 56 88 140 255 
-5.53973 2.84398 -1.26352 54 92 141 255 
-5.27343 2.70969 -1.26347 55 91 141 255 
-5.04685 2.59089 -1.25872 58 84 140 255 
-4.85552 2.49385 -1.26421 61 78 138 255 
-4.63487 2.38149 -1.25969 62 76 138 255 
-4.4466 2.28287 -1.26107 69 53 129 255 
-4.31016 2.21744 -1.2671 65 66 135 255 
-4.14418 2.13215 -1.26448 65 68 135 255 
-3.97025 2.04087 -1.25816 66 64 134 255 
-3.82023 1.95961 -1.25795 67 62 133 255 
-17.0445 8.81477 5.76425 63 72 137 255 
-17.0527 8.80046 5.54969 59 82 139 255 
-17.0501 8.79143 5.34523 59 81 139 255 
-17.0613 8.79764 5.15434 59 82 139 255 
-17.0605 8.81176 4.9838 61 77 138 255 
-17.0267 8.79081 4.77054 66 65 134 255 
-17.034 8.79817 4.57802 63 72 137 255 
-17.0094 8.78965 4.38508 64 69 136 255 
-17.0113 8.78261 4.22325 61 77 138 255 
-17.0201 8.79118 4.02642 59 81 139 255 
-16.9858 8.78455 3.83155 61 78 138 255 
-16.9889 8.79405 3.64925 58 83 139 255 
-16.9949 8.77414 3.48963 56 88 140 255 
-16.9875 8.77808 3.29941 55 90 140 255 
-16.9816 8.78988 3.11073 57 86 140 255 
-16.9639 8.79985 2.93115 57 86 140 255 
-16.9646 8.76223 2.77188 56 88 140 255 
-10.5283 5.44269 1.60454 71 45 123 255 
-9.97619 5.17042 1.41352 67 62 133 255 
-10.1906 5.29079 1.33869 68 57 131 255 
-15.6063 8.06063 1.90507 72 37 118 255 
-15.7169 8.13542 1.75086 66 65 134 255 
-13.7958 7.1531 1.38964 55 91 141 255 
-15.8147 8.22119 1.42782 70 51 127 255 
-16.0526 8.2947 1.30471 70 52 128 255 
-9.37748 4.85608 0.662543 52 97 141 255 
-9.02483 4.68535 0.541811 51 99 141 255 
-9.06556 4.71671 0.447966 50 101 142 255 
-9.16166 4.73807 0.370999 52 96 141 255 
-8.88502 4.60499 0.265551 57 85 140 255 
-8.01774 4.16428 0.154546 60 80 139 255 
-8.00094 4.16634 0.07085 54 92 141 255 
-8.01392 4.14627 -0.00157481 57 86 140 255 
-8.01359 4.15689 -0.0866612 55 91 141 255 
-7.99918 4.15819 -0.169956 59 81 139 255 
-7.99388 4.16621 -0.254944 64 70 136 255 
-7.21763 3.73907 -0.295223 60 79 138 255 
-7.19296 3.73439 -0.369444 56 88 140 255 
-7.2038 3.74633 -0.446855 56 88 140 255 
-7.19577 3.75185 -0.52336 58 83 139 255 
-7.20457 3.7339 -0.588785 52 96 141 255 
-7.19457 3.73842 -0.66374 57 86 140 255 
-7.13248 3.71398 -0.734665 63 71 136 255 
-6.43412 3.35473 -0.731938 65 68 135 255 
-6.3999 3.32111 -0.785836 48 105 142 255 
-6.40565 3.3299 -0.855757 51 99 141 255 
-6.40413 3.33614 -0.92503 55 90 140 255 
-6.37442 3.32643 -0.990044 55 90 140 255 
-6.3834 3.31678 -1.05073 59 82 139 255 
-6.37008 3.31424 -1.11676 56 88 140 255 
-6.37411 3.32192 -1.18607 57 86 140 255 
-6.38552 3.33222 -1.25966 58 84 140 255 
-6.12299 3.1869 -1.26688 55 90 140 255 
-5.78917 3.01585 -1.25939 57 86 140 255 
-5.5213 2.87747 -1.26332 51 98 141 255 
-5.26104 2.74426 -1.26451 57 86 140 255 
-5.04038 2.62677 -1.2611 56 89 140 255 
-4.81076 2.50828 -1.25654 60 79 138 255 
-4.61327 2.40629 -1.25781 65 68 135 255 
-4.43509 2.31146 -1.2618 67 61 132 255 
-4.26303 2.22638 -1.25723 65 68 135 255 
-4.13444 2.15933 -1.26553 63 71 136 255 
-3.95766 2.0652 -1.25816 66 63 133 255 
-3.81154 1.98479 -1.25908 68 59 132 255 
-17.0248 8.93744 5.77605 60 79 138 255 
-17.0264 8.91964 5.55885 62 76 138 255 
-17.0402 8.91911 5.35918 61 78 138 255 
-17.0293 8.91381 5.16108 61 77 138 255 
-17.0241 8.92571 4.98907 59 81 139 255 
-17.0446 8.93296 4.79084 66 65 134 255 
-17.0469 8.93775 4.59614 62 76 138 255 
-17.0199 8.92781 4.40182 64 70 136 255 
-16.9909 8.9045 4.23165 62 74 137 255 
-16.9953 8.9109 4.03341 62 74 137 255 
-16.9698 8.90866 3.8402 60 80 139 255 
-16.9738 8.91868 3.65768 59 81 139 255 
-16.96 8.8883 3.49357 57 85 140 255 
-16.9656 8.89909 3.3057 56 89 140 255 
-16.9605 8.91136 3.11683 54 92 141 255 
-16.9542 8.92726 2.93888 60 80 139 255 
-16.9474 8.88546 2.77791 55 90 140 255 
-15.8561 8.32063 2.42426 72 36 117 255 
-10.3754 5.45835 1.4748 62 74 137 255 
-9.97345 5.25597 1.31438 57 85 140 255 
-10.3581 5.43072 1.26846 71 42 122 255 
-9.8824 5.19249 1.10443 62 73 137 255 
-15.7586 8.29389 1.59245 70 51 127 255 
-15.7622 8.31714 1.42766 67 61 132 255 
-15.7293 8.25035 1.28253 64 70 136 255 
-9.29538 4.88613 0.658849 53 95 141 255 
-9.00739 4.74668 0.542503 50 102 142 255 
-9.00995 4.75825 0.446653 49 103 142 255 
-9.04394 4.74775 0.367404 50 102 142 255 
-8.81148 4.63569 0.264198 49 104 142 255 
-7.98762 4.21107 0.154461 60 79 138 255 
-7.98406 4.22003 0.0709286 56 89 140 255 
-7.99718 4.20002 -0.00157656 57 86 140 255 
-7.97289 4.19806 -0.0864981 55 91 141 255 
-7.96644 4.20346 -0.169806 59 81 139 255 
-7.96109 4.21144 -0.254718 63 71 136 255 
-7.19278 3.78235 -0.29515 57 85 140 255 
-7.17256 3.77985 -0.369581 53 95 141 255 
-7.18156 3.79092 -0.44691 55 90 140 255 
-7.18055 3.80013 -0.52394 59 81 139 255 
-7.17888 3.77664 -0.588568 56 89 140 255 
-7.16533 3.77924 -0.663168 55 91 141 255 
-7.08138 3.74278 -0.731754 65 66 135 255 
-6.40286 3.38856 -0.730734 66 65 134 255 
-6.40579 3.37421 -0.789087 47 107 142 255 
-6.39827 3.37609 -0.857523 52 97 141 255 
-6.38266 3.37491 -0.924903 51 99 141 255 
-6.34951 3.36316 -0.989362 59 81 139 255 
-6.37168 3.3605 -1.05217 56 89 140 255 
-6.36099 3.35926 -1.11876 56 88 140 255 
-6.35884 3.36373 -1.18704 56 89 140 255 
-6.34842 3.36258 -1.25639 66 64 134 255 
-6.09289 3.21889 -1.26472 58 84 140 255 
-5.77056 3.05131 -1.25939 55 91 141 255 
-5.49228 2.90533 -1.26074 50 100 142 255 
-5.25707 2.78335 -1.26763 55 90 140 255 
-5.02158 2.65627 -1.26045 58 84 140 255 
-4.80389 2.54231 -1.2588 63 71 136 255 
-4.61904 2.44547 -1.26345 65 68 135 255 
-4.41053 2.33318 -1.25887 69 53 129 255 
-4.251 2.2534 -1.25774 67 61 132 255 
-4.10747 2.17743 -1.26134 63 71 136 255 
-3.94236 2.08809 -1.25735 66 64 134 255 
-3.81795 2.018 -1.26526 66 63 133 255 
-17.0196 9.0683 5.79302 61 78 138 255 
-17.035 9.05777 5.57969 61 77 138 255 
-17.0073 9.03525 5.36616 62 76 138 255 
-17.0169 9.04079 5.17405 62 76 138 255 
-17.0143 9.0541 5.00239 61 77 138 255 
-17.0126 9.04968 4.79736 60 80 139 255 
-17.0183 9.05635 4.60334 63 71 136 255 
-16.9863 9.04353 4.4074 66 64 134 255 
-16.9928 9.03885 4.24587 62 74 137 255 
-17.0111 9.05271 4.05028 57 85 140 255 
-16.9624 9.03798 3.851 62 76 138 255 
-16.9534 9.04115 3.66518 59 81 139 255 
-16.9659 9.02454 3.50614 56 88 140 255 
-16.9472 9.02247 3.31284 59 82 139 255 
-16.9691 9.04916 3.12855 56 89 140 255 
-16.941 9.05349 2.94616 58 84 140 255 
-16.9065 8.99672 2.78021 62 76 138 255 
-16.277 8.66932 2.4967 68 57 131 255 
-10.4494 5.57939 1.49015 55 91 141 255 
-10.0268 5.36298 1.32572 72 36 117 255 
-9.83572 5.23404 1.2084 63 71 136 255 
-10.0233 5.34528 1.12382 66 65 134 255 
-15.6697 8.37024 1.58862 69 56 130 255 
-15.6801 8.39723 1.42486 67 61 132 255 
-15.7048 8.36077 1.28469 63 72 137 255 
-9.15164 4.88247 0.650771 55 91 141 255 
-8.94464 4.78397 0.540481 48 106 142 255 
-8.98675 4.81675 0.446959 46 110 142 255 
-9.03139 4.81208 0.368087 50 100 142 255 
-8.77317 4.68449 0.263906 49 103 142 255 
-7.9581 4.25811 0.154392 57 86 140 255 
-7.95185 4.26563 0.0708736 58 84 140 255 
-7.98097 4.25418 -0.00157848 51 98 141 255 
-7.93375 4.23983 -0.0863541 54 92 141 255 
-7.94755 4.25604 -0.169956 63 71 136 255 
-7.92365 4.25406 -0.25435 62 73 137 255 
-7.1712 3.82736 -0.295223 59 82 139 255 
-7.16597 3.83274 -0.370446 52 97 141 255 
-7.14761 3.82926 -0.44625 54 93 141 255 
-7.15974 3.84554 -0.524133 54 92 141 255 
-7.16789 3.82719 -0.589581 52 97 141 255 
-7.1341 3.8189 -0.662434 55 91 141 255 
-7.03371 3.77298 -0.729206 65 68 135 255 
-6.35653 3.41413 -0.727823 62 73 137 255 
-6.38058 3.41111 -0.788545 47 108 142 255 
-6.38356 3.41857 -0.858347 48 106 142 255 
-6.36009 3.41307 -0.924649 50 102 142 255 
-6.34796 3.41238 -0.992362 54 93 141 255 
-6.34658 3.3972 -1.05145 53 95 141 255 
-6.35854 3.40803 -1.12199 55 91 141 255 
-6.33982 3.40362 -1.18737 57 85 140 255 
-6.32593 3.40054 -1.25604 65 66 135 255 
-6.05915 3.24878 -1.26183 55 90 140 255 
-5.73702 3.07877 -1.25616 53 94 141 255 
-5.45881 2.93064 -1.25716 50 100 142 255 
-5.21146 2.80028 -1.26076 57 85 140 255 
-5.00088 2.68473 -1.25937 55 91 141 255 
-4.7985 2.57727 -1.2615 59 81 139 255 
-4.59025 2.4664 -1.25969 66 64 134 255 
-4.38588 2.3547 -1.25593 68 59 132 255 
-4.2388 2.28036 -1.25825 64 69 136 255 
-4.08638 2.19847 -1.25899 64 70 136 255 
-3.9193 2.10677 -1.25409 67 62 133 255 
-3.79958 2.03822 -1.26329 67 62 133 255 
-17.0049 9.19488 5.80712 60 79 138 255 
-17.0121 9.17991 5.59053 59 81 139 255 
-17.0143 9.17326 5.38602 62 76 138 255 
-16.996 9.16382 5.18468 60 80 139 255 
-16.9806 9.17028 5.00892 58 83 139 255 
-16.9773 9.16496 4.80316 62 73 137 255 
-16.9924 9.17678 4.61147 61 78 138 255 
-16.9683 9.16797 4.41723 67 61 132 255 
-16.9628 9.15687 4.25233 62 74 137 255 
-16.9768 9.16854 4.05542 58 83 139 255 
-16.9437 9.16194 3.85945 60 80 139 255 
-16.933 9.16418 3.67286 60 80 139 255 
-16.9587 9.15464 3.51619 58 84 140 255 
-16.9366 9.15064 3.32168 56 89 140 255 
-16.9437 9.16955 3.13417 57 85 140 255 
-16.9224 9.17753 2.95268 59 82 139 255 
-16.6115 8.97096 2.7407 71 45 123 255 
-10.3138 5.57477 1.58724 70 51 127 255 
-10.3295 5.59708 1.47792 63 72 137 255 
-9.90994 5.37892 1.31461 72 38 119 255 
-10.002 5.40153 1.23288 60 79 138 255 
-9.7663 5.28543 1.09862 69 53 129 255 
-10.0682 5.45777 1.02411 64 69 136 255 
-15.94 8.66273 1.45329 71 47 125 255 
-15.7849 8.52809 1.29549 68 58 131 255 
-9.11273 4.93378 0.650145 48 105 142 255 
-8.91511 4.83876 0.540481 46 110 142 255 
-8.95088 4.86846 0.446653 44 115 142 255 
-9.00873 4.8712 0.368375 47 108 142 255 
-8.75481 4.74395 0.264224 49 104 142 255 
-7.9327 4.30734 0.154409 56 89 140 255 
-7.92553 4.31434 0.0708736 56 88 140 255 
-7.9556 4.30355 -0.00157865 56 88 140 255 
-7.92604 4.29844 -0.0865557 57 86 140 255 
-7.92831 4.30854 -0.170107 59 81 139 255 
-7.90881 4.30882 -0.254718 62 76 138 255 
-7.14583 3.87034 -0.29515 52 96 141 255 
-7.14846 3.87998 -0.370765 46 111 142 255 
-7.13801 3.88067 -0.44713 51 98 141 255 
-7.1325 3.88749 -0.523875 57 86 140 255 
-7.14953 3.87395 -0.590015 49 103 142 255 
-7.10703 3.8607 -0.662108 54 93 141 255 
-7.00605 3.81369 -0.728751 63 72 137 255 
-6.33546 3.45307 -0.727823 62 76 138 255 
-6.35604 3.4483 -0.788112 43 117 142 255 
-6.35811 3.4553 -0.857758 42 120 142 255 
-6.33641 3.45061 -0.924268 43 116 142 255 
-6.33299 3.45458 -0.993317 47 107 142 255 
-6.34388 3.446 -1.05448 46 111 142 255 
-6.34185 3.44934 -1.12275 55 90 140 255 
-6.32489 3.44576 -1.18851 56 89 140 255 
-6.31446 3.44448 -1.25794 62 76 138 255 
-6.01923 3.27509 -1.25768 57 85 140 255 
-5.71543 3.11251 -1.2556 55 91 141 255 
-5.45105 2.9697 -1.25955 52 96 141 255 
-5.19247 2.83126 -1.26034 57 86 140 255 
-4.97488 2.71022 -1.25699 55 90 140 255 
-4.75607 2.59221 -1.25451 63 72 137 255 
-4.53321 2.47172 -1.24817 66 64 134 255 
-4.38668 2.38992 -1.26034 66 65 134 255 
-4.22048 2.30401 -1.25698 65 68 135 255 
-4.05757 2.21518 -1.25427 66 65 134 255 
-3.88855 2.1211 -1.2484 68 57 131 255 
-3.76003 2.04681 -1.2543 69 56 130 255 
-16.9977 9.32623 5.82409 64 69 136 255 
-16.9807 9.29797 5.59886 62 74 137 255 
-16.9923 9.29644 5.39703 59 81 139 255 
-16.9954 9.29853 5.2018 61 77 138 255 
-16.9622 9.29523 5.02022 62 76 138 255 
-16.9718 9.29693 4.81765 62 74 137 255 
-16.9725 9.30097 4.62145 63 71 136 255 
-16.9732 9.30565 4.4333 64 69 136 255 
-16.9551 9.28752 4.26461 64 69 136 255 
-16.9528 9.29041 4.06324 59 81 139 255 
-16.962 9.30677 3.87654 58 84 140 255 
-16.96 9.31377 3.69104 61 78 138 255 
-16.9384 9.27837 3.52373 58 84 140 255 
-16.9086 9.27003 3.32729 57 86 140 255 
-16.9027 9.2819 3.13706 58 83 139 255 
-16.9031 9.30168 2.95919 56 89 140 255 
-16.4607 9.02041 2.7249 69 53 129 255 
-9.83111 5.39205 1.51801 68 57 131 255 
-9.85325 5.41752 1.41451 66 65 134 255 
-10.4475 5.75396 1.39057 68 59 132 255 
-9.96692 5.46184 1.23267 60 79 138 255 
-10.0259 5.50572 1.1316 71 44 122 255 
-9.98911 5.49448 1.01947 60 79 138 255 
-16.5212 9.1103 1.51134 72 40 120 255 
-16.5858 9.09275 1.36578 72 32 113 255 
-9.0989 4.99873 0.651335 65 68 135 255 
-8.96748 4.93865 0.545482 47 107 142 255 
-8.97069 4.9508 0.449149 55 90 140 255 
-9.01371 4.94562 0.369813 49 103 142 255 
-8.72641 4.79806 0.264251 46 110 142 255 
-7.90174 4.35352 0.154324 60 79 138 255 
-7.90503 4.36627 0.0709286 53 94 141 255 
-7.93079 4.35324 -0.001579 54 93 141 255 
-7.90478 4.34989 -0.0866133 55 91 141 255 
-7.89998 4.35614 -0.170069 54 93 141 255 
-7.88048 4.3563 -0.254661 62 73 137 255 
-7.11844 3.91218 -0.295005 54 93 141 255 
-7.11577 3.91894 -0.37031 49 104 142 255 
-7.11844 3.92681 -0.447404 53 95 141 255 
-7.10764 3.93069 -0.523811 54 92 141 255 
-7.12912 3.91967 -0.590305 52 97 141 255 
-7.0963 3.91145 -0.663332 54 93 141 255 
-6.96858 3.8489 -0.727296 64 70 136 255 
-6.31416 3.49188 -0.727823 64 69 136 255 
-6.33214 3.4858 -0.787786 43 116 142 255 
-6.33418 3.49281 -0.857405 42 118 142 255 
-6.31772 3.49086 -0.924649 46 109 142 255 
-6.3134 3.49433 -0.99359 48 106 142 255 
-6.32781 3.48772 -1.05535 51 99 141 255 
-6.32576 3.49105 -1.12368 52 97 141 255 
-6.29585 3.48021 -1.18704 53 94 141 255 
-6.29062 3.48172 -1.25742 58 83 139 255 
-5.98094 3.30197 -1.25389 57 86 140 255 
-5.68677 3.14229 -1.25351 57 85 140 255 
-5.42844 3.00072 -1.25855 52 96 141 255 
-5.17499 2.86307 -1.26034 55 91 141 255 
-4.94534 2.73361 -1.25374 58 84 140 255 
-4.72388 2.61239 -1.25022 65 68 135 255 
-4.54943 2.5169 -1.25687 65 66 135 255 
-4.3923 2.42805 -1.26621 65 66 135 255 
-4.1978 2.32517 -1.25445 63 71 136 255 
-4.05994 2.24892 -1.25925 63 71 136 255 
-3.86367 2.1384 -1.2446 68 59 132 255 
-3.74488 2.06845 -1.25345 70 51 127 255 
-16.9887 9.45737 5.84078 62 74 137 255 
-16.9796 9.43324 5.61747 61 77 138 255 
-16.9796 9.42531 5.41126 60 79 138 255 
-16.9709 9.42092 5.21191 60 80 139 255 
-16.9548 9.42689 5.03505 60 80 139 255 
-16.9568 9.42446 4.82973 60 79 138 255 
-16.9355 9.41628 4.62703 66 63 133 255 
-16.9337 9.41957 4.43799 66 63 133 255 
-16.9465 9.41842 4.27689 65 66 135 255 
-16.9503 9.42469 4.0764 59 81 139 255 
-16.9397 9.43022 3.88459 62 76 138 255 
-16.9343 9.43535 3.69797 60 80 139 255 
-16.9173 9.4022 3.53127 59 82 139 255 
-16.9152 9.40905 3.33988 55 91 141 255 
-16.904 9.4181 3.14798 59 82 139 255 
-16.8724 9.42016 2.96389 62 73 137 255 
-16.6974 9.28378 2.77346 70 48 126 255 
-10.3676 5.76934 1.60629 56 88 140 255 
-9.52349 5.31256 1.37183 55 91 141 255 
-9.7877 5.46911 1.3072 60 80 139 255 
-10.2121 5.67797 1.26728 68 57 131 255 
-10.2127 5.69016 1.15661 61 77 138 255 
-9.84823 5.49597 1.00852 52 96 141 255 
-16.1535 9.03727 1.48275 72 37 118 255 
-16.1096 8.96066 1.33107 72 27 109 255 
-9.12473 5.08605 0.655405 50 102 142 255 
-9.05643 5.06031 0.552772 48 106 142 255 
-9.03342 5.05798 0.453835 47 107 142 255 
-9.03734 5.03097 0.372041 49 104 142 255 
-8.69332 4.84956 0.264145 50 101 142 255 
-7.87314 4.40095 0.15429 59 82 139 255 
-7.87112 4.41079 0.0708658 60 80 139 255 
-7.89607 4.39744 -0.00157743 54 92 141 255 
-7.8823 4.40075 -0.0866612 51 99 141 255 
-7.88619 4.41185 -0.170352 53 95 141 255 
-7.85534 4.40555 -0.254718 63 72 137 255 
-7.09954 3.95871 -0.295223 53 95 141 255 
-7.10031 3.96741 -0.370765 47 108 142 255 
-7.10815 3.97822 -0.448284 50 101 142 255 
-7.08861 3.97716 -0.524197 54 93 141 255 
-7.10058 3.96091 -0.589943 52 96 141 255 
-7.07912 3.95881 -0.663984 52 96 141 255 
-6.95091 3.89499 -0.727933 63 71 136 255 
-6.26918 3.51741 -0.725113 64 69 136 255 
-6.30803 3.52313 -0.787461 46 110 142 255 
-6.31176 3.53113 -0.857287 42 118 142 255 
-6.29792 3.53053 -0.924903 47 107 142 255 
-6.29098 3.53252 -0.993454 46 110 142 255 
-6.31925 3.53373 -1.05752 47 107 142 255 
-6.29991 3.52739 -1.12291 55 91 141 255 
-6.28729 3.52601 -1.18949 46 110 142 255 
-6.27171 3.5217 -1.25794 59 81 139 255 
-5.96743 3.34246 -1.25533 55 91 141 255 
-5.64426 3.16416 -1.2484 59 82 139 255 
-5.39368 3.02487 -1.25477 53 94 141 255 
-5.1488 2.88998 -1.25825 57 86 140 255 
-4.92592 2.76247 -1.25309 57 86 140 255 
-4.69332 2.63322 -1.24639 65 66 135 255 
-4.51949 2.53668 -1.25287 65 68 135 255 
-4.36886 2.45021 -1.26376 63 72 137 255 
-4.19442 2.35705 -1.25774 66 65 134 255 
-4.05196 2.2771 -1.26108 67 61 132 255 
-3.86978 2.1729 -1.25084 67 61 132 255 
-3.73128 2.09092 -1.25317 69 56 130 255 
-16.9645 9.58074 5.85258 62 73 137 255 
-16.9749 9.56744 5.63525 62 73 137 255 
-16.95 9.54539 5.42038 60 80 139 255 
-16.9406 9.54051 5.22047 62 73 137 255 
-16.975 9.57497 5.05841 58 83 139 255 
-16.9595 9.56264 4.84713 60 80 139 255 
-16.9164 9.542 4.63771 64 69 136 255 
-16.9376 9.55827 4.45429 66 65 134 255 
-16.9232 9.54188 4.28572 62 73 137 255 
-16.9262 9.54775 4.08463 58 84 140 255 
-16.9327 9.56291 3.89638 60 80 139 255 
-16.8949 9.54971 3.70209 62 76 138 255 
-16.9056 9.53192 3.54096 56 88 140 255 
-16.906 9.54027 3.34957 57 86 140 255 
-16.8768 9.53913 3.15376 57 85 140 255 
-16.8633 9.55127 2.97254 60 80 139 255 
-10.0797 5.6856 1.68002 71 45 123 255 
-15.9955 9.03012 2.48677 71 44 122 255 
-9.76962 5.52874 1.41214 62 76 138 255 
-9.61656 5.45119 1.28878 65 66 135 255 
-9.87317 5.56909 1.22943 65 68 135 255 
-9.99483 5.64939 1.13583 62 73 137 255 
-10.0102 5.66719 1.02865 69 55 129 255 
-15.4996 8.79673 1.42766 68 57 131 255 
-15.7147 8.86768 1.30291 71 45 123 255 
-9.18544 5.19402 0.662042 50 100 142 255 
-9.08776 5.15124 0.556603 46 111 142 255 
-9.09169 5.16413 0.458345 54 93 141 255 
-9.0646 5.11925 0.37445 49 103 142 255 
-8.66775 4.90527 0.264277 49 103 142 255 
-7.86164 4.45805 0.154598 57 86 140 255 
-7.8413 4.45752 0.0708422 53 94 141 255 
-7.86981 4.4463 -0.0015776 51 99 141 255 
-7.86211 4.45297 -0.086738 52 97 141 255 
-7.84853 4.45424 -0.170126 56 89 140 255 
-7.83511 4.45762 -0.254944 63 72 137 255 
-7.07772 4.00367 -0.295331 49 103 142 255 
-7.06801 4.00646 -0.370355 49 104 142 255 
-7.081 4.02028 -0.448119 51 98 141 255 
-7.07448 4.0265 -0.524969 53 95 141 255 
-7.08048 4.00686 -0.590305 52 96 141 255 
-7.05817 4.00414 -0.664311 48 105 142 255 
-6.88965 3.91641 -0.72402 63 72 137 255 
-6.26997 3.56861 -0.727723 62 76 138 255 
-6.29668 3.56765 -0.788762 50 101 142 255 
-6.29861 3.57469 -0.858464 44 115 142 255 
-6.27527 3.56862 -0.924776 44 113 142 255 
-6.26833 3.57057 -0.993317 46 111 142 255 
-6.29831 3.57293 -1.05766 46 110 142 255 
-6.27815 3.56598 -1.12291 49 103 142 255 
-6.27325 3.56892 -1.19095 53 95 141 255 
-6.26026 3.56597 -1.26 59 82 139 255 
-5.92971 3.36929 -1.25172 55 91 141 255 
-5.61364 3.19243 -1.24594 60 79 138 255 
-5.35969 3.04918 -1.25119 53 95 141 255 
-5.11907 2.91475 -1.25534 57 85 140 255 
-4.89785 2.78637 -1.25027 57 85 140 255 
-4.67453 2.66052 -1.24571 63 72 137 255 
-4.49539 2.55955 -1.25052 66 63 133 255 
-4.347 2.47313 -1.2618 62 73 137 255 
-4.16054 2.37172 -1.25192 62 73 137 255 
-4.03875 2.3024 -1.26134 66 63 133 255 
-3.84885 2.19232 -1.2484 68 59 132 255 
-3.72422 2.1171 -1.25514 69 56 130 255 
-16.9602 9.71607 5.87156 61 77 138 255 
-16.9326 9.68095 5.64081 62 73 137 255 
-16.9714 9.69508 5.44615 62 74 137 255 
-16.9446 9.68021 5.23992 62 73 137 255 
-16.9344 9.68952 5.06394 58 84 140 255 
-16.9469 9.69302 4.86041 58 84 140 255 
-16.9216 9.68233 4.65536 64 70 136 255 
-16.8981 9.67316 4.45942 67 62 133 255 
-16.9195 9.67706 4.29973 61 78 138 255 
-16.8987 9.66941 4.09224 59 81 139 255 
-16.889 9.6754 3.89992 61 78 138 255 
-16.8675 9.67127 3.70903 59 82 139 255 
-16.8954 9.66331 3.55119 57 86 140 255 
-16.878 9.66144 3.35569 56 88 140 255 
-16.8659 9.67 3.16275 59 81 139 255 
-16.855 9.68362 2.98148 56 88 140 255 
-15.8504 9.06925 2.65106 69 56 130 255 
-9.85488 5.6435 1.53746 69 56 130 255 
-9.91536 5.69181 1.43823 62 73 137 255 
-9.64924 5.54821 1.2977 63 71 136 255 
-9.62049 5.50465 1.20215 53 94 141 255 
-9.77954 5.60716 1.11526 59 81 139 255 
-10.1566 5.83267 1.04735 60 79 138 255 
-15.4773 8.91007 1.43061 70 50 126 255 
-9.01545 5.16054 0.750085 72 24 106 255 
-9.18889 5.27064 0.66461 52 97 141 255 
-9.13909 5.25469 0.561711 46 109 142 255 
-9.14813 5.27069 0.462812 48 106 142 255 
-9.20558 5.27363 0.381603 52 96 141 255 
-8.64355 4.96185 0.264463 51 99 141 255 
-7.82287 4.49972 0.154375 60 80 139 255 
-7.81726 4.50754 0.0708736 52 96 141 255 
-7.83891 4.49252 -0.00157691 52 96 141 255 
-7.83291 4.50013 -0.0867188 51 99 141 255 
-7.83405 4.50979 -0.170409 57 85 140 255 
-7.818 4.5116 -0.255283 66 63 133 255 
-7.04869 4.04454 -0.29515 50 100 142 255 
-7.03204 4.04328 -0.369763 48 105 142 255 
-7.04755 4.05867 -0.447569 51 98 141 255 
-7.03409 4.06086 -0.523811 54 92 141 255 
-7.04625 4.04477 -0.589508 50 100 142 255 
-7.05074 4.05731 -0.665943 56 89 140 255 
-6.83961 3.94369 -0.721291 64 70 136 255 
-6.26088 3.61447 -0.729228 61 77 138 255 
-6.27725 3.6077 -0.789087 55 90 140 255 
-6.26537 3.60683 -0.856934 49 103 142 255 
-6.2524 3.60656 -0.924649 52 97 141 255 
-6.25488 3.61392 -0.994681 51 99 141 255 
-6.27541 3.61101 -1.05752 44 113 142 255 
-6.26043 3.6069 -1.12368 50 101 142 255 
-6.25124 3.60734 -1.19095 53 94 141 255 
-6.23314 3.60136 -1.25897 61 78 138 255 
-5.88932 3.39431 -1.24757 56 88 140 255 
-5.58714 3.22289 -1.24442 56 88 140 255 
-5.3239 3.07221 -1.24722 53 94 141 255 
-5.08839 2.93877 -1.25221 60 80 139 255 
-4.89673 2.82564 -1.25439 57 85 140 255 
-4.66487 2.69305 -1.24752 65 68 135 255 
-4.4855 2.59049 -1.25217 68 59 132 255 
-4.32419 2.4954 -1.2596 62 73 137 255 
-4.13 2.388 -1.24712 63 72 137 255 
-3.99948 2.31264 -1.25349 68 59 132 255 
-3.85199 2.22552 -1.25382 66 64 134 255 
-3.70285 2.13511 -1.25233 68 57 131 255 
-16.9351 9.84017 5.88365 64 69 136 255 
-16.9385 9.82273 5.66276 63 72 137 255 
-16.9383 9.81449 5.45474 63 72 137 255 
-16.9342 9.81256 5.25522 62 74 137 255 
-16.9332 9.82726 5.08152 60 79 138 255 
-16.9139 9.81241 4.86814 59 81 139 255 
-16.8905 9.80257 4.66326 63 71 136 255 
-16.8999 9.81239 4.47572 67 62 133 255 
-16.9096 9.8096 4.31244 61 77 138 255 
-16.8899 9.80239 4.10458 62 74 137 255 
-16.8675 9.80102 3.90876 61 77 138 255 
-16.8732 9.81261 3.72345 61 77 138 255 
-16.8869 9.79641 3.56196 57 85 140 255 
-16.8823 9.80193 3.36844 58 84 140 255 
-16.8728 9.812 3.17528 55 91 141 255 
-16.8371 9.81124 2.98891 59 81 139 255 
-16.4501 9.54683 2.7611 68 57 131 255 
-9.557 5.55107 1.49628 59 81 139 255 
-9.77478 5.69114 1.42288 61 77 138 255 
-9.55581 5.57279 1.28971 62 74 137 255 
-9.57192 5.55509 1.20032 52 97 141 255 
-10.0538 5.84666 1.1506 61 78 138 255 
-10.0174 5.83472 1.03666 62 76 138 255 
-9.982 5.82833 0.925952 60 79 138 255 
-15.4623 8.97722 1.29103 69 53 129 255 
-9.23488 5.37259 0.670308 57 86 140 255 
-9.18431 5.35594 0.566499 53 95 141 255 
-9.16996 5.35848 0.465571 47 108 142 255 
-9.21711 5.35562 0.383436 53 94 141 255 
-8.61813 5.01781 0.264622 50 101 142 255 
-7.7908 4.54512 0.15429 55 91 141 255 
-7.80154 4.56249 0.0709836 53 95 141 255 
-7.8112 4.54053 -0.00157691 51 99 141 255 
-7.80169 4.5461 -0.0866804 52 96 141 255 
-7.81141 4.5608 -0.170522 56 89 140 255 
-7.79966 4.56504 -0.255594 66 63 133 255 
-7.03583 4.09475 -0.295658 51 99 141 255 
-7.01918 4.0934 -0.370401 49 104 142 255 
-7.02079 4.10083 -0.447459 51 98 141 255 
-7.01593 4.10797 -0.524326 52 96 141 255 
-7.01354 4.08341 -0.588857 53 94 141 255 
-7.01366 4.09347 -0.6648 51 98 141 255 
-6.80927 3.98206 -0.720654 65 66 135 255 
-6.22828 3.64679 -0.728024 62 76 138 255 
-6.25242 3.64465 -0.788762 47 107 142 255 
-6.25598 3.65272 -0.8587 44 113 142 255 
-6.24128 3.65137 -0.926301 48 106 142 255 
-6.21634 3.64271 -0.99209 51 99 141 255 
-6.2369 3.63997 -1.05477 45 112 142 255 
-6.23818 3.64524 -1.12368 50 101 142 255 
-6.23494 3.64912 -1.19209 52 97 141 255 
-6.19308 3.62908 -1.25535 61 78 138 255 
-5.86244 3.42691 -1.2463 55 91 141 255 
-5.56133 3.25364 -1.24309 57 86 140 255 
-5.3151 3.11076 -1.2496 53 94 141 255 
-5.06857 2.96894 -1.25179 59 81 139 255 
-4.86834 2.84922 -1.25157 58 84 140 255 
-4.65162 2.72359 -1.24842 66 64 134 255 
-4.47874 2.62337 -1.25475 67 61 132 255 
-4.32135 2.52923 -1.26327 61 77 138 255 
-4.1161 2.41379 -1.24737 65 68 135 255 
-3.98771 2.3386 -1.25427 68 59 132 255 
-3.81169 2.23354 -1.24514 67 62 133 255 
-3.68305 2.15392 -1.25008 68 57 131 255 
-16.9429 9.98425 5.90753 64 70 136 255 
-16.9069 9.94353 5.67248 62 76 138 255 
-16.9159 9.94069 5.46709 64 70 136 255 
-16.9003 9.93194 5.26351 62 74 137 255 
-16.9068 9.9511 5.09182 61 78 138 255 
-16.8877 9.93618 4.87805 59 82 139 255 
-16.9206 9.95931 4.68834 64 69 136 255 
-16.8965 9.94953 4.4909 65 66 135 255 
-16.8861 9.93496 4.32191 63 72 137 255 
-16.8868 9.9396 4.11857 63 71 136 255 
-16.8738 9.94366 3.92428 60 80 139 255 
-16.8795 9.95538 3.73826 61 78 138 255 
-16.8612 9.9203 3.56932 58 83 139 255 
-16.8558 9.92534 3.37524 56 89 140 255 
-16.848 9.93641 3.18202 57 85 140 255 
-16.7842 9.91889 2.99027 62 73 137 255 
-9.85141 5.79839 1.65948 71 46 124 255 
-9.53471 5.61664 1.49816 69 56 130 255 
-9.57051 5.65113 1.39816 59 82 139 255 
-9.46159 5.59592 1.2816 59 81 139 255 
-9.56079 5.62733 1.20323 54 92 141 255 
-9.84286 5.80511 1.13052 63 71 136 255 
-15.6766 9.26027 1.62817 71 45 123 255 
-15.4551 9.15164 1.43883 71 46 124 255 
-9.96993 5.87049 0.835428 64 70 136 255 
-9.49485 5.6021 0.69166 56 88 140 255 
-9.19597 5.43863 0.569266 55 90 140 255 
-9.23145 5.47067 0.470389 53 94 141 255 
-9.21163 5.42831 0.384587 51 99 141 255 
-8.5691 5.05992 0.264065 52 96 141 255 
-7.77825 4.602 0.154598 56 89 140 255 
-7.7734 4.61028 0.0709836 55 90 140 255 
-7.78663 4.59041 -0.0015776 51 99 141 255 
-7.77968 4.59744 -0.0867476 50 101 142 255 
-7.7764 4.60457 -0.170371 56 89 140 255 
-7.7758 4.61537 -0.255736 58 84 140 255 
-7.01058 4.13784 -0.295658 48 105 142 255 
-7.0137 4.14809 -0.371448 47 108 142 255 
-7.00752 4.15095 -0.448229 50 101 142 255 
-7.00089 4.15706 -0.525098 50 102 142 255 
-7.00553 4.13651 -0.590305 50 102 142 255 
-6.98584 4.1349 -0.664556 48 105 142 255 
-6.76672 4.0131 -0.718744 62 73 137 255 
-6.19552 3.67884 -0.72682 62 73 137 255 
-6.22053 3.67738 -0.78757 48 105 142 255 
-6.23943 3.69458 -0.859524 44 114 142 255 
-6.21791 3.68909 -0.926174 50 101 142 255 
-6.19813 3.68332 -0.992772 47 108 142 255 
-6.23147 3.68825 -1.05766 42 118 142 255 
-6.2106 3.68043 -1.12275 50 100 142 255 
-6.2065 3.68378 -1.19095 51 98 141 255 
-6.14275 3.6504 -1.24967 66 63 133 255 
-5.84807 3.46683 -1.24775 55 91 141 255 
-5.54886 3.29221 -1.2448 55 90 140 255 
-5.3094 3.15132 -1.25279 53 94 141 255 
-5.03765 2.99249 -1.24867 59 81 139 255 
-4.85077 2.87904 -1.25157 57 85 140 255 
-4.63901 2.75457 -1.24955 63 71 136 255 
-4.46674 2.65328 -1.25593 67 62 133 255 
-4.29324 2.54827 -1.2596 66 64 134 255 
-4.10205 2.43949 -1.24762 65 66 135 255 
-3.97577 2.36451 -1.25506 66 64 134 255 
-3.81033 2.26427 -1.24921 66 63 133 255 
-3.66234 2.17207 -1.24755 68 59 132 255 
-16.8969 10.0974 5.91299 62 73 137 255 
-16.9091 10.085 5.69387 64 69 136 255 
-16.8952 10.0685 5.48024 60 79 138 255 
-16.8905 10.0661 5.27959 62 73 137 255 
-16.8937 10.0834 5.10639 60 80 139 255 
-16.8831 10.0734 4.89448 63 71 136 255 
-16.9018 10.0884 4.70019 65 68 135 255 
-16.8728 10.0755 4.50095 67 62 133 255 
-16.8802 10.0714 4.33613 64 69 136 255 
-16.8591 10.0631 4.12679 62 76 138 255 
-16.8528 10.0711 3.93371 62 74 137 255 
-16.8535 10.0799 3.74613 62 76 138 255 
-16.8414 10.0483 3.57811 59 81 139 255 
-16.8352 10.0528 3.38341 53 94 141 255 
-16.8359 10.069 3.19133 56 88 140 255 
-16.7536 10.04 2.99573 62 74 137 255 
-16.5917 9.90319 2.80507 68 59 132 255 
-15.7402 9.40267 2.48221 65 66 135 255 
-9.61397 5.75664 1.40965 53 95 141 255 
-9.5114 5.70445 1.29307 62 76 138 255 
-9.52864 5.68742 1.20355 59 82 139 255 
-9.75752 5.83577 1.12481 61 77 138 255 
-10.3577 6.20443 1.07968 63 71 136 255 
-13.6494 8.1959 1.27538 60 79 138 255 
-14.8158 8.8467 1.24601 72 35 116 255 
-9.38836 5.61721 0.6864 67 62 133 255 
-9.27119 5.56018 0.576023 58 83 139 255 
-9.26535 5.56786 0.473848 55 90 140 255 
-9.32741 5.57393 0.390841 51 98 141 255 
-8.54733 5.11805 0.264357 52 97 141 255 
-7.75758 4.65427 0.154751 57 85 140 255 
-7.75354 4.66304 0.0710621 50 101 142 255 
-7.77034 4.64528 -0.00158005 51 99 141 255 
-7.75389 4.64663 -0.0867764 52 96 141 255 
-7.76 4.65941 -0.170635 54 93 141 255 
-7.74306 4.66041 -0.255594 61 78 138 255 
-6.98077 4.17821 -0.295477 48 105 142 255 
-6.99497 4.19516 -0.371812 47 107 142 255 
-6.97507 4.18976 -0.447789 50 100 142 255 
-6.96926 4.19633 -0.524648 54 93 141 255 
-6.97916 4.17891 -0.590232 48 106 142 255 
-6.96547 4.18077 -0.665045 50 100 142 255 
-6.73087 4.04787 -0.717561 64 70 136 255 
-6.16857 3.71422 -0.726318 64 70 136 255 
-6.19699 3.71497 -0.787461 47 107 142 255 
-6.21069 3.72921 -0.8587 51 98 141 255 
-6.20195 3.73126 -0.92719 50 102 142 255 
-6.18814 3.72895 -0.994818 51 99 141 255 
-6.21212 3.72845 -1.05824 43 116 142 255 
-6.18451 3.71643 -1.12214 51 99 141 255 
-6.1711 3.71416 -1.18851 54 92 141 255 
-6.09493 3.67277 -1.2445 66 63 133 255 
-5.81995 3.4986 -1.2463 56 89 140 255 
-5.51089 3.31556 -1.24082 56 89 140 255 
-5.28492 3.18081 -1.25159 55 91 141 255 
-5.00914 3.01729 -1.24617 59 81 139 255 
-4.82465 2.90372 -1.24941 59 82 139 255 
-4.61534 2.77896 -1.24774 66 64 134 255 
-4.43622 2.67211 -1.25193 67 62 133 255 
-4.26091 2.56457 -1.25471 66 63 133 255 
-4.10026 2.47261 -1.25167 66 64 134 255 
-3.94797 2.38088 -1.25087 68 58 131 255 
-3.82027 2.30201 -1.25708 67 62 133 255 
-3.66374 2.2034 -1.25261 69 55 129 255 
-16.8699 10.2222 5.92536 66 64 134 255 
-16.8962 10.2184 5.71054 63 71 136 255 
-16.8825 10.2018 5.49634 62 76 138 255 
-16.8573 10.187 5.28867 62 73 137 255 
-16.8729 10.212 5.11896 61 77 138 255 
-16.8849 10.2155 4.91308 60 79 138 255 
-16.8811 10.2171 4.7118 63 72 137 255 
-16.8624 10.2102 4.51479 66 65 134 255 
-16.8691 10.2056 4.34927 62 74 137 255 
-16.8472 10.1967 4.13914 63 72 137 255 
-16.8251 10.1952 3.94176 63 72 137 255 
-16.8334 10.2086 3.7555 62 73 137 255 
-16.8552 10.1972 3.59427 57 86 140 255 
-16.833 10.1922 3.39548 57 86 140 255 
-16.8168 10.1982 3.19952 57 85 140 255 
-16.8217 10.2216 3.01908 56 88 140 255 
-16.7152 10.1165 2.83639 66 65 134 255 
-9.6668 5.85542 1.53008 59 81 139 255 
-9.60306 5.83045 1.41327 65 66 135 255 
-13.6237 8.28485 1.859 70 48 126 255 
-9.51312 5.75762 1.20603 60 80 139 255 
-9.70877 5.88779 1.12333 60 79 138 255 
-10.242 6.22081 1.07158 56 89 140 255 
-10.5831 6.44341 0.992548 65 68 135 255 
-13.6529 8.2664 1.15246 69 55 129 255 
-13.4051 8.13261 0.983703 66 65 134 255 
-9.3717 5.69894 0.58443 54 93 141 255 
-9.31036 5.67295 0.477921 56 89 140 255 
-9.31099 5.64193 0.391596 50 101 142 255 
-8.53114 5.17974 0.264835 49 103 142 255 
-7.73486 4.70542 0.154871 55 91 141 255 
-7.7299 4.71365 0.0711092 49 103 142 255 
-7.75195 4.69909 -0.00158214 51 98 141 255 
-7.73036 4.69724 -0.086834 55 91 141 255 
-7.72614 4.70381 -0.170522 59 82 139 255 
-7.70493 4.70211 -0.255283 62 73 137 255 
-6.95756 4.22252 -0.295585 49 104 142 255 
-6.97764 4.24319 -0.372268 48 106 142 255 
-6.95691 4.23715 -0.448284 52 97 141 255 
-6.95701 4.24734 -0.525677 52 97 141 255 
-6.95083 4.2201 -0.590015 53 95 141 255 
-6.95245 4.2312 -0.666269 52 97 141 255 
-6.68465 4.07613 -0.715286 63 71 136 255 
-6.15585 3.75822 -0.727522 59 82 139 255 
-6.16729 3.74879 -0.786595 49 104 142 255 
-6.17412 3.75899 -0.856816 51 99 141 255 
-6.17471 3.76666 -0.926555 49 104 142 255 
-6.16768 3.7684 -0.995227 51 98 141 255 
-6.18744 3.76547 -1.05795 50 102 142 255 
-6.16159 3.75431 -1.12214 49 104 142 255 
-6.14819 3.75196 -1.18851 50 101 142 255 
-6.06891 3.70805 -1.24381 68 57 131 255 
-5.78157 3.524 -1.24269 55 91 141 255 
-5.47032 3.33704 -1.23627 57 86 140 255 
-5.24774 3.20245 -1.24742 58 83 139 255 
-4.98719 3.04593 -1.24533 60 79 138 255 
-4.79674 2.92716 -1.24681 59 81 139 255 
-4.58906 2.80165 -1.24526 66 65 134 255 
-4.41974 2.69928 -1.25193 66 64 134 255 
-4.23847 2.58662 -1.25275 66 63 133 255 
-4.0685 2.48763 -1.24661 67 61 132 255 
-3.94399 2.41161 -1.25427 67 61 132 255 
-3.75515 2.29429 -1.24026 67 61 132 255 
-3.65179 2.22684 -1.25317 69 56 130 255 
-16.8713 10.3651 5.94809 64 70 136 255 
-16.8815 10.3515 5.72693 63 71 136 255 
-16.8771 10.3405 5.51513 62 73 137 255 
-16.8513 10.3251 5.30656 64 70 136 255 
-16.8751 10.3553 5.1388 59 81 139 255 
-16.855 10.3392 4.92274 60 79 138 255 
-16.8579 10.3449 4.72295 65 66 135 255 
-16.8218 10.3272 4.52081 65 68 135 255 
-16.8486 10.335 4.36026 64 69 136 255 
-16.8669 10.3506 4.1595 61 77 138 255 
-16.8207 10.3342 3.95552 61 77 138 255 
-16.8323 10.3498 3.76936 59 81 139 255 
-16.8334 10.3257 3.60306 59 81 139 255 
-16.834 10.3345 3.4084 57 85 140 255 
-16.8279 10.3467 3.21365 56 89 140 255 
-16.7848 10.3407 3.02378 59 81 139 255 
-16.7852 10.3001 2.85894 70 50 126 255 
-9.57411 5.87988 1.5211 66 64 134 255 
-9.73356 5.99173 1.43785 68 57 131 255 
-9.50748 5.86192 1.30222 57 85 140 255 
-9.66319 5.92976 1.22965 69 53 129 255 
-9.72841 5.98165 1.12983 57 86 140 255 
-10.1765 6.26683 1.06873 69 55 129 255 
-14.9193 9.20942 1.4045 72 33 115 255 
-13.6377 8.37193 1.15548 60 80 139 255 
-13.1951 8.1164 0.971931 71 44 122 255 
-9.58816 5.91146 0.60018 59 81 139 255 
-9.37652 5.79246 0.483133 59 82 139 255 
-9.41328 5.78318 0.397383 52 97 141 255 
-8.5026 5.23409 0.264941 52 96 141 255 
-7.7101 4.75542 0.154957 52 97 141 255 
-7.70509 4.76362 0.0711485 48 105 142 255 
-7.72808 4.74971 -0.00158319 51 98 141 255 
-7.70651 4.74773 -0.0868916 52 96 141 255 
-7.70734 4.75743 -0.170748 52 96 141 255 
-7.66403 4.74193 -0.254887 60 79 138 255 
-6.93322 4.26618 -0.295658 50 100 142 255 
-6.94211 4.28016 -0.371767 50 101 142 255 
-6.93248 4.28081 -0.448393 46 111 142 255 
-6.92827 4.28837 -0.525484 51 99 141 255 
-6.93075 4.26633 -0.590522 49 104 142 255 
-6.91788 4.26855 -0.665453 53 95 141 255 
-6.64766 4.10974 -0.714013 65 66 135 255 
-6.14452 3.80325 -0.728927 61 77 138 255 
-6.14925 3.78969 -0.787245 49 103 142 255 
-6.14418 3.79263 -0.855875 49 103 142 255 
-6.13545 3.79456 -0.924141 46 110 142 255 
-6.14023 3.80356 -0.994545 53 94 141 255 
-6.17095 3.80752 -1.05911 43 117 142 255 
-6.15441 3.80191 -1.12506 50 100 142 255 
-6.141 3.79948 -1.1916 51 99 141 255 
-6.05191 3.74885 -1.24502 69 56 130 255 
-5.76151 3.56044 -1.24305 55 91 141 255 
-5.43137 3.35918 -1.23211 53 94 141 255 
-5.21132 3.22428 -1.24344 58 84 140 255 
-4.96508 3.07442 -1.2445 60 79 138 255 
-4.79114 2.96425 -1.25006 56 89 140 255 
-4.56433 2.82514 -1.24323 61 78 138 255 
-4.37582 2.70946 -1.24418 65 66 135 255 
-4.2052 2.60187 -1.24762 68 59 132 255 
-4.04494 2.50745 -1.24408 68 57 131 255 
-3.91599 2.42763 -1.25008 66 64 134 255 
-3.77128 2.33605 -1.25029 65 66 135 255 
-3.62418 2.24063 -1.24839 68 59 132 255 
-16.8578 10.4998 5.96593 63 71 136 255 
-16.8593 10.4807 5.7411 64 70 136 255 
-16.8469 10.4647 5.52614 63 71 136 255 
-16.85 10.467 5.32627 62 73 137 255 
-16.8252 10.4673 5.14307 63 72 137 255 
-16.8233 10.4624 4.93216 58 84 140 255 
-16.8338 10.4728 4.7341 64 69 136 255 
-16.8285 10.474 4.53979 66 64 134 255 
-16.8321 10.4676 4.37254 66 65 134 255 
-16.8305 10.471 4.16629 61 78 138 255 
-16.8219 10.4776 3.97084 62 74 137 255 
-16.7985 10.4716 3.77611 61 77 138 255 
-16.7965 10.4454 3.60881 57 86 140 255 
-16.7929 10.4516 3.41299 59 81 139 255 
-16.7934 10.468 3.21927 57 86 140 255 
-16.794 10.4891 3.03697 58 84 140 255 
-10.0288 6.23915 1.71465 62 73 137 255 
-16.7379 10.4215 2.66936 67 62 133 255 
-9.4845 5.91897 1.4064 72 35 116 255 
-9.74507 6.09125 1.33985 72 37 118 255 
-9.69415 6.03095 1.23827 60 80 139 255 
-9.75401 6.08019 1.13711 64 69 136 255 
-9.90718 6.18515 1.04441 60 80 139 255 
-14.6319 9.15643 1.3827 72 28 110 255 
-13.7723 8.5714 1.17133 72 40 120 255 
-13.0062 8.1106 0.961662 66 65 134 255 
-9.55425 5.97177 0.600339 58 83 139 255 
-9.48897 5.94268 0.490797 56 88 140 255 
-9.40053 5.8551 0.398354 52 97 141 255 
-8.46863 5.2851 0.264888 51 99 141 255 
-7.6884 4.80741 0.155111 55 90 140 255 
-7.68418 4.81612 0.071227 51 99 141 255 
-7.70389 4.80021 -0.00158424 50 101 142 255 
-7.67299 4.79228 -0.0868436 48 106 142 255 
-7.67547 4.80304 -0.170691 54 93 141 255 
-7.62124 4.78037 -0.254435 62 76 138 255 
-6.92472 4.31975 -0.29642 51 98 141 255 
-6.90894 4.31843 -0.371403 51 99 141 255 
-6.90862 4.32485 -0.448558 49 104 142 255 
-6.90437 4.33239 -0.525677 47 108 142 255 
-6.91291 4.31405 -0.591245 47 107 142 255 
-6.88226 4.3051 -0.664556 52 97 141 255 
-6.61978 4.14887 -0.71374 64 69 136 255 
-6.13118 3.84723 -0.730131 55 90 140 255 
-6.12588 3.82735 -0.787245 50 100 142 255 
-6.12837 3.835 -0.856934 50 101 142 255 
-6.12298 3.83899 -0.925793 48 106 142 255 
-6.11175 3.838 -0.993727 53 95 141 255 
-6.13741 3.83902 -1.05737 44 115 142 255 
-6.13934 3.84485 -1.1266 51 99 141 255 
-6.11422 3.83499 -1.19095 53 94 141 255 
-6.02879 3.78591 -1.24502 65 68 135 255 
-5.72622 3.58737 -1.24017 54 92 141 255 
-5.40401 3.38827 -1.23059 55 90 140 255 
-5.18397 3.25151 -1.24165 57 86 140 255 
-4.95855 3.11262 -1.24762 61 78 138 255 
-4.78113 2.99878 -1.25222 53 95 141 255 
-4.54608 2.85257 -1.243 62 74 137 255 
-4.36159 2.73781 -1.24488 62 74 137 255 
-4.17027 2.61577 -1.24199 68 58 131 255 
-4.03603 2.53634 -1.24611 65 66 135 255 
-3.89939 2.45058 -1.24956 67 61 132 255 
-3.76421 2.36375 -1.25274 63 71 136 255 
-3.60386 2.25875 -1.24614 70 52 128 255 
-16.8489 10.6383 5.98578 65 68 135 255 
-16.8516 10.6198 5.76055 62 76 138 255 
-16.8394 10.6038 5.54493 63 72 137 255 
-16.8132 10.5877 5.33509 64 69 136 255 
-16.8343 10.6168 5.16568 61 78 138 255 
-16.8237 10.6063 4.95125 60 79 138 255 
-16.8095 10.6013 4.74548 65 68 135 255 
-16.8043 10.6025 4.55073 67 61 132 255 
-16.8072 10.5956 4.38288 62 74 137 255 
-16.7966 10.5933 4.1739 62 74 137 255 
-16.7855 10.5984 3.97752 62 73 137 255 
-16.8037 10.6185 3.79185 63 71 136 255 
-16.7911 10.5855 3.62155 57 86 140 255 
-16.7984 10.5986 3.42728 55 90 140 255 
-16.799 10.6152 3.23276 55 91 141 255 
-16.7577 10.6099 3.04212 60 79 138 255 
-16.7722 10.5777 2.87862 57 85 140 255 
-13.6242 8.59922 2.18116 46 111 142 255 
-16.7009 10.5654 2.48604 68 57 131 255 
-9.98523 6.3269 1.37818 65 66 135 255 
-9.44253 5.95508 1.21078 46 110 142 255 
-9.45321 5.97353 1.1063 62 74 137 255 
-9.81013 6.20854 1.03818 71 45 123 255 
-10.169 6.45076 0.96468 69 53 129 255 
-13.3171 8.40188 1.13697 70 52 128 255 
-12.7984 8.09053 0.949952 65 66 135 255 
-9.58744 6.07464 0.604755 56 89 140 255 
-9.56113 6.06986 0.496446 58 84 140 255 
-9.54525 6.02684 0.406046 54 92 141 255 
-8.43098 5.33376 0.264728 52 96 141 255 
-7.66636 4.85931 0.155265 53 95 141 255 
-7.64942 4.85996 0.0711799 48 105 142 255 
-7.66161 4.83938 -0.00158162 51 99 141 255 
-7.6502 4.84355 -0.0869204 51 99 141 255 
-7.64332 4.84844 -0.170635 54 92 141 255 
-7.61117 4.83938 -0.255085 55 90 140 255 
-6.90907 4.3691 -0.296892 46 110 142 255 
-6.88063 4.35968 -0.371311 48 105 142 255 
-6.89122 4.37305 -0.449163 50 101 142 255 
-6.87344 4.372 -0.525355 46 109 142 255 
-6.88799 4.35746 -0.59139 47 107 142 255 
-6.86329 4.35205 -0.66529 46 109 142 255 
-6.58664 4.1846 -0.712921 66 65 134 255 
-6.10242 3.88157 -0.729529 57 86 140 255 
-6.11823 3.87498 -0.789303 49 104 142 255 
-6.10556 3.87306 -0.857052 46 110 142 255 
-6.10935 3.88287 -0.927318 53 95 141 255 
-6.1048 3.88607 -0.996455 55 90 140 255 
-6.12209 3.8819 -1.05882 48 106 142 255 
-6.11396 3.88139 -1.12629 53 95 141 255 
-6.09557 3.87561 -1.19193 51 98 141 255 
-5.99714 3.81754 -1.24329 63 72 137 255 
-5.68003 3.60715 -1.23493 57 86 140 255 
-5.38643 3.42347 -1.23135 56 88 140 255 
-5.1573 3.27905 -1.24006 56 88 140 255 
-4.94183 3.14457 -1.24825 58 84 140 255 
-4.73463 3.01025 -1.24486 56 89 140 255 
-4.52685 2.87937 -1.24255 62 76 138 255 
-4.34061 2.76191 -1.24371 62 73 137 255 
-4.1705 2.65172 -1.24688 68 58 131 255 
-4.0261 2.5647 -1.24788 66 63 133 255 
-3.87695 2.46979 -1.2472 63 71 136 255 
-3.73015 2.3744 -1.24623 66 63 133 255 
-3.59641 2.28493 -1.24839 69 56 130 255 
-16.8164 10.7627 5.99757 64 70 136 255 
-16.8282 10.7499 5.775 64 69 136 255 
-16.848 10.7541 5.56935 62 76 138 255 
-16.8375 10.7479 5.36361 64 70 136 255 
-16.8031 10.7418 5.17624 61 78 138 255 
-16.8082 10.7412 4.96598 60 80 139 255 
-16.7999 10.7399 4.76127 64 70 136 255 
-16.78 10.7317 4.56189 66 65 134 255 
-16.7764 10.7207 4.39192 64 69 136 255 
-16.7873 10.7321 4.18789 62 73 137 255 
-16.7656 10.7303 3.98833 62 76 138 255 
-16.7663 10.7395 3.79822 63 71 136 255 
-16.7441 10.7 3.6255 59 82 139 255 
-16.7663 10.7227 3.43408 57 86 140 255 
-16.761 10.7356 3.23806 58 83 139 255 
-16.7546 10.7526 3.05349 60 80 139 255 
-16.752 10.7092 2.88638 55 90 140 255 
-16.764 10.7254 2.69432 58 84 140 255 
-9.50135 6.09275 1.41988 63 71 136 255 
-9.59688 6.16368 1.32978 69 55 129 255 
-9.71239 6.2089 1.25024 62 73 137 255 
-15.9945 10.2449 1.87914 72 27 109 255 
-10.1147 6.48857 1.07461 71 45 123 255 
-13.7018 8.8102 1.30492 72 31 112 255 
-13.2065 8.44582 1.13193 70 48 126 255 
-12.2788 7.86791 0.91495 71 46 124 255 
-9.77097 6.27527 0.618749 53 95 141 255 
-9.59848 6.17653 0.500344 56 89 140 255 
-9.60153 6.1451 0.410036 55 90 140 255 
-8.39809 5.38539 0.264728 50 101 142 255 
-7.63808 4.90734 0.155299 54 93 141 255 
-7.60853 4.89977 0.0710778 50 100 142 255 
-7.63935 4.89116 -0.00158319 49 104 142 255 
-7.62791 4.89526 -0.0870068 51 99 141 255 
-7.61931 4.89904 -0.170767 56 88 140 255 
-7.58385 4.88761 -0.25517 56 89 140 255 
-6.87792 4.40872 -0.296711 54 93 141 255 
-6.86131 4.40667 -0.371721 50 102 142 255 
-6.86762 4.41741 -0.449383 50 100 142 255 
-6.84481 4.41301 -0.525227 50 100 142 255 
-6.86868 4.40448 -0.592041 47 108 142 255 
-6.84233 4.39785 -0.665861 46 109 142 255 
-6.52232 4.20013 -0.708736 65 68 135 255 
-6.07849 3.91894 -0.729529 54 93 141 255 
-6.09351 3.91191 -0.789195 52 97 141 255 
-6.08418 3.91206 -0.857405 51 99 141 255 
-6.08791 3.9219 -0.927699 53 95 141 255 
-6.09166 3.93044 -0.998228 53 95 141 255 
-6.10398 3.92314 -1.05983 50 102 142 255 
-6.07591 3.90974 -1.12368 53 94 141 255 
-6.08246 3.91988 -1.19404 59 82 139 255 
-5.96201 3.84679 -1.24088 61 78 138 255 
-5.65034 3.63714 -1.23331 57 86 140 255 
-5.35046 3.44689 -1.22794 58 83 139 255 
-5.15027 3.31913 -1.24324 57 85 140 255 
-4.88792 3.15256 -1.2395 62 74 137 255 
-4.69474 3.02549 -1.23923 56 89 140 255 
-4.47307 2.88386 -1.23262 62 74 137 255 
-4.31541 2.78323 -1.24136 61 77 138 255 
-4.16149 2.68198 -1.24908 69 56 130 255 
-4.00623 2.58673 -1.24661 66 65 134 255 
-3.84875 2.48516 -1.24301 66 65 134 255 
-3.70014 2.38733 -1.24107 68 59 132 255 
-3.57264 2.30072 -1.24502 69 53 129 255 
-16.7958 10.8954 6.01397 62 73 137 255 
-16.8095 10.8838 5.79139 63 72 137 255 
-16.8148 10.8787 5.58036 61 78 138 255 
-16.8061 10.8735 5.37476 65 68 135 255 
-16.771 10.8668 5.18679 62 73 137 255 
-16.79 10.8753 4.98024 61 78 138 255 
-16.7614 10.8607 4.76917 66 65 134 255 
-16.7874 10.8822 4.58199 66 63 133 255 
-16.7858 10.8722 4.41174 62 76 138 255 
-16.7992 10.8854 4.20743 61 77 138 255 
-16.766 10.8762 4.00424 62 76 138 255 
-16.743 10.87 3.80796 65 68 135 255 
-16.7475 10.8475 3.64058 60 80 139 255 
-16.7572 10.8624 3.44581 55 90 140 255 
-16.7262 10.8587 3.24416 58 83 139 255 
-16.7281 10.881 3.06077 58 84 140 255 
-16.676 10.8053 2.88466 69 56 130 255 
-16.7345 10.8518 2.70022 55 91 141 255 
-16.7139 10.8631 2.50763 58 84 140 255 
-9.81527 6.38935 1.36544 68 59 132 255 
-9.67828 6.27108 1.25078 65 68 135 255 
-9.72642 6.31451 1.14725 70 51 127 255 
-10.1424 6.59449 1.08182 69 53 129 255 
-13.3669 8.71124 1.27809 71 42 122 255 
-12.9351 8.38456 1.11306 68 59 132 255 
-10.1972 6.6227 0.762855 66 65 134 255 
-9.77998 6.36616 0.621782 57 86 140 255 
-9.69931 6.3259 0.507613 56 88 140 255 
-9.63323 6.24904 0.41302 52 97 141 255 
-8.37076 5.44063 0.264914 50 100 142 255 
-7.60699 4.95357 0.155282 53 95 141 255 
-7.60009 4.96057 0.071282 51 99 141 255 
-7.61003 4.93848 -0.00158336 53 95 141 255 
-7.59773 4.94197 -0.0870068 55 90 140 255 
-7.58157 4.94078 -0.170597 57 86 140 255 
-7.53614 4.92258 -0.254576 59 82 139 255 
-6.84906 4.44975 -0.296638 48 105 142 255 
-6.8375 4.45087 -0.371903 47 108 142 255 
-6.84457 4.46219 -0.449657 50 100 142 255 
-6.8293 4.46257 -0.526128 47 107 142 255 
-6.84487 4.44872 -0.592331 46 111 142 255 
-6.81939 4.44247 -0.666269 50 100 142 255 
-6.47141 4.22375 -0.706006 66 64 134 255 
-6.06099 3.96052 -0.730332 57 85 140 255 
-6.06856 3.94868 -0.789087 52 97 141 255 
-6.07171 3.95691 -0.859053 52 96 141 255 
-6.06457 3.95972 -0.927826 54 92 141 255 
-6.07157 3.97045 -0.99891 52 96 141 255 
-6.07731 3.9589 -1.0594 46 110 142 255 
-6.07001 3.95882 -1.12706 54 93 141 255 
-6.06077 3.95875 -1.19453 55 90 140 255 
-5.92346 3.8736 -1.23778 59 82 139 255 
-5.63121 3.6739 -1.23403 59 81 139 255 
-5.34237 3.48824 -1.23097 57 86 140 255 
-5.0814 3.31905 -1.23151 57 85 140 255 
-4.85375 3.17286 -1.23574 61 77 138 255 
-4.68017 3.05691 -1.24031 57 85 140 255 
-4.46752 2.91925 -1.23601 62 74 137 255 
-4.29662 2.80859 -1.24089 59 81 139 255 
-4.13278 2.69951 -1.24541 66 63 133 255 
-3.98704 2.60914 -1.2456 67 62 133 255 
-3.83424 2.50926 -1.24327 66 64 134 255 
-3.66851 2.39892 -1.23537 68 58 131 255 
-3.54882 2.31631 -1.24164 69 53 129 255 
-16.7855 11.0356 6.0344 62 73 137 255 
-16.7593 10.9978 5.79722 62 73 137 255 
-16.7856 11.0065 5.59297 63 72 137 255 
-16.7932 11.0119 5.39214 64 70 136 255 
-16.7776 11.0179 5.20965 63 72 137 255 
-16.783 11.0175 4.99811 62 73 137 255 
-16.7766 11.0173 4.79263 66 63 133 255 
-16.7546 11.0075 4.59136 66 65 134 255 
-16.7612 11.0029 4.42294 65 68 135 255 
-16.7861 11.0237 4.221 63 71 136 255 
-16.7604 11.0193 4.01897 62 76 138 255 
-16.6989 10.9876 3.81321 67 61 132 255 
-16.7431 10.991 3.65422 58 83 139 255 
-16.7356 10.9948 3.45516 57 85 140 255 
-16.7475 11.0191 3.26134 58 84 140 255 
-16.7056 11.0129 3.06896 57 85 140 255 
-13.605 8.93443 2.36286 49 104 142 255 
-16.7115 10.9831 2.70733 55 90 140 255 
-16.7008 11.0009 2.51575 58 83 139 255 
-16.7046 11.0206 2.33322 68 57 131 255 
-16.7281 10.9853 2.17053 67 62 133 255 
-14.865 9.78072 1.76041 71 42 122 255 
-14.325 9.43959 1.53411 70 52 128 255 
-11.5365 7.61966 1.10753 70 52 128 255 
-12.2816 8.06837 1.06107 72 41 121 255 
-9.98217 6.57046 0.749768 56 89 140 255 
-9.74574 6.42935 0.622101 53 95 141 255 
-9.71032 6.41835 0.510241 54 92 141 255 
-9.71745 6.38873 0.418304 55 90 140 255 
-8.34473 5.49684 0.265153 48 105 142 255 
-7.57311 4.99795 0.155213 54 93 141 255 
-7.57118 5.00821 0.0712977 51 98 141 255 
-7.57959 4.98508 -0.00158336 51 98 141 255 
-7.57728 4.9951 -0.087122 47 107 142 255 
-7.55111 4.98721 -0.170597 57 85 140 255 
-7.46746 4.94334 -0.253276 63 71 136 255 
-6.81662 4.48839 -0.29642 45 112 142 255 
-6.82757 4.50429 -0.37286 42 119 142 255 
