ply
format ascii 1.0
comment VTK generated PLY File
obj_info vtkPolyData points and polygons: vtk4.0
element vertex 1173
property float x
property float y
property float z
property uchar red
property uchar green
property uchar blue
property uchar alpha
element face 0
property list uchar int vertex_indices
end_header
8.94338 -4.82983 2.63811 50 100 142 255 
9.71141 -5.24258 2.74753 64 70 136 255 
9.83087 -5.30917 2.66794 58 84 140 255 
9.95061 -5.37632 2.59037 68 57 131 255 
9.96114 -5.37722 2.49712 66 64 134 255 
14.9352 -8.06596 3.56772 72 27 109 255 
14.4011 -7.78707 3.28029 72 33 115 255 
10.9264 -5.9134 2.37 72 26 108 255 
10.9569 -5.91477 2.27179 72 37 118 255 
22.0856 -11.9326 4.33154 71 42 122 255 
9.74744 -5.27511 1.80304 37 133 142 255 
9.78715 -5.30785 1.70769 31 148 140 255 
9.81261 -5.29925 1.61896 32 146 140 255 
9.81083 -5.30289 1.50983 32 146 140 255 
9.7982 -5.30921 1.40191 32 146 140 255 
9.79209 -5.31495 1.29897 31 149 139 255 
9.75269 -5.26689 1.20215 61 78 138 255 
9.77855 -5.29206 1.1 34 141 141 255 
9.79146 -5.30777 0.99596 31 148 140 255 
9.80926 -5.33091 0.894331 31 153 138 255 
9.8221 -5.30659 0.806116 32 146 140 255 
9.81837 -5.31582 0.700489 31 154 138 255 
9.81119 -5.32511 0.594806 32 147 140 255 
9.82148 -5.34199 0.490096 32 147 140 255 
9.82187 -5.31089 0.401625 32 147 140 255 
9.83587 -5.32974 0.296851 33 143 141 255 
9.82537 -5.33503 0.19125 33 142 141 255 
9.79625 -5.33269 0.0876024 54 93 141 255 
9.82466 -5.31461 -0.00194953 49 103 142 255 
9.74032 -5.28236 -0.106368 69 5 89 255 
9.74502 -5.29581 -0.209086 70 7 90 255 
9.93824 -5.41447 -0.320079 70 7 90 255 
9.91734 -5.37145 -0.409624 70 8 92 255 
9.85964 -5.35153 -0.511384 70 8 92 255 
9.8969 -5.38058 -0.619948 70 7 90 255 
9.87685 -5.38326 -0.725445 70 7 90 255 
9.79695 -5.30845 -0.808494 61 77 138 255 
9.92882 -5.39356 -0.924993 38 130 142 255 
10.2948 -5.60388 -1.07084 66 63 133 255 
9.58357 -5.22341 -1.10097 71 42 122 255 
8.95123 -4.85625 -1.1099 63 72 137 255 
8.17383 -4.44206 -1.10271 68 57 131 255 
7.63087 -4.15553 -1.11309 69 55 129 255 
7.19744 -3.92614 -1.12891 64 70 136 255 
6.77689 -3.68121 -1.12646 60 80 139 255 
6.42432 -3.49419 -1.13735 56 88 140 255 
6.07969 -3.31218 -1.14243 59 82 139 255 
5.75755 -3.14069 -1.14699 59 82 139 255 
5.51209 -2.99915 -1.15171 51 99 141 255 
5.24202 -2.8547 -1.15159 53 95 141 255 
5.03194 -2.74137 -1.1627 47 107 142 255 
4.82323 -2.62993 -1.17072 55 90 140 255 
4.63968 -2.52761 -1.17229 52 97 141 255 
4.46524 -2.4337 -1.1778 51 98 141 255 
4.28573 -2.33678 -1.18003 59 82 139 255 
4.12358 -2.24658 -1.18475 62 76 138 255 
3.96912 -2.16679 -1.18212 63 71 136 255 
3.84495 -2.0991 -1.18855 63 72 137 255 
3.72209 -2.0303 -1.19496 61 78 138 255 
3.56533 -1.94082 -1.18935 62 74 137 255 
13.0514 -7.16098 4.47193 72 28 110 255 
9.5162 -5.2107 3.13767 49 104 142 255 
9.90199 -5.41734 3.14502 69 55 129 255 
10.0893 -5.52006 3.08804 59 82 139 255 
8.91018 -4.88275 2.63711 59 82 139 255 
9.65438 -5.28855 2.74052 69 53 129 255 
9.77763 -5.35818 2.66236 60 80 139 255 
12.0483 -6.60552 3.14693 72 33 115 255 
14.4457 -7.91294 3.63344 67 61 132 255 
14.882 -8.15556 3.5669 72 27 109 255 
14.1631 -7.77105 3.23687 72 33 115 255 
10.9356 -6.00539 2.37993 67 61 132 255 
10.892 -5.96629 2.26587 57 85 140 255 
10.9092 -5.98089 2.14672 68 59 132 255 
9.77545 -5.36808 1.81428 40 125 142 255 
9.7847 -5.38448 1.71299 31 151 139 255 
9.80334 -5.3722 1.62284 31 158 137 255 
9.79027 -5.36966 1.51171 31 149 139 255 
9.78109 -5.37784 1.40415 31 149 139 255 
9.78366 -5.38835 1.30222 33 142 141 255 
9.78034 -5.3596 1.20959 51 98 141 255 
9.77643 -5.36872 1.10344 35 137 142 255 
9.79885 -5.38983 1.00006 34 141 141 255 
9.78771 -5.39725 0.895369 35 138 141 255 
9.83221 -5.39025 0.809645 31 149 139 255 
9.79606 -5.38173 0.70124 31 148 140 255 
9.80982 -5.40256 0.596721 37 132 142 255 
9.82788 -5.42387 0.492067 38 129 142 255 
9.82852 -5.39268 0.403243 33 144 141 255 
9.82663 -5.40299 0.297567 39 128 142 255 
9.81785 -5.40921 0.191746 39 128 142 255 
9.80273 -5.41445 0.0879558 53 94 141 255 
9.81115 -5.38538 -0.00195337 52 97 141 255 
9.90397 -5.45002 -0.108519 69 5 89 255 
9.81653 -5.41295 -0.211329 70 7 90 255 
9.83222 -5.43521 -0.317733 69 5 89 255 
9.88507 -5.43268 -0.40966 69 5 89 255 
9.86337 -5.43216 -0.513297 70 7 90 255 
9.82785 -5.42143 -0.617695 70 7 90 255 
9.86896 -5.45777 -0.727311 70 7 90 255 
9.81751 -5.39778 -0.812908 59 81 139 255 
9.95053 -5.48469 -0.930133 39 128 142 255 
10.2602 -5.66695 -1.07084 64 70 136 255 
9.58529 -5.30089 -1.10488 71 44 122 255 
8.95435 -4.9293 -1.11402 68 58 131 255 
8.14903 -4.49357 -1.10307 67 62 133 255 
7.6252 -4.21331 -1.11601 69 53 129 255 
7.16455 -3.96543 -1.12754 62 74 137 255 
6.76717 -3.72989 -1.12863 58 84 140 255 
6.40362 -3.53402 -1.13751 53 94 141 255 
6.05234 -3.3456 -1.14113 58 83 139 255 
5.74679 -3.18073 -1.14872 58 83 139 255 
5.50822 -3.04099 -1.15478 50 101 142 255 
5.24245 -2.89678 -1.15557 50 101 142 255 
5.00044 -2.76414 -1.15932 51 98 141 255 
4.80272 -2.65711 -1.16967 55 91 141 255 
4.63348 -2.56123 -1.17468 51 99 141 255 
4.45022 -2.46105 -1.1778 55 91 141 255 
4.27896 -2.36727 -1.18215 59 82 139 255 
4.12839 -2.28216 -1.19013 63 72 137 255 
3.95575 -2.1911 -1.18212 63 71 136 255 
3.8168 -2.11424 -1.18383 61 78 138 255 
3.70199 -2.04891 -1.19251 63 72 137 255 
3.55755 -1.96498 -1.19075 65 66 135 255 
14.7168 -8.19263 5.05969 66 64 134 255 
13.1596 -7.311 4.35368 72 37 118 255 
9.66895 -5.36719 3.08141 57 86 140 255 
9.97077 -5.53499 3.06211 53 95 141 255 
10.0762 -5.60242 2.99234 64 70 136 255 
11.8177 -6.56818 3.36598 72 38 119 255 
10.2402 -5.69363 2.79777 67 61 132 255 
9.87026 -5.49045 2.5868 69 55 129 255 
14.6649 -8.15039 3.70108 66 64 134 255 
14.7008 -8.17396 3.53543 65 68 135 255 
14.9324 -8.31279 3.42429 68 59 132 255 
10.9551 -6.10393 2.3923 70 51 127 255 
10.8663 -6.03922 2.2682 68 57 131 255 
14.8096 -8.23783 2.92413 72 40 120 255 
9.76561 -5.44093 1.81862 36 134 142 255 
9.77823 -5.45935 1.71769 38 130 142 255 
9.79527 -5.4462 1.62701 36 135 142 255 
9.77272 -5.4383 1.51412 39 126 142 255 
9.79036 -5.46144 1.41027 42 120 142 255 
9.78943 -5.47008 1.30743 43 116 142 255 
9.769 -5.43159 1.21229 48 105 142 255 
9.78068 -5.44944 1.10768 35 137 142 255 
9.79691 -5.46733 1.00326 44 114 142 255 
9.8301 -5.49955 0.902316 44 113 142 255 
9.82684 -5.46599 0.81195 42 118 142 255 
9.82824 -5.47818 0.705936 42 120 142 255 
9.83663 -5.49625 0.600392 42 118 142 255 
9.84759 -5.51384 0.494738 43 116 142 255 
9.85375 -5.48546 0.405651 43 117 142 255 
9.84829 -5.49387 0.299239 43 116 142 255 
9.84208 -5.50155 0.192875 42 118 142 255 
9.80596 -5.49503 0.0882857 46 110 142 255 
9.8251 -5.47175 -0.0019628 51 99 141 255 
9.89129 -5.52238 -0.108749 69 5 89 255 
9.88348 -5.52922 -0.213496 69 5 89 255 
9.91028 -5.55803 -0.321352 69 5 89 255 
9.92137 -5.53216 -0.412564 69 5 89 255 
9.88654 -5.52425 -0.516257 69 5 89 255 
9.89896 -5.54015 -0.624289 70 7 90 255 
9.8466 -5.52457 -0.728148 70 7 90 255 
9.81992 -5.47784 -0.815875 59 81 139 255 
9.93757 -5.55732 -0.932091 40 124 142 255 
10.1809 -5.70497 -1.0662 68 58 131 255 
9.56213 -5.36496 -1.10599 71 45 123 255 
8.92741 -4.98609 -1.11445 65 68 135 255 
8.14124 -4.55464 -1.10577 68 58 131 255 
7.63122 -4.27796 -1.12071 68 57 131 255 
7.15736 -4.01901 -1.13027 63 72 137 255 
6.7528 -3.77617 -1.13007 59 81 139 255 
6.37147 -3.56745 -1.13566 52 96 141 255 
6.04375 -3.38943 -1.14341 56 89 140 255 
5.75208 -3.22992 -1.15371 55 90 140 255 
5.48688 -3.07329 -1.15424 52 97 141 255 
5.22715 -2.93033 -1.15614 48 106 142 255 
4.99792 -2.80291 -1.1627 49 103 142 255 
4.79912 -2.69371 -1.1728 51 98 141 255 
4.6279 -2.59534 -1.17728 50 100 142 255 
4.43673 -2.48926 -1.17825 55 91 141 255 
4.27199 -2.39776 -1.18426 62 76 138 255 
4.10839 -2.30412 -1.18842 62 76 138 255 
3.94813 -2.21865 -1.18389 61 77 138 255 
3.77852 -2.12343 -1.17598 62 73 137 255 
3.67088 -2.06122 -1.18655 62 74 137 255 
3.53873 -1.98302 -1.1885 65 68 135 255 
14.6712 -8.2856 5.06142 72 31 112 255 
12.763 -7.1935 4.237 66 65 134 255 
9.90107 -5.57579 3.16623 57 86 140 255 
9.89034 -5.57 3.04784 69 56 130 255 
10.072 -5.68126 3.00138 68 57 131 255 
9.74851 -5.49671 2.78618 72 35 116 255 
10.1008 -5.69758 2.7692 59 81 139 255 
10.3653 -5.84936 2.72588 66 64 134 255 
10.0323 -5.65655 2.54063 72 35 116 255 
14.589 -8.22939 3.52062 68 58 131 255 
10.678 -6.03052 2.45712 62 76 138 255 
10.7755 -6.0908 2.36119 59 81 139 255 
10.8153 -6.09805 2.26533 60 80 139 255 
10.8908 -6.14579 2.15778 60 79 138 255 
9.7879 -5.53232 1.82906 36 134 142 255 
9.8168 -5.56017 1.73043 33 142 141 255 
9.84184 -5.55141 1.64037 32 146 140 255 
9.84445 -5.5576 1.53049 35 138 141 255 
9.82748 -5.56148 1.42051 35 137 142 255 
9.83518 -5.57511 1.31808 33 142 141 255 
9.86191 -5.56274 1.22803 35 138 141 255 
9.80424 -5.54167 1.11417 36 135 142 255 
9.84899 -5.57592 1.01208 32 146 140 255 
9.85425 -5.59273 0.907666 32 146 140 255 
9.86087 -5.56442 0.817568 33 143 141 255 
9.83875 -5.56344 0.70913 31 149 139 255 
9.85137 -5.58408 0.603372 33 145 140 255 
9.8683 -5.60525 0.497497 31 150 139 255 
9.86255 -5.5699 0.407412 33 145 140 255 
9.85007 -5.57438 0.300326 33 144 141 255 
9.8638 -5.5934 0.19397 33 145 140 255 
9.84074 -5.59413 0.0889062 42 118 142 255 
9.85141 -5.56587 -0.00197484 52 96 141 255 
9.91726 -5.61697 -0.109411 69 5 89 255 
9.93545 -5.63861 -0.215362 70 7 90 255 
9.91509 -5.64098 -0.322624 69 5 89 255 
9.87506 -5.58605 -0.412056 70 7 90 255 
9.88114 -5.60107 -0.51776 70 7 90 255 
9.83265 -5.58254 -0.622256 70 7 90 255 
9.84721 -5.60463 -0.730722 70 7 90 255 
9.85209 -5.57532 -0.821375 61 78 138 255 
9.9839 -5.66392 -0.939679 40 124 142 255 
10.1345 -5.76093 -1.06501 68 59 132 255 
9.542 -5.43092 -1.10749 71 46 124 255 
8.91568 -5.05156 -1.11683 66 63 133 255 
8.16064 -4.63146 -1.11225 71 42 122 255 
7.59017 -4.31637 -1.11855 68 57 131 255 
7.15236 -4.07413 -1.13341 67 62 133 255 
6.69937 -3.80044 -1.12501 68 58 131 255 
6.36922 -3.61771 -1.1392 57 85 140 255 
6.04256 -3.43767 -1.14715 57 85 140 255 
5.73386 -3.26613 -1.15406 55 91 141 255 
5.46706 -3.10641 -1.15406 51 98 141 255 
5.20395 -2.95944 -1.155 48 105 142 255 
4.98574 -2.83644 -1.1639 51 99 141 255 
4.7927 -2.72892 -1.1753 55 90 140 255 
4.60171 -2.6179 -1.17468 54 93 141 255 
4.43154 -2.52222 -1.18095 52 96 141 255 
4.23354 -2.41046 -1.17768 63 72 137 255 
4.07816 -2.32018 -1.18377 63 71 136 255 
3.94958 -2.25146 -1.18844 60 80 139 255 
3.79812 -2.16522 -1.18619 62 74 137 255 
3.6682 -2.08942 -1.1898 62 74 137 255 
3.55903 -2.02319 -1.19947 64 69 136 255 
9.96889 -5.71091 3.45119 68 59 132 255 
10.1375 -5.79598 3.37715 70 50 126 255 
12.7148 -7.26343 4.08018 70 52 128 255 
12.9772 -7.4137 4.01305 71 46 124 255 
10.0353 -5.74199 3.00088 71 42 122 255 
9.68428 -5.53908 2.77748 72 27 109 255 
11.6182 -6.64778 3.19632 72 38 119 255 
11.9314 -6.83005 3.14872 68 57 131 255 
9.98384 -5.71024 2.53718 54 93 141 255 
14.5213 -8.30904 3.51651 72 20 103 255 
10.5124 -6.02233 2.42745 57 86 140 255 
10.5266 -6.03563 2.31472 60 79 138 255 
10.5164 -6.01484 2.21041 60 80 139 255 
14.184 -8.11933 2.82007 71 42 122 255 
9.7863 -5.61092 1.83516 40 124 142 255 
9.80564 -5.63359 1.73452 33 143 141 255 
9.81789 -5.6176 1.64209 31 154 138 255 
9.82048 -5.62381 1.5321 31 149 139 255 
9.81812 -5.636 1.42412 31 149 139 255 
9.82059 -5.64674 1.32074 33 145 140 255 
9.83794 -5.62907 1.22932 31 153 138 255 
9.8348 -5.63884 1.12156 37 132 142 255 
9.82668 -5.64319 1.01333 32 147 140 255 
9.83011 -5.65906 0.908624 32 146 140 255 
9.84645 -5.63621 0.819224 30 155 138 255 
9.83386 -5.64059 0.711259 31 151 139 255 
9.83684 -5.65587 0.604596 32 146 140 255 
9.85363 -5.67717 0.498504 34 141 141 255 
9.8568 -5.6467 0.408599 32 147 140 255 
9.84602 -5.65213 0.301255 33 142 141 255 
9.85269 -5.66728 0.194431 34 139 141 255 
9.85128 -5.68039 0.0893146 41 123 142 255 
9.85265 -5.6466 -0.001982 54 93 141 255 
9.91122 -5.69416 -0.109728 70 7 90 255 
9.85127 -5.67104 -0.214288 69 5 89 255 
9.89588 -5.7107 -0.323133 69 5 89 255 
9.87701 -5.66742 -0.41358 70 8 92 255 
9.82926 -5.65163 -0.516849 70 7 90 255 
9.80686 -5.64775 -0.622805 69 4 87 255 
9.76337 -5.6365 -0.727054 69 4 87 255 
9.87651 -5.66943 -0.826296 58 83 139 255 
10.006 -5.75789 -0.945064 39 128 142 255 
10.0964 -5.82151 -1.06474 67 62 133 255 
9.53177 -5.50279 -1.1102 71 47 125 255 
8.91037 -5.12103 -1.12008 67 62 133 255 
8.09851 -4.66213 -1.10766 70 50 126 255 
7.56869 -4.36583 -1.11931 68 59 132 255 
7.13324 -4.12141 -1.13436 64 69 136 255 
6.45123 -3.71218 -1.08715 72 40 120 255 
6.37944 -3.67546 -1.14504 54 92 141 255 
6.0393 -3.48504 -1.15057 55 90 140 255 
5.71371 -3.30125 -1.15406 57 85 140 255 
5.45387 -3.14334 -1.15532 51 99 141 255 
5.18825 -2.99278 -1.15557 49 103 142 255 
4.95296 -2.85816 -1.16032 51 99 141 255 
4.77756 -2.75925 -1.17572 53 95 141 255 
4.60839 -2.65926 -1.18052 55 91 141 255 
4.42357 -2.55375 -1.18298 53 95 141 255 
4.25908 -2.45973 -1.18896 61 78 138 255 
4.084 -2.35679 -1.18964 65 66 135 255 
3.9248 -2.26935 -1.18515 62 74 137 255 
3.79646 -2.19525 -1.18986 64 69 136 255 
3.67281 -2.122 -1.1955 62 73 137 255 
3.53159 -2.03636 -1.19441 63 72 137 255 
10.1365 -5.88986 3.52167 70 51 127 255 
12.7893 -7.41657 4.27561 67 61 132 255 
12.7425 -7.38333 4.10354 72 37 118 255 
12.8922 -7.47043 4.00086 66 63 133 255 
12.9291 -7.50344 3.87992 71 16 99 255 
9.62745 -5.58525 2.77096 65 66 135 255 
11.6454 -6.75849 3.21514 71 47 125 255 
11.8842 -6.90019 3.14738 71 46 124 255 
9.94693 -5.77041 2.53675 46 111 142 255 
10.6392 -6.1747 2.58555 66 63 133 255 
10.4845 -6.09214 2.42962 54 93 141 255 
10.4792 -6.09418 2.31247 53 94 141 255 
10.441 -6.05704 2.20233 53 94 141 255 
14.8302 -8.61046 2.95899 72 23 105 255 
9.76023 -5.67583 1.83676 60 79 138 255 
9.78797 -5.70361 1.73755 39 128 142 255 
9.82432 -5.70157 1.64899 33 145 140 255 
9.82692 -5.70785 1.53854 37 132 142 255 
9.81594 -5.71511 1.42887 38 129 142 255 
9.81493 -5.7239 1.32468 42 118 142 255 
9.83933 -5.71029 1.23385 35 138 141 255 
9.88776 -5.75011 1.1316 38 129 142 255 
9.82716 -5.72394 1.01698 41 123 142 255 
9.8107 -5.72831 0.910062 44 114 142 255 
9.84101 -5.71355 0.821673 36 135 142 255 
9.83185 -5.71989 0.713638 38 129 142 255 
9.81144 -5.72166 0.605181 52 97 141 255 
9.84707 -5.75415 0.499949 54 93 141 255 
9.84271 -5.71912 0.409461 41 121 142 255 
9.84312 -5.73105 0.302236 48 105 142 255 
9.86264 -5.75383 0.195321 46 109 142 255 
9.83868 -5.75385 0.0895188 43 116 142 255 
9.84894 -5.72504 -0.00198828 55 90 140 255 
9.89942 -5.76846 -0.109987 69 5 89 255 
9.87155 -5.76364 -0.215494 69 5 89 255 
9.93657 -5.81575 -0.32562 70 7 90 255 
9.86796 -5.743 -0.414669 70 7 90 255 
9.93592 -5.79437 -0.524317 70 7 90 255 
9.86428 -5.7617 -0.628685 69 4 87 255 
9.88275 -5.78656 -0.738574 69 4 87 255 
9.87085 -5.74699 -0.828757 61 77 138 255 
9.98337 -5.82671 -0.946288 41 121 142 255 
10.0811 -5.89542 -1.06692 67 62 133 255 
9.49439 -5.55917 -1.1098 69 53 129 255 
8.91915 -5.19914 -1.12518 67 61 132 255 
8.0929 -4.72525 -1.11084 70 51 127 255 
7.56488 -4.42571 -1.12274 67 61 132 255 
7.10012 -4.16059 -1.13313 65 66 135 255 
6.44029 -3.75868 -1.08917 71 46 124 255 
6.37895 -3.7275 -1.14903 56 89 140 255 
6.02036 -3.52353 -1.15106 56 89 140 255 
5.7044 -3.34272 -1.1563 56 89 140 255 
5.4574 -3.19015 -1.1602 52 96 141 255 
5.18928 -3.03597 -1.15993 50 100 142 255 
4.93618 -2.88899 -1.16052 50 102 142 255 
4.75885 -2.78752 -1.1753 51 99 141 255 
4.59282 -2.68798 -1.18074 54 92 141 255 
4.3868 -2.56854 -1.17734 57 86 140 255 
4.23216 -2.47893 -1.18567 62 74 137 255 
4.06946 -2.3818 -1.18964 64 70 136 255 
3.92749 -2.30318 -1.19021 61 77 138 255 
3.78042 -2.21703 -1.18907 62 76 138 255 
3.65972 -2.1445 -1.1955 63 71 136 255 
3.50577 -2.05024 -1.18991 63 71 136 255 
10.1423 -5.97674 3.53635 56 88 140 255 
9.34029 -5.49334 3.13378 70 11 94 255 
10.8872 -6.3979 3.51866 71 19 101 255 
12.5847 -7.39574 3.91943 71 13 96 255 
25.8557 -15.2183 7.78696 72 20 103 255 
9.62227 -5.66144 2.77941 55 90 140 255 
9.63969 -5.67384 2.67096 64 70 136 255 
9.66703 -5.69244 2.56939 72 31 112 255 
9.82633 -5.78132 2.51499 67 62 133 255 
10.2882 -6.05569 2.50923 69 56 130 255 
10.5754 -6.23202 2.45948 61 77 138 255 
13.1982 -7.78416 2.92296 71 44 122 255 
13.5841 -7.99221 2.87559 72 27 109 255 
15.0208 -8.8448 3.00779 69 53 129 255 
9.83064 -5.79778 1.85667 72 32 113 255 
9.86511 -5.82994 1.75757 35 137 142 255 
9.86847 -5.80843 1.66235 37 131 142 255 
9.8549 -5.80526 1.54846 37 131 142 255 
9.86612 -5.82567 1.44135 35 136 142 255 
9.87623 -5.84116 1.33777 37 131 142 255 
9.87608 -5.81291 1.24291 41 123 142 255 
9.88829 -5.8319 1.13573 46 111 142 255 
9.87246 -5.83174 1.02535 37 131 142 255 
9.87658 -5.84833 0.919484 36 135 142 255 
9.8771 -5.81583 0.82765 39 127 142 255 
9.87393 -5.82575 0.719274 42 120 142 255 
9.87413 -5.8397 0.611247 37 133 142 255 
9.88635 -5.85878 0.50376 37 133 142 255 
9.90127 -5.83471 0.413379 36 134 142 255 
9.92139 -5.85843 0.305737 38 130 142 255 
9.89599 -5.85496 0.196689 35 138 141 255 
9.85049 -5.84217 0.0899507 42 119 142 255 
9.85583 -5.81025 -0.00199683 53 94 141 255 
9.90602 -5.85402 -0.110458 53 94 141 255 
9.93149 -5.88065 -0.217586 48 105 142 255 
9.90843 -5.8812 -0.325875 71 13 96 255 
9.88417 -5.83392 -0.416847 70 10 93 255 
9.94575 -5.88218 -0.52673 70 8 92 255 
9.92238 -5.87759 -0.634675 69 5 89 255 
9.98692 -5.93014 -0.749064 69 5 89 255 
9.8749 -5.83077 -0.832085 57 86 140 255 
9.99374 -5.91527 -0.950694 42 118 142 255 
10.0576 -5.96479 -1.06829 68 57 131 255 
9.47806 -5.62798 -1.11191 71 46 124 255 
8.89649 -5.25933 -1.12637 70 51 127 255 
8.08683 -4.78848 -1.11401 70 48 126 255 
7.55379 -4.48167 -1.12516 68 58 131 255 
7.07275 -4.20307 -1.13286 62 73 137 255 
6.46224 -3.82483 -1.09683 59 81 139 255 
6.35426 -3.76556 -1.14873 58 84 140 255 
5.97317 -3.54529 -1.14618 55 91 141 255 
5.70919 -3.39275 -1.16146 54 92 141 255 
5.43265 -3.22056 -1.15911 52 97 141 255 
5.17646 -3.07126 -1.16126 50 101 142 255 
4.92257 -2.92172 -1.16151 54 92 141 255 
4.73577 -2.81317 -1.17384 53 95 141 255 
4.55526 -2.70365 -1.17533 54 92 141 255 
4.37598 -2.59839 -1.1787 54 92 141 255 
4.23943 -2.51826 -1.19202 62 74 137 255 
4.05811 -2.40871 -1.19062 64 69 136 255 
3.92077 -2.33169 -1.19249 61 77 138 255 
3.77006 -2.24216 -1.19012 62 76 138 255 
3.63905 -2.16248 -1.19306 63 72 137 255 
3.4857 -2.06731 -1.18738 67 62 133 255 
10.0265 -5.9917 3.50873 55 91 141 255 
9.38644 -5.59828 3.16073 72 28 110 255 
12.1097 -7.21663 3.92799 72 36 117 255 
12.2437 -7.2968 3.82711 72 37 118 255 
12.5568 -7.49485 3.7955 72 22 104 255 
9.58651 -5.71987 2.77917 52 97 141 255 
9.62056 -5.74235 2.67537 62 73 137 255 
9.67962 -5.78014 2.58211 64 69 136 255 
9.8066 -5.85101 2.51909 61 78 138 255 
10.3828 -6.19745 2.54153 70 52 128 255 
10.5134 -6.28271 2.45398 61 77 138 255 
10.4593 -6.25559 2.32484 61 78 138 255 
10.447 -6.2331 2.21956 56 88 140 255 
13.6759 -8.16634 2.74849 72 41 121 255 
10.9571 -6.55307 2.07698 61 77 138 255 
9.84781 -5.90154 1.7609 33 143 141 255 
9.86069 -5.88561 1.66709 30 155 138 255 
9.86418 -5.89255 1.55558 31 158 137 255 
9.85828 -5.90292 1.44547 32 147 140 255 
9.87257 -5.92106 1.34217 32 146 140 255 
9.90254 -5.9106 1.25078 31 153 138 255 
9.88563 -5.91239 1.13957 48 105 142 255 
9.86726 -5.91064 1.02856 31 149 139 255 
9.867 -5.92473 0.921959 34 141 141 255 
9.87292 -5.89525 0.830315 42 120 142 255 
9.8714 -5.90621 0.721716 30 157 137 255 
9.86723 -5.91764 0.613056 32 146 140 255 
9.86478 -5.92808 0.504504 37 131 142 255 
9.89188 -5.91125 0.414494 31 148 140 255 
9.90584 -5.93152 0.306374 33 143 141 255 
9.88217 -5.92895 0.197134 35 136 142 255 
9.87445 -5.93857 0.0905005 41 122 142 255 
9.89295 -5.91423 -0.00201167 53 95 141 255 
9.93253 -5.95221 -0.111158 42 120 142 255 
9.93637 -5.96618 -0.218491 42 118 142 255 
9.91584 -5.96817 -0.327317 71 17 100 255 
9.91336 -5.93346 -0.419605 70 7 90 255 
9.9189 -5.94875 -0.527231 70 8 92 255 
10.214 -6.13528 -0.65572 71 17 100 255 
10.2333 -6.16169 -0.770367 72 23 105 255 
9.90055 -5.92814 -0.837296 59 82 139 255 
10.0137 -6.01033 -0.956079 41 121 142 255 
10.0105 -6.02023 -1.0672 69 56 130 255 
9.4425 -5.68552 -1.11181 70 52 128 255 
8.87429 -5.31995 -1.12767 67 61 132 255 
8.05985 -4.83954 -1.11437 71 42 122 255 
7.54315 -4.53816 -1.1277 68 58 131 255 
7.04513 -4.24537 -1.13259 67 61 132 255 
6.67536 -4.00648 -1.13715 62 74 137 255 
6.32849 -3.80295 -1.14826 57 85 140 255 
5.94708 -3.57933 -1.14536 56 88 140 255 
5.69923 -3.43433 -1.1637 53 95 141 255 
5.41531 -3.25536 -1.15965 53 95 141 255 
5.16257 -3.106 -1.16239 49 103 142 255 
4.91211 -2.95642 -1.1633 49 103 142 255 
4.72094 -2.84369 -1.17447 53 94 141 255 
4.55949 -2.74413 -1.18074 54 92 141 255 
4.35996 -2.62519 -1.1787 55 90 140 255 
4.19393 -2.52617 -1.18356 60 80 139 255 
4.06734 -2.44806 -1.19771 62 74 137 255 
3.91384 -2.3602 -1.19476 63 72 137 255 
3.75623 -2.26525 -1.19012 62 74 137 255 
3.63808 -2.19222 -1.19713 63 71 136 255 
3.49926 -2.10449 -1.19638 66 65 134 255 
11.3361 -6.86905 3.9817 66 64 134 255 
9.29519 -5.62146 3.14156 52 96 141 255 
12.0611 -7.2883 3.92665 72 33 115 255 
12.0615 -7.28887 3.78407 66 63 133 255 
12.2414 -7.40888 3.71386 71 16 99 255 
11.3421 -6.86207 3.30027 72 33 115 255 
11.4566 -6.93393 3.19772 71 46 124 255 
9.59394 -5.80913 2.56872 57 86 140 255 
10.281 -6.21992 2.65071 51 99 141 255 
10.2684 -6.21493 2.52281 69 53 129 255 
10.4729 -6.34609 2.45358 71 46 124 255 
10.5181 -6.37874 2.34658 68 59 132 255 
10.4187 -6.3032 2.22172 66 64 134 255 
10.8152 -6.54843 2.18158 70 48 126 255 
11.0441 -6.69746 2.10122 64 70 136 255 
9.8207 -5.9675 1.76257 41 121 142 255 
9.86587 -5.97111 1.67413 31 156 137 255 
9.8575 -5.97093 1.56027 33 142 141 255 
9.86004 -5.98647 1.45108 36 135 142 255 
9.86237 -5.99752 1.34576 39 126 142 255 
9.8729 -5.97536 1.25164 33 143 141 255 
9.85767 -5.97809 1.14056 55 91 141 255 
9.85634 -5.98658 1.03123 37 131 142 255 
9.86707 -6.00745 0.925393 42 118 142 255 
9.84253 -5.95933 0.830819 52 97 141 255 
9.87337 -5.98997 0.724534 36 135 142 255 
9.85633 -5.99364 0.614652 44 115 142 255 
9.84954 -6.00149 0.505599 54 92 141 255 
9.91098 -6.0055 0.41683 41 122 142 255 
9.91626 -6.02072 0.307833 44 113 142 255 
9.88405 -6.01286 0.197903 47 108 142 255 
9.8788 -6.02404 0.0908775 40 125 142 255 
9.87871 -5.9883 -0.0020162 54 92 141 255 
9.88642 -6.00733 -0.111053 72 24 106 255 
9.88591 -6.01872 -0.21819 71 16 99 255 
9.88244 -6.03099 -0.32743 71 13 96 255 
9.87933 -5.99574 -0.419714 71 16 99 255 
9.87282 -6.00379 -0.52673 71 16 99 255 
9.86144 -6.00618 -0.635444 71 16 99 255 
9.90829 -6.04913 -0.748678 71 13 96 255 
9.91941 -6.02243 -0.842 57 86 140 255 
10.0158 -6.0955 -0.959832 40 124 142 255 
9.98531 -6.08879 -1.06847 69 53 129 255 
9.40404 -5.74128 -1.11141 69 53 129 255 
8.86101 -5.38618 -1.13016 63 72 137 255 
8.03594 -4.89252 -1.11519 71 44 122 255 
7.505 -4.57816 -1.12617 69 55 129 255 
7.04939 -4.30711 -1.1375 65 68 135 255 
6.68023 -4.06537 -1.14221 58 83 139 255 
6.32782 -3.8556 -1.15241 58 83 139 255 
5.96038 -3.63734 -1.1522 54 92 141 255 
5.66208 -3.45948 -1.16043 54 92 141 255 
5.41539 -3.30081 -1.16399 49 104 142 255 
5.16102 -3.14836 -1.16637 50 101 142 255 
4.90391 -2.99263 -1.16569 50 100 142 255 
4.71926 -2.88229 -1.17843 55 90 140 255 
4.55007 -2.77664 -1.18269 53 95 141 255 
4.35208 -2.65697 -1.18095 51 98 141 255 
4.17586 -2.55034 -1.18285 60 80 139 255 
4.03652 -2.46338 -1.19306 62 76 138 255 
3.88361 -2.37458 -1.18996 63 72 137 255 
3.73979 -2.28675 -1.18933 62 73 137 255 
3.61388 -2.20798 -1.1936 66 65 134 255 
3.50841 -2.13941 -1.20397 64 70 136 255 
9.34265 -5.73979 3.29382 61 78 138 255 
9.24578 -5.66935 3.13656 50 102 142 255 
9.5651 -5.86045 3.1257 71 16 99 255 
11.9745 -7.33701 3.77084 69 55 129 255 
12.2411 -7.51169 3.72767 71 19 101 255 
10.2493 -6.28715 2.99346 72 37 118 255 
10.3635 -6.35954 2.90345 59 81 139 255 
9.52406 -5.84698 2.55956 66 63 133 255 
13.3816 -8.20835 3.46305 72 22 104 255 
13.8809 -8.51818 3.42312 72 26 108 255 
11.697 -7.18629 2.75063 68 59 132 255 
10.5357 -6.47814 2.35932 70 50 126 255 
10.5123 -6.44828 2.25007 69 56 130 255 
10.8873 -6.68375 2.20437 53 95 141 255 
11.8579 -7.29086 2.26452 62 76 138 255 
9.879 -6.08623 1.7797 46 110 142 255 
9.86869 -6.05586 1.68088 41 122 142 255 
9.86881 -6.06087 1.56792 42 118 142 255 
9.88142 -6.08275 1.4597 41 121 142 255 
9.88964 -6.09754 1.35456 39 128 142 255 
9.89451 -6.07171 1.25908 42 118 142 255 
9.85048 -6.05671 1.144 47 107 142 255 
9.89236 -6.09186 1.03889 39 126 142 255 
9.90891 -6.11658 0.932819 37 131 142 255 
9.92478 -6.09266 0.840902 48 106 142 255 
9.93419 -6.11057 0.731734 34 139 141 255 
9.92477 -6.11899 0.62125 37 133 142 255 
9.92643 -6.13217 0.511467 36 134 142 255 
9.93695 -6.10491 0.41949 39 128 142 255 
9.93787 -6.11761 0.309663 38 130 142 255 
9.92866 -6.12378 0.199545 35 137 142 255 
9.89269 -6.11609 0.0913487 42 120 142 255 
9.88268 -6.07393 -0.00202458 58 84 140 255 
9.85789 -6.07313 -0.111149 72 22 104 255 
9.86326 -6.08819 -0.21851 72 22 104 255 
9.87926 -6.11255 -0.328561 71 16 99 255 
9.83384 -6.051 -0.419351 71 17 100 255 
9.8545 -6.07579 -0.527732 71 16 99 255 
9.87623 -6.09858 -0.638796 71 17 100 255 
9.88032 -6.11559 -0.749386 71 19 101 255 
9.9069 -6.09834 -0.844099 62 73 137 255 
10.0206 -6.18301 -0.963911 41 121 142 255 
10.0088 -6.18765 -1.07502 67 61 132 255 
9.3864 -5.80987 -1.11351 70 48 126 255 
8.84472 -5.45088 -1.13233 68 57 131 255 
8.01929 -4.95008 -1.11707 70 52 128 255 
7.45989 -4.61369 -1.12363 70 52 128 255 
7.03209 -4.35602 -1.139 66 64 134 255 
6.65348 -4.10525 -1.14192 61 78 138 255 
6.31077 -3.8985 -1.15364 57 86 140 255 
5.95137 -3.68215 -1.15481 53 95 141 255 
5.65247 -3.50142 -1.16284 55 91 141 255 
5.40424 -3.33966 -1.16597 52 97 141 255 
5.14661 -3.18306 -1.16751 52 97 141 255 
4.89046 -3.02576 -1.16688 48 106 142 255 
4.69566 -2.90759 -1.17697 54 93 141 255 
4.54125 -2.80964 -1.18486 55 90 140 255 
4.35392 -2.6949 -1.18592 50 102 142 255 
4.17501 -2.58512 -1.18708 62 76 138 255 
4.01061 -2.48147 -1.18988 65 68 135 255 
3.86896 -2.39836 -1.18996 65 66 135 255 
3.73225 -2.31372 -1.19143 63 71 136 255 
3.59536 -2.22707 -1.19197 65 66 135 255 
3.50419 -2.16645 -1.20706 64 70 136 255 
9.28775 -5.78485 3.28691 51 98 141 255 
9.28425 -5.77162 3.16157 51 99 141 255 
11.8161 -7.33969 3.87592 72 40 120 255 
11.8423 -7.35633 3.74335 70 50 126 255 
25.721 -16.0016 7.86233 70 7 90 255 
11.4614 -7.12783 3.36018 72 41 121 255 
10.3143 -6.41685 2.90066 58 83 139 255 
26.6997 -16.6178 7.20272 70 7 90 255 
9.44101 -5.87118 2.45252 72 27 109 255 
11.486 -7.14589 2.84328 65 66 135 255 
11.7001 -7.28747 2.76183 71 45 123 255 
10.3032 -6.42263 2.31603 66 65 134 255 
10.7056 -6.65761 2.30015 63 72 137 255 
10.8921 -6.77907 2.21372 65 68 135 255 
12.0751 -7.52691 2.31478 71 45 123 255 
9.87416 -6.16715 1.78561 40 125 142 255 
9.89521 -6.15603 1.6918 31 159 136 255 
9.88612 -6.15535 1.57664 31 148 140 255 
9.886 -6.16953 1.46594 32 147 140 255 
9.89247 -6.18338 1.36012 32 147 140 255 
9.91954 -6.17117 1.26706 31 152 139 255 
9.87056 -6.15283 1.1507 47 108 142 255 
9.90211 -6.18198 1.04388 36 135 142 255 
9.89908 -6.19471 0.935454 33 145 140 255 
9.92024 -6.174 0.843711 43 117 142 255 
9.91514 -6.18303 0.733112 31 152 139 255 
9.90821 -6.193 0.62258 33 143 141 255 
9.91486 -6.2094 0.512825 35 137 142 255 
9.93663 -6.18901 0.421072 33 143 141 255 
9.92643 -6.19488 0.310486 34 141 141 255 
9.90871 -6.19572 0.199904 35 137 142 255 
9.86683 -6.18411 0.0914587 72 41 121 255 
9.87832 -6.15508 -0.00203139 60 79 138 255 
9.85267 -6.15363 -0.111513 71 17 100 255 
9.85453 -6.16663 -0.219151 70 10 93 255 
9.82717 -6.16402 -0.32808 71 13 96 255 
9.86605 -6.1546 -0.422327 71 19 101 255 
9.88057 -6.17585 -0.531148 71 16 99 255 
9.87586 -6.18238 -0.641214 71 13 96 255 
9.89671 -6.21004 -0.753505 72 40 120 255 
9.91922 -6.19017 -0.848368 71 19 101 255 
10.0391 -6.27979 -0.969378 42 119 142 255 
9.97313 -6.25054 -1.07529 68 57 131 255 
9.39777 -5.89697 -1.11913 71 47 125 255 
8.79509 -5.49504 -1.13027 62 74 137 255 
8.01486 -5.01552 -1.12072 70 48 126 255 
7.42976 -4.65832 -1.12338 70 51 127 255 
7.0111 -4.40277 -1.13996 68 59 132 255 
6.63571 -4.15072 -1.14322 60 80 139 255 
6.28003 -3.93296 -1.15241 58 83 139 255 
5.91111 -3.70759 -1.15139 58 84 140 255 
5.63838 -3.54075 -1.16439 54 93 141 255 
5.38448 -3.37328 -1.16615 51 98 141 255 
5.14196 -3.22397 -1.17092 52 96 141 255 
4.86848 -3.05363 -1.16608 52 97 141 255 
4.68602 -2.94155 -1.17905 53 94 141 255 
4.52641 -2.83901 -1.18551 57 86 140 255 
4.35546 -2.73296 -1.19088 54 93 141 255 
4.14672 -2.60294 -1.18356 62 74 137 255 
3.99777 -2.50758 -1.19062 65 68 135 255 
3.86974 -2.43184 -1.19476 62 76 138 255 
3.70409 -2.32785 -1.18698 66 64 134 255 
3.60282 -2.2624 -1.19902 62 73 137 255 
3.46644 -2.17262 -1.19862 65 66 135 255 
9.25289 -5.84225 3.2872 49 103 142 255 
9.28523 -5.85153 3.17407 66 64 134 255 
10.1878 -6.41523 3.35466 69 53 129 255 
11.7406 -7.39334 3.72546 72 29 111 255 
10.107 -6.37413 3.10137 72 33 115 255 
11.4174 -7.19802 3.36018 72 36 117 255 
10.2879 -6.48831 2.90438 53 94 141 255 
25.5576 -16.1254 6.9212 70 7 90 255 
13.6136 -8.58234 3.55007 64 70 136 255 
13.3581 -8.42477 3.31945 71 42 122 255 
10.128 -6.39487 2.39995 67 62 133 255 
10.2096 -6.45162 2.30385 54 93 141 255 
10.6962 -6.7431 2.30697 64 69 136 255 
11.5971 -7.31692 2.36607 64 69 136 255 
11.6958 -7.39048 2.25071 61 77 138 255 
9.85952 -6.24243 1.78986 39 128 142 255 
9.87065 -6.22508 1.6941 32 147 140 255 
9.87498 -6.23282 1.58093 34 141 141 255 
9.86053 -6.23803 1.46781 37 131 142 255 
9.88035 -6.26044 1.36371 39 126 142 255 
9.90419 -6.24624 1.26997 36 135 142 255 
9.86963 -6.23667 1.15503 50 100 142 255 
9.89597 -6.26287 1.04726 36 134 142 255 
9.89202 -6.27509 0.938409 42 118 142 255 
9.90326 -6.24806 0.845511 45 113 142 255 
9.90148 -6.25922 0.734928 35 137 142 255 
9.92063 -6.28575 0.625772 41 123 142 255 
9.91537 -6.29475 0.514839 46 111 142 255 
9.92636 -6.26747 0.422258 43 116 142 255 
9.92034 -6.27598 0.311494 44 114 142 255 
9.87219 -6.25747 0.199939 70 48 126 255 
9.86246 -6.26599 0.0917728 71 14 97 255 
9.91139 -6.26044 -0.00204605 57 85 140 255 
9.87133 -6.24981 -0.112157 70 8 92 255 
9.91444 -6.2891 -0.221337 70 10 93 255 
9.91569 -6.30466 -0.332321 71 14 97 255 
9.93199 -6.28072 -0.426791 71 13 96 255 
9.95725 -6.30907 -0.537341 70 11 94 255 
9.91362 -6.29101 -0.646159 70 11 94 255 
9.95693 -6.33332 -0.761035 65 68 135 255 
9.98135 -6.31437 -0.85698 71 19 101 255 
10.0593 -6.37863 -0.975089 43 116 142 255 
9.92955 -6.30841 -1.07475 69 55 129 255 
9.3379 -5.93957 -1.11632 71 46 124 255 
8.75113 -5.54252 -1.12897 62 76 138 255 
8.01161 -5.08216 -1.12461 71 45 123 255 
7.44206 -4.72989 -1.1296 71 46 124 255 
6.98646 -4.44731 -1.14036 65 66 135 255 
6.63268 -4.20566 -1.14713 58 84 140 255 
6.23159 -3.95606 -1.14796 57 86 140 255 
5.88076 -3.73903 -1.14992 57 85 140 255 
5.62403 -3.58004 -1.16594 55 90 140 255 
5.37365 -3.41258 -1.16832 51 99 141 255 
5.12125 -3.25493 -1.17073 55 90 140 255 
4.87446 -3.09922 -1.17205 49 103 142 255 
4.68603 -2.9818 -1.18364 54 93 141 255 
4.49407 -2.8573 -1.18161 54 92 141 255 
4.34354 -2.76277 -1.19224 55 91 141 255 
4.13805 -2.63303 -1.18567 63 72 137 255 
3.99868 -2.54246 -1.19551 64 70 136 255 
3.8425 -2.44774 -1.19097 66 65 134 255 
3.69625 -2.35468 -1.18907 65 66 135 255 
3.5978 -2.29015 -1.20201 63 72 137 255 
3.46357 -2.20054 -1.20228 65 68 135 255 
9.21687 -5.89891 3.2872 56 88 140 255 
9.22729 -5.89443 3.16657 51 98 141 255 
9.22419 -5.8878 3.0492 60 80 139 255 
10.2044 -6.51377 3.25064 68 59 132 255 
10.0873 -6.44853 3.1074 72 28 110 255 
10.1065 -6.45854 2.98597 72 40 120 255 
10.2487 -6.55184 2.90461 54 92 141 255 
25.4713 -16.2903 6.92477 71 14 97 255 
13.5558 -8.66255 3.54878 68 59 132 255 
11.813 -7.55197 2.94695 66 64 134 255 
10.1348 -6.4865 2.41095 55 90 140 255 
10.0937 -6.4654 2.28661 54 92 141 255 
11.171 -7.13863 2.41879 70 51 127 255 
10.789 -6.90001 2.20981 64 70 136 255 
11.6128 -7.43815 2.24349 60 79 138 255 
9.86096 -6.32843 1.79714 41 122 142 255 
9.8998 -6.3287 1.70574 42 119 142 255 
9.905 -6.33709 1.59193 43 116 142 255 
9.91812 -6.36001 1.48216 41 123 142 255 
9.91864 -6.37033 1.37436 42 120 142 255 
9.9285 -6.34705 1.27806 41 122 142 255 
9.85045 -6.30946 1.1573 53 94 141 255 
9.88586 -6.34175 1.05029 42 118 142 255 
9.92712 -6.38311 0.945436 40 125 142 255 
9.94708 -6.36137 0.852569 39 128 142 255 
9.93683 -6.36724 0.740438 44 114 142 255 
9.93985 -6.38373 0.629444 47 107 142 255 
9.92781 -6.38845 0.517511 44 113 142 255 
9.95673 -6.37243 0.425206 45 112 142 255 
9.89931 -6.34807 0.312051 72 23 105 255 
9.91941 -6.37305 0.201683 72 24 106 255 
9.84737 -6.34154 0.0919927 71 16 99 255 
9.91069 -6.3454 -0.0020539 57 86 140 255 
9.88834 -6.3459 -0.11279 72 22 104 255 
9.91351 -6.37415 -0.222185 72 23 105 255 
9.87934 -6.367 -0.332405 72 23 105 255 
9.94375 -6.3739 -0.428969 72 24 106 255 
9.92676 -6.37545 -0.537796 72 24 106 255 
9.95209 -6.40141 -0.651215 64 70 136 255 
9.94724 -6.41322 -0.763288 72 23 105 255 
9.96173 -6.38787 -0.858645 72 33 115 255 
10.0543 -6.46233 -0.978435 43 117 142 255 
9.93168 -6.39564 -1.07921 68 57 131 255 
9.3247 -6.01185 -1.11913 70 52 128 255 
8.7454 -5.61437 -1.13265 58 84 140 255 
7.99531 -5.14089 -1.12673 70 52 128 255 
7.42457 -4.78298 -1.13138 69 56 130 255 
6.96154 -4.4917 -1.14077 70 50 126 255 
6.61841 -4.25377 -1.14915 58 84 140 255 
6.24542 -4.01882 -1.15503 56 89 140 255 
5.89751 -3.8007 -1.15774 56 88 140 255 
5.60941 -3.61928 -1.16749 54 93 141 255 
5.36005 -3.45028 -1.16994 53 95 141 255 
5.09953 -3.28523 -1.17035 54 92 141 255 
4.86936 -3.13809 -1.17543 48 106 142 255 
4.65861 -3.00466 -1.18135 53 95 141 255 
4.49123 -2.89434 -1.18551 51 98 141 255 
4.30276 -2.77406 -1.18569 59 81 139 255 
4.15857 -2.68208 -1.19624 61 77 138 255 
3.97811 -2.5638 -1.19404 65 66 135 255 
3.83554 -2.47652 -1.1935 63 71 136 255 
3.68173 -2.37731 -1.18907 63 72 137 255 
3.57802 -2.30853 -1.20011 64 69 136 255 
3.42257 -2.20408 -1.19272 65 66 135 255 
9.17487 -5.9517 3.28519 68 59 132 255 
9.16515 -5.93423 3.15768 58 84 140 255 
9.21054 -5.95894 3.05672 50 102 142 255 
10.7432 -6.95085 3.43579 72 41 121 255 
10.2181 -6.62084 3.16016 63 72 137 255 
10.2067 -6.61117 3.02752 60 80 139 255 
10.201 -6.60984 2.90252 56 88 140 255 
11.3154 -7.33503 3.08844 71 17 100 255 
25.3319 -16.4076 6.6579 71 13 96 255 
12.0202 -7.78875 3.01051 58 83 139 255 
9.98625 -6.47812 2.38502 51 99 141 255 
10.0464 -6.5224 2.28493 55 91 141 255 
11.6621 -7.55359 2.5351 70 48 126 255 
10.7795 -6.98752 2.21661 64 69 136 255 
11.4693 -7.44585 2.22454 69 53 129 255 
9.87994 -6.42655 1.80775 41 121 142 255 
9.9239 -6.43023 1.71666 31 148 140 255 
9.92912 -6.43872 1.60213 31 148 140 255 
9.91801 -6.44616 1.48803 33 145 140 255 
9.94097 -6.47117 1.38293 32 147 140 255 
9.93192 -6.43542 1.28356 32 146 140 255 
9.84911 -6.39417 1.16173 58 83 139 255 
9.9144 -6.44627 1.05751 37 133 142 255 
9.93035 -6.47166 0.949508 34 140 141 255 
9.94552 -6.4467 0.85581 31 151 139 255 
9.93106 -6.44983 0.742943 31 154 138 255 
9.92978 -6.46367 0.631306 33 142 141 255 
9.94114 -6.48363 0.52027 37 133 142 255 
9.92583 -6.43885 0.425565 58 84 140 255 
9.89622 -6.43211 0.313191 72 29 111 255 
9.8399 -6.40761 0.200862 72 20 103 255 
9.8761 -6.44612 0.0926289 71 13 96 255 
9.93448 -6.44692 -0.00206699 58 84 140 255 
9.89783 -6.43808 -0.113347 72 20 103 255 
9.89181 -6.44632 -0.222581 71 13 96 255 
9.87272 -6.44882 -0.333508 70 11 94 255 
9.90613 -6.43588 -0.429042 72 20 103 255 
9.94103 -6.47112 -0.54071 72 23 105 255 
9.95695 -6.49126 -0.654127 68 57 131 255 
9.95866 -6.50743 -0.767213 70 8 92 255 
9.93991 -6.46029 -0.860164 72 27 109 255 
10.0838 -6.56905 -0.985207 42 120 142 255 
9.89725 -6.45972 -1.07975 70 51 127 255 
9.29263 -6.07222 -1.11974 70 52 128 255 
8.73912 -5.68636 -1.13634 66 65 134 255 
7.98191 -5.20178 -1.12932 70 48 126 255 
7.41252 -4.83984 -1.13405 70 48 126 255 
6.94297 -4.5403 -1.14227 67 62 133 255 
6.59798 -4.29808 -1.15016 58 84 140 255 
6.22147 -4.0576 -1.15518 57 85 140 255 
5.85839 -3.82656 -1.15464 56 88 140 255 
5.58792 -3.65417 -1.16767 57 86 140 255 
5.34866 -3.48956 -1.17211 52 97 141 255 
5.08421 -3.31968 -1.17149 52 96 141 255 
4.86068 -3.17488 -1.17802 49 104 142 255 
4.63681 -3.03105 -1.18051 55 91 141 255 
4.50117 -2.93999 -1.19287 49 103 142 255 
4.29463 -2.80627 -1.18817 62 74 137 255 
4.13553 -2.70329 -1.19437 61 78 138 255 
3.96555 -2.59028 -1.19502 64 70 136 255 
3.81946 -2.49948 -1.19325 64 69 136 255 
3.68484 -2.41149 -1.19483 62 74 137 255 
3.55492 -2.32465 -1.19713 63 71 136 255 
3.42667 -2.23658 -1.19891 66 64 134 255 
9.11417 -5.9921 3.27656 44 115 142 255 
9.14784 -6.003 3.16434 56 89 140 255 
9.18508 -6.02274 3.06047 50 100 142 255 
9.23452 -6.05542 2.96512 62 74 137 255 
10.7841 -7.0819 3.34858 71 45 123 255 
10.1976 -6.69444 3.03694 61 78 138 255 
11.0058 -7.22758 3.14407 70 52 128 255 
11.192 -7.35294 3.06701 67 62 133 255 
11.2427 -7.38027 2.96672 71 16 99 255 
11.7587 -7.72215 2.95682 71 44 122 255 
9.94713 -6.53981 2.38522 62 74 137 255 
10.1416 -6.67301 2.31585 67 62 133 255 
10.1368 -6.65434 2.21238 62 76 138 255 
10.8007 -7.09574 2.22987 59 81 139 255 
11.6377 -7.65714 2.26629 60 80 139 255 
9.88159 -6.51425 1.81533 41 121 142 255 
9.90825 -6.50675 1.72082 33 145 140 255 
9.91675 -6.51749 1.60656 34 139 141 255 
9.89981 -6.52108 1.49127 38 130 142 255 
9.92926 -6.55064 1.38687 41 121 142 255 
9.92549 -6.51807 1.28787 36 134 142 255 
9.85126 -6.48183 1.16665 65 66 135 255 
9.89795 -6.52233 1.06 39 127 142 255 
9.92872 -6.55774 0.953181 42 118 142 255 
9.92829 -6.52239 0.857755 36 134 142 255 
9.92964 -6.53589 0.745823 35 137 142 255 
9.92995 -6.55087 0.63386 43 117 142 255 
9.95118 -6.57756 0.522897 47 108 142 255 
9.9162 -6.51939 0.426859 64 69 136 255 
9.87576 -6.50536 0.313801 71 17 100 255 
9.90305 -6.53561 0.202966 71 13 96 255 
9.9256 -6.56563 0.0934693 71 14 97 255 
9.92231 -6.52589 -0.00207275 59 81 139 255 
9.95415 -6.56198 -0.114451 70 10 93 255 
10.0239 -6.62041 -0.226464 71 13 96 255 
9.88298 -6.54238 -0.335204 72 20 103 255 
9.94324 -6.5471 -0.432381 71 42 122 255 
9.97619 -6.5815 -0.544809 72 29 111 255 
9.99691 -6.60507 -0.659402 71 14 97 255 
9.99842 -6.62131 -0.773392 71 17 100 255 
9.99753 -6.58535 -0.868631 69 53 129 255 
10.0774 -6.65331 -0.988552 42 119 142 255 
9.75527 -6.45275 -1.06856 71 46 124 255 
9.26266 -6.13407 -1.12064 68 57 131 255 
8.70821 -5.74261 -1.13688 68 57 131 255 
7.96476 -5.26051 -1.13144 70 50 126 255 
7.40006 -4.89672 -1.13672 70 52 128 255 
6.93562 -4.59649 -1.14568 68 59 132 255 
6.58387 -4.34666 -1.15233 58 84 140 255 
6.2047 -4.10115 -1.15672 58 84 140 255 
5.80847 -3.84501 -1.14943 58 83 139 255 
5.56704 -3.68948 -1.16801 57 85 140 255 
5.32469 -3.52068 -1.17157 52 96 141 255 
5.07848 -3.36057 -1.1749 52 97 141 255 
4.84683 -3.20843 -1.17941 50 101 142 255 
4.61731 -3.0589 -1.1803 51 99 141 255 
4.47653 -2.96325 -1.19114 50 100 142 255 
4.2887 -2.8401 -1.19133 58 83 139 255 
4.07916 -2.70231 -1.18285 62 73 137 255 
3.9318 -2.60279 -1.18964 63 71 136 255 
3.7968 -2.51805 -1.19097 64 69 136 255 
3.69813 -2.45272 -1.204 62 73 137 255 
3.53979 -2.34588 -1.19685 65 66 135 255 
3.39527 -2.24591 -1.19272 67 61 132 255 
9.03579 -6.0203 3.2616 50 102 142 255 
9.07964 -6.03827 3.15351 66 63 133 255 
9.38704 -6.23786 3.14046 68 58 131 255 
9.38139 -6.23438 3.0245 70 52 128 255 
9.85484 -6.55857 3.07248 66 65 134 255 
10.0303 -6.67303 2.99926 67 61 132 255 
10.3175 -6.86656 2.95942 66 63 133 255 
11.059 -7.36314 3.0429 63 71 136 255 
11.1826 -7.43938 2.96285 60 80 139 255 
11.2182 -7.46612 2.83238 65 66 135 255 
9.95823 -6.63498 2.39759 72 38 119 255 
10.0547 -6.70459 2.30535 72 22 104 255 
21.2204 -14.1172 4.6502 72 29 111 255 
10.7922 -7.18536 2.23718 59 81 139 255 
21.2398 -14.1623 4.15299 72 27 109 255 
9.88992 -6.60716 1.82427 50 101 142 255 
9.92828 -6.60745 1.73131 42 118 142 255 
9.92689 -6.61172 1.61474 41 123 142 255 
9.95534 -6.6456 1.50575 41 123 142 255 
9.96402 -6.66168 1.39741 38 129 142 255 
9.96228 -6.63007 1.2979 41 121 142 255 
9.88334 -6.59018 1.17521 66 63 133 255 
9.92732 -6.6294 1.06748 37 133 142 255 
9.93551 -6.65014 0.957733 39 127 142 255 
9.95782 -6.62961 0.863804 39 126 142 255 
9.97072 -6.65097 0.75196 32 146 140 255 
9.95681 -6.65663 0.63817 34 139 141 255 
9.97205 -6.67963 0.526138 37 133 142 255 
9.93339 -6.61835 0.429339 57 85 140 255 
9.84813 -6.57416 0.314199 72 22 104 255 
9.88852 -6.61348 0.203496 72 20 103 255 
9.94494 -6.66649 0.0940348 72 20 103 255 
9.93949 -6.62492 -0.0020848 56 88 140 255 
9.97274 -6.66238 -0.115132 72 20 103 255 
9.99226 -6.68791 -0.226671 70 52 128 255 
9.99705 -6.70648 -0.340462 62 76 138 255 
9.98019 -6.65958 -0.435756 70 50 126 255 
9.95804 -6.65758 -0.546038 72 26 108 255 
10.0002 -6.69573 -0.662315 71 17 100 255 
9.96175 -6.68531 -0.773714 72 23 105 255 
10.0316 -6.69641 -0.875144 62 73 137 255 
10.0836 -6.74661 -0.993203 43 117 142 255 
9.62367 -6.45094 -1.05846 66 63 133 255 
9.22568 -6.19134 -1.12074 71 45 123 255 
8.70505 -5.81748 -1.1411 64 69 136 255 
7.90675 -5.29216 -1.12779 71 47 125 255 
7.36658 -4.93983 -1.13621 71 47 125 255 
6.93114 -4.65498 -1.14964 69 53 129 255 
6.56119 -4.38973 -1.15305 56 89 140 255 
6.1827 -4.14134 -1.15733 61 77 138 255 
5.79624 -3.88827 -1.15171 61 78 138 255 
5.56474 -3.7373 -1.17232 57 85 140 255 
5.30544 -3.55493 -1.17211 49 104 142 255 
5.06021 -3.39331 -1.17546 51 99 141 255 
4.82705 -3.23811 -1.17941 51 99 141 255 
4.60089 -3.08881 -1.18093 54 93 141 255 
4.45827 -2.99066 -1.19114 49 104 142 255 
4.27928 -2.87179 -1.19359 56 89 140 255 
4.08187 -2.74029 -1.18849 61 78 138 255 
3.90448 -2.6193 -1.18621 66 63 133 255 
3.80215 -2.55533 -1.19755 61 78 138 255 
3.6782 -2.47214 -1.20243 62 73 137 255 
3.52773 -2.36917 -1.19767 62 74 137 255 
3.42287 -2.29449 -1.20734 63 71 136 255 
8.96931 -6.0558 3.25095 57 86 140 255 
7.99168 -5.38576 2.78707 69 55 129 255 
9.37815 -6.31525 3.15039 72 33 115 255 
9.43108 -6.35116 3.05303 65 68 135 255 
26.6169 -17.9506 8.33262 70 8 92 255 
24.7569 -16.6905 7.43327 71 13 96 255 
10.3413 -6.97433 2.97847 69 56 130 255 
10.3809 -7.00397 2.86809 69 53 129 255 
10.5707 -7.1263 2.81227 69 55 129 255 
11.1462 -7.51731 2.82579 64 69 136 255 
11.1631 -7.53706 2.69877 63 71 136 255 
11.1919 -7.56251 2.57668 63 72 137 255 
11.2176 -7.56241 2.46833 64 69 136 255 
10.8239 -7.3027 2.253 61 78 138 255 
10.9214 -7.3794 2.14426 63 72 137 255 
10.9108 -7.38641 2.02091 70 48 126 255 
9.93842 -6.70255 1.74022 41 121 142 255 
9.93377 -6.70466 1.62252 38 130 142 255 
9.94725 -6.7288 1.51075 34 140 141 255 
9.9575 -6.74609 1.40227 37 131 142 255 
9.98322 -6.73277 1.30599 32 147 140 255 
9.87075 -6.66965 1.17856 63 72 137 255 
9.9277 -6.7181 1.07194 40 125 142 255 
9.91679 -6.72609 0.959889 46 110 142 255 
9.95002 -6.7129 0.866685 38 130 142 255 
9.95205 -6.72711 0.75365 37 132 142 255 
9.95463 -6.74393 0.64067 46 109 142 255 
9.94907 -6.75304 0.527102 53 95 141 255 
9.93069 -6.7049 0.430993 59 81 139 255 
9.9434 -6.72632 0.318549 65 66 135 255 
9.95039 -6.74359 0.205617 63 72 137 255 
9.92452 -6.74144 0.0942311 68 59 132 255 
9.96247 -6.72888 -0.00209823 59 82 139 255 
9.96397 -6.7453 -0.115507 61 77 138 255 
9.91463 -6.7244 -0.225842 71 44 122 255 
9.96563 -6.77444 -0.340802 70 11 94 255 
9.94576 -6.72517 -0.436047 71 17 100 255 
9.95008 -6.74097 -0.54786 71 16 99 255 
9.9622 -6.7592 -0.662534 71 13 96 255 
9.99481 -6.79682 -0.779506 70 10 93 255 
10.0415 -6.79248 -0.879631 60 80 139 255 
10.0915 -6.84192 -0.998098 43 117 142 255 
9.61274 -6.52945 -1.06165 66 63 133 255 
9.19903 -6.25566 -1.12214 70 51 127 255 
8.68483 -5.88137 -1.14316 67 61 132 255 
7.92673 -5.37625 -1.13532 70 48 126 255 
7.37223 -5.00946 -1.1418 68 58 131 255 
6.89999 -4.69575 -1.14923 70 51 127 255 
6.53495 -4.43046 -1.1532 59 81 139 255 
6.1629 -4.18308 -1.15841 61 77 138 255 
5.80165 -3.94373 -1.15757 61 78 138 255 
5.54088 -3.77082 -1.17215 59 82 139 255 
5.29736 -3.59681 -1.17518 52 97 141 255 
5.0661 -3.4425 -1.18172 48 106 142 255 
4.81682 -3.27428 -1.18179 50 101 142 255 
4.59075 -3.12304 -1.18322 56 89 140 255 
4.45437 -3.02784 -1.19504 46 109 142 255 
4.26561 -2.90073 -1.19472 57 86 140 255 
4.07302 -2.77075 -1.19084 63 72 137 255 
3.92682 -2.66938 -1.19796 64 70 136 255 
3.8024 -2.58951 -1.2026 62 74 137 255 
3.66536 -2.49629 -1.20321 62 73 137 255 
3.50676 -2.38644 -1.1955 65 66 135 255 
3.40873 -2.31545 -1.20734 66 63 133 255 
8.79208 -6.01501 3.20003 65 68 135 255 
7.8847 -5.38431 2.76123 72 40 120 255 
9.50155 -6.48344 3.20515 62 76 138 255 
9.5451 -6.51343 3.10282 71 47 125 255 
11.1817 -7.64127 3.51514 71 14 97 255 
9.648 -6.5909 2.9089 70 50 126 255 
9.80845 -6.70289 2.83679 72 20 103 255 
10.617 -7.25843 2.94556 72 33 115 255 
10.3833 -7.09298 2.77393 64 70 136 255 
10.4874 -7.16702 2.66988 66 64 134 255 
10.6335 -7.27489 2.58148 65 66 135 255 
10.7206 -7.34025 2.47849 68 58 131 255 
10.565 -7.21713 2.33443 66 65 134 255 
10.8001 -7.38344 2.25742 58 84 140 255 
10.884 -7.45185 2.14586 59 81 139 255 
10.9696 -7.52479 2.04031 61 78 138 255 
9.94695 -6.79747 1.74898 33 142 141 255 
9.93253 -6.7929 1.62909 37 132 142 255 
9.93851 -6.81214 1.51574 37 132 142 255 
9.9544 -6.83349 1.40771 44 113 142 255 
9.96389 -6.80904 1.3089 38 129 142 255 
9.91996 -6.79193 1.18939 44 114 142 255 
9.92983 -6.80874 1.07666 44 113 142 255 
9.97227 -6.85343 0.969311 46 109 142 255 
9.95805 -6.8076 0.871006 42 118 142 255 
9.95505 -6.8185 0.757031 42 120 142 255 
9.96164 -6.83822 0.64381 51 99 141 255 
9.98564 -6.86774 0.531262 52 97 141 255 
9.95535 -6.81085 0.433869 68 58 131 255 
9.97368 -6.83638 0.320857 72 40 120 255 
9.97724 -6.85149 0.207037 71 13 96 255 
10.0115 -6.89065 0.0954563 71 14 97 255 
9.98866 -6.83619 -0.00211255 71 17 100 255 
9.98506 -6.8493 -0.116236 70 11 94 255 
9.98112 -6.85929 -0.228311 70 11 94 255 
9.9741 -6.87005 -0.342526 71 17 100 255 
9.948 -6.816 -0.43797 71 17 100 255 
9.95712 -6.83525 -0.550546 71 17 100 255 
10.0036 -6.87734 -0.668084 71 16 99 255 
10.0244 -6.90728 -0.785105 71 19 101 255 
10.0548 -6.89175 -0.88448 55 91 141 255 
10.0888 -6.9308 -1.00201 43 117 142 255 
9.72672 -6.69445 -1.07875 69 55 129 255 
9.21127 -6.34699 -1.12837 70 48 126 255 
8.65923 -5.94186 -1.14457 68 59 132 255 
7.88704 -5.42028 -1.13438 71 45 123 255 
7.35769 -5.06586 -1.14434 68 58 131 255 
6.9004 -4.75824 -1.15414 69 53 129 255 
6.51254 -4.47384 -1.15406 62 74 137 255 
6.15747 -4.23482 -1.16225 60 79 138 255 
5.79034 -3.98821 -1.16018 62 76 138 255 
5.51764 -3.80475 -1.17215 60 79 138 255 
5.28816 -3.63816 -1.17807 51 98 141 255 
5.04407 -3.47297 -1.18153 50 102 142 255 
4.80228 -3.30766 -1.18319 50 102 142 255 
4.58841 -3.1628 -1.1876 55 90 140 255 
4.43892 -3.05733 -1.1959 49 103 142 255 
4.25094 -2.92906 -1.19562 58 84 140 255 
4.07034 -2.80562 -1.19507 62 74 137 255 
3.91436 -2.69617 -1.19918 64 70 136 255 
3.7514 -2.58861 -1.19148 63 72 137 255 
3.64997 -2.51873 -1.20321 62 73 137 255 
3.50473 -2.41665 -1.19984 65 66 135 255 
3.38656 -2.33088 -1.20453 66 63 133 255 
7.91359 -5.48558 2.89248 49 103 142 255 
9.42356 -6.52031 3.31409 72 32 113 255 
11.1731 -7.72493 3.78493 71 45 123 255 
11.1708 -7.72367 3.64662 72 40 120 255 
11.1561 -7.72462 3.52192 69 55 129 255 
9.65446 -6.68256 2.92316 54 93 141 255 
9.71436 -6.7264 2.82146 60 79 138 255 
11.065 -7.6648 3.08286 71 44 122 255 
10.3604 -7.171 2.77953 68 58 131 255 
10.436 -7.22622 2.66803 66 63 133 255 
10.5613 -7.32101 2.5748 61 77 138 255 
10.4203 -7.22896 2.41928 68 57 131 255 
10.2835 -7.11778 2.28184 65 68 135 255 
10.7416 -7.44059 2.2547 62 76 138 255 
10.9541 -7.59894 2.16882 66 64 134 255 
10.9865 -7.63595 2.05214 67 61 132 255 
9.96445 -6.8995 1.75947 42 119 142 255 
9.98025 -6.9158 1.64385 39 128 142 255 
9.97965 -6.93073 1.52847 38 130 142 255 
9.98323 -6.94378 1.41779 38 130 142 255 
10.0192 -6.9374 1.32173 39 128 142 255 
10.004 -6.94002 1.20455 37 133 142 255 
10.0081 -6.95308 1.08975 35 138 141 255 
10.0004 -6.96348 0.976178 38 129 142 255 
10.0137 -6.93616 0.879577 38 130 142 255 
