ply
format ascii 1.0
comment VTK generated PLY File
obj_info vtkPolyData points and polygons: vtk4.0
element vertex 1257
property float x
property float y
property float z
property uchar red
property uchar green
property uchar blue
property uchar alpha
element face 0
property list uchar int vertex_indices
end_header
0.168967 4.2749 -1.11838 54 92 141 255 
0.164403 4.15733 -1.12885 56 88 140 255 
0.156936 4.00479 -1.12958 59 81 139 255 
0.147715 3.85404 -1.13002 59 82 139 255 
0.467968 11.2339 3.37754 72 36 117 255 
0.417704 10.2386 2.96348 72 33 115 255 
0.570884 14.1172 3.93685 72 40 120 255 
0.471985 11.6659 3.13498 71 45 123 255 
0.444424 10.8046 2.80668 70 51 127 255 
0.442894 10.8097 2.69341 70 51 127 255 
0 0 0 68 2 86 255 
0 0 0 68 1 84 255 
0 0 0 68 2 86 255 
0 0 0 68 1 84 255 
0 0 0 68 2 86 255 
0 0 0 68 1 84 255 
0 0 0 68 1 84 255 
0 0 0 68 2 86 255 
0 0 0 68 2 86 255 
0 0 0 68 2 86 255 
1.55041 37.6927 5.47652 71 14 97 255 
0.629107 15.1605 2.05424 40 124 142 255 
1.59121 37.4081 4.7101 70 10 93 255 
1.66136 38.4117 4.48254 70 8 92 255 
0 0 0 68 2 86 255 
0.637393 15.1685 1.50197 71 14 97 255 
0.892642 20.8995 1.87061 58 83 139 255 
0 0 0 69 4 87 255 
0.623653 15.0978 1.0911 71 13 96 255 
0.6374 15.1058 0.948575 57 85 140 255 
0.652749 15.0975 0.805188 60 80 139 255 
0.666536 15.1058 0.662818 62 73 137 255 
0.607976 14.5949 0.525423 68 57 131 255 
0.593951 13.9605 0.370779 68 59 132 255 
0.595812 13.7251 0.235001 68 57 131 255 
0.578459 13.0067 0.102258 66 65 134 255 
0.526781 12.593 -0.00219981 66 64 134 255 
0.530055 12.3571 -0.118732 62 73 137 255 
0.520943 11.9045 -0.224636 67 62 133 255 
0.503687 11.2372 -0.318129 64 69 136 255 
0.46404 10.9559 -0.398264 59 82 139 255 
0.462711 10.6999 -0.488206 53 95 141 255 
0.45689 10.3992 -0.572856 59 81 139 255 
0.454153 10.0928 -0.651562 55 91 141 255 
0.426172 10.0206 -0.727731 59 82 139 255 
0.435465 9.98907 -0.818517 53 94 141 255 
0.445279 10.0154 -0.915898 52 97 141 255 
0.443138 9.84801 -0.994384 66 65 134 255 
0.391856 9.10162 -0.992886 57 86 140 255 
0.374699 8.56081 -1.01573 59 81 139 255 
0.358915 8.04122 -1.03113 60 79 138 255 
0.344341 7.59348 -1.04665 62 76 138 255 
0.313269 7.18883 -1.05101 52 96 141 255 
0.300162 6.80351 -1.05913 56 89 140 255 
0.289162 6.45317 -1.06591 54 92 141 255 
0.278895 6.15024 -1.07671 53 95 141 255 
0.259598 5.86323 -1.07716 52 96 141 255 
0.250136 5.60299 -1.08207 55 90 140 255 
0.240366 5.3642 -1.08953 53 95 141 255 
0.231445 5.12361 -1.09297 60 80 139 255 
0.222654 4.97003 -1.10384 54 92 141 255 
0.215089 4.7805 -1.1083 50 101 142 255 
0.207323 4.59095 -1.11095 52 97 141 255 
0.197897 4.41508 -1.11503 57 85 140 255 
0.195459 4.27958 -1.1199 56 89 140 255 
0.189424 4.14564 -1.12596 54 92 141 255 
0.180808 3.98836 -1.12524 59 82 139 255 
0.171488 3.85593 -1.13086 59 82 139 255 
0.461707 9.65813 2.90457 60 80 139 255 
0.59138 12.5973 3.64719 72 32 113 255 
0.653864 14.0355 3.91511 69 56 130 255 
0.589104 12.6401 3.39767 72 35 116 255 
0.523237 11.0666 2.87552 71 42 122 255 
0.685147 14.5405 3.62399 72 31 112 255 
0.63142 13.3532 3.19214 72 33 115 255 
0 0 0 68 2 86 255 
0 0 0 68 1 84 255 
0 0 0 68 1 84 255 
0 0 0 68 1 84 255 
0 0 0 68 2 86 255 
0 0 0 68 1 84 255 
0 0 0 68 1 84 255 
0 0 0 68 2 86 255 
1.9459 39.6708 6.09198 69 5 89 255 
1.84144 38.9468 5.66027 70 11 94 255 
0.722071 15.1554 2.05411 41 123 142 255 
1.84382 37.8723 4.76988 70 10 93 255 
1.89751 38.4107 4.4837 70 10 93 255 
0 0 0 68 2 86 255 
0.726239 15.0768 1.49331 70 8 92 255 
1.02052 20.8866 1.86999 59 82 139 255 
1.94668 38.9924 3.12744 70 7 90 255 
0.715098 15.0688 1.0893 71 19 101 255 
0.729545 15.0907 0.947886 58 84 140 255 
0.745669 15.0992 0.805507 59 82 139 255 
0.759462 15.1064 0.663037 61 77 138 255 
0.704532 14.7376 0.530707 62 76 138 255 
0.688983 14.1492 0.375898 66 63 133 255 
0.672049 13.5604 0.232247 64 69 136 255 
0.666548 13.1667 0.103546 62 76 138 255 
0.613194 12.7803 -0.00223315 61 77 138 255 
0.603516 12.3056 -0.118271 58 84 140 255 
0.592433 11.8701 -0.224051 67 62 133 255 
0.575274 11.2858 -0.319599 60 80 139 255 
0.53266 10.9818 -0.399316 56 88 140 255 
0.529834 10.7268 -0.489572 58 83 139 255 
0.514547 10.2736 -0.566097 60 80 139 255 
0.516174 10.0918 -0.65169 59 81 139 255 
0.48697 10.0038 -0.726718 55 91 141 255 
0.496997 9.99118 -0.818925 52 96 141 255 
0.506824 10.0144 -0.91608 53 94 141 255 
0.503454 9.84312 -0.994183 67 62 133 255 
0.447598 9.09706 -0.992669 54 92 141 255 
0.428656 8.58712 -1.01914 59 81 139 255 
0.408601 8.0458 -1.03202 59 81 139 255 
0.388991 7.55363 -1.04147 61 77 138 255 
0.357324 7.18578 -1.05087 55 90 140 255 
0.341605 6.79562 -1.05821 53 94 141 255 
0.328401 6.44438 -1.06477 57 85 140 255 
0.316576 6.14743 -1.07653 53 94 141 255 
0.295916 5.8684 -1.07842 50 101 142 255 
0.284261 5.59645 -1.08112 54 93 141 255 
0.273525 5.36751 -1.09052 49 103 142 255 
0.26338 5.13186 -1.09506 53 95 141 255 
0.253096 4.96759 -1.10363 54 92 141 255 
0.243969 4.77033 -1.10627 52 97 141 255 
0.234492 4.57017 -1.10625 51 98 141 255 
0.224096 4.39635 -1.11062 55 91 141 255 
0.221163 4.26767 -1.11712 55 90 140 255 
0.214608 4.13958 -1.12466 57 85 140 255 
0.204832 3.97853 -1.1228 60 79 138 255 
0.194611 3.84427 -1.12777 61 78 138 255 
0.561259 10.402 3.12926 72 26 108 255 
0.761569 14.3432 4.15393 71 13 96 255 
0.654033 12.4017 3.46041 72 33 115 255 
0.608086 11.5261 3.09919 72 29 111 255 
0.570834 10.6833 2.77679 71 19 101 255 
0.572209 10.7414 2.67795 71 46 124 255 
0.575231 10.7646 2.57411 67 62 133 255 
0.567544 10.5824 2.42718 71 47 125 255 
0 0 0 68 1 84 255 
0 0 0 68 2 86 255 
0 0 0 68 2 86 255 
0 0 0 68 1 84 255 
0 0 0 68 1 84 255 
0 0 0 68 1 84 255 
0 0 0 68 1 84 255 
2.14673 38.8873 5.97357 70 7 90 255 
2.00498 37.5236 5.45512 70 7 90 255 
0.813772 15.1269 2.05089 42 119 142 255 
2.05356 37.4481 4.71796 71 13 96 255 
2.13817 38.4886 4.49424 70 7 90 255 
2.06988 38.7382 4.20747 70 11 94 255 
2.11571 38.9482 3.8589 70 10 93 255 
1.14773 20.8631 1.86847 58 84 140 255 
4.23093 75.4474 6.05334 70 10 93 255 
0.806156 15.0382 1.08743 72 29 111 255 
0.821746 15.0789 0.947448 59 82 139 255 
0.837526 15.0803 0.804762 60 80 139 255 
0.851238 15.0855 0.662337 59 81 139 255 
0.796401 14.76 0.531678 68 59 132 255 
0.772613 14.0869 0.37436 69 55 129 255 
0.779157 13.9853 0.239601 70 50 126 255 
0.745057 13.1225 0.103232 66 63 133 255 
0.69398 12.8202 -0.00224083 62 73 137 255 
0.683695 12.3866 -0.119087 60 80 139 255 
0.654342 11.6716 -0.220376 65 68 135 255 
0.651067 11.3969 -0.32285 63 72 137 255 
0.600088 10.9794 -0.399353 55 91 141 255 
0.598191 10.7692 -0.491667 61 78 138 255 
0.579649 10.3071 -0.56813 60 79 138 255 
0.577459 10.0775 -0.650983 55 90 140 255 
0.547415 9.98372 -0.725488 56 88 140 255 
0.557791 9.97899 -0.818191 53 95 141 255 
0.567641 10.0002 -0.915079 56 89 140 255 
0.560483 9.78124 -0.988262 70 51 127 255 
0.502529 9.07826 -0.990936 57 85 140 255 
0.479002 8.54268 -1.0142 61 78 138 255 
0.457397 8.03324 -1.03075 57 85 140 255 
0.434819 7.54219 -1.04024 62 73 137 255 
0.400911 7.17456 -1.04957 55 91 141 255 
0.382906 6.78649 -1.05714 55 90 140 255 
0.367374 6.43239 -1.06315 56 88 140 255 
0.35497 6.15717 -1.0786 55 91 141 255 
0.331418 5.85764 -1.0768 52 97 141 255 
0.318204 5.58774 -1.0798 58 83 139 255 
0.305951 5.35693 -1.08873 51 99 141 255 
0.295369 5.13894 -1.09693 55 91 141 255 
0.283015 4.9562 -1.10146 53 95 141 255 
0.273402 4.77166 -1.10695 49 103 142 255 
0.26214 4.56186 -1.10461 55 91 141 255 
0.253721 4.44136 -1.12236 57 85 140 255 
0.247401 4.2672 -1.11737 55 91 141 255 
0.239557 4.13048 -1.12256 57 86 140 255 
0.229516 3.982 -1.12415 60 79 138 255 
0.21776 3.83533 -1.12552 59 82 139 255 
0.680186 11.3152 3.40516 72 27 109 255 
0.621717 10.4929 3.03988 72 23 105 255 
0.715108 12.1426 3.38928 69 55 129 255 
0.626941 10.6419 2.86243 68 57 131 255 
0.635511 10.6651 2.77302 52 97 141 255 
0.641215 10.79 2.69099 56 89 140 255 
0.635889 10.6705 2.55251 66 63 133 255 
0.633047 10.5884 2.42941 72 40 120 255 
0 0 0 68 2 86 255 
0 0 0 68 2 86 255 
0 0 0 68 2 86 255 
0 0 0 68 1 84 255 
0 0 0 68 2 86 255 
0 0 0 68 2 86 255 
0 0 0 68 1 84 255 
2.31314 37.6974 5.79286 70 8 92 255 
2.20857 37.064 5.39018 70 8 92 255 
0.906751 15.1246 2.05129 39 128 142 255 
0.916824 15.0314 1.89442 71 16 99 255 
0.926678 15.0165 1.75408 72 27 109 255 
2.3054 38.6891 4.20359 70 7 90 255 
0.909759 15.0429 1.49095 69 5 89 255 
1.27566 20.8546 1.86838 62 76 138 255 
0.936554 15.0486 1.20783 72 24 106 255 
0.899247 15.0469 1.08843 72 40 120 255 
0.914918 15.0846 0.948136 58 83 139 255 
0.929242 15.062 0.80407 60 79 138 255 
0.942349 15.0571 0.661329 62 73 137 255 
0.897086 14.9234 0.537753 69 56 130 255 
0.881616 14.452 0.384201 70 52 128 255 
0.858656 13.8784 0.237857 67 62 133 255 
0.839316 13.3362 0.104952 66 63 133 255 
0.77594 12.8706 -0.00225043 64 70 136 255 
0.76048 12.3951 -0.119212 59 81 139 255 
0.728056 11.7013 -0.221017 65 68 135 255 
0.720291 11.3817 -0.322539 61 77 138 255 
0.66793 10.9835 -0.399643 56 89 140 255 
0.67238 10.8969 -0.497678 58 84 140 255 
0.642135 10.2914 -0.56747 57 85 140 255 
0.643138 10.1345 -0.654908 57 85 140 255 
0.609635 9.9961 -0.726646 54 93 141 255 
0.617776 9.95548 -0.816559 56 88 140 255 
0.627865 9.97863 -0.913441 49 104 142 255 
0.620867 9.78357 -0.988864 62 74 137 255 
0.557185 9.05814 -0.989094 61 77 138 255 
0.531903 8.54751 -1.01514 60 80 139 255 
0.506118 8.02137 -1.0296 57 86 140 255 
0.482098 7.5552 -1.04242 55 90 140 255 
0.442965 7.14036 -1.04494 56 89 140 255 
0.423861 6.77317 -1.05544 57 86 140 255 
0.408082 6.44971 -1.0664 55 90 140 255 
0.391175 6.1303 -1.07429 56 88 140 255 
0.367169 5.85255 -1.07626 51 99 141 255 
0.352546 5.58666 -1.07999 55 90 140 255 
0.339124 5.35984 -1.08972 50 100 142 255 
0.326274 5.12727 -1.09485 56 89 140 255 
0.312866 4.9456 -1.09951 54 92 141 255 
0.302552 4.76795 -1.1065 50 100 142 255 
0.291669 4.58441 -1.11048 52 96 141 255 
0.280723 4.43585 -1.12139 52 96 141 255 
0.273208 4.25981 -1.11586 54 92 141 255 
0.264835 4.12797 -1.1223 53 94 141 255 
0.253884 3.97956 -1.12388 59 81 139 255 
0.240686 3.82435 -1.12271 59 81 139 255 
0.82332 12.4231 3.74003 70 51 127 255 
0.892379 13.6426 3.9539 72 37 118 255 
0.790663 12.1543 3.39385 72 33 115 255 
0.698247 10.7304 2.88732 58 83 139 255 
0.843565 12.8303 3.33727 72 33 115 255 
0.672988 10.2611 2.56006 72 38 119 255 
0.699436 10.6373 2.54554 72 40 120 255 
0.94906 14.3913 3.30321 66 65 134 255 
0 0 0 68 1 84 255 
0 0 0 68 1 84 255 
0 0 0 68 2 86 255 
0 0 0 68 2 86 255 
0 0 0 68 1 84 255 
0 0 0 68 1 84 255 
0 0 0 68 1 84 255 
2.60247 38.5425 5.92506 70 8 92 255 
2.53211 38.5123 5.60295 70 10 93 255 
0.992739 15.0159 2.03734 72 23 105 255 
1.01017 15.0423 1.89654 67 61 132 255 
1.02263 15.067 1.76068 69 53 129 255 
0.994338 15.1235 1.6438 55 90 140 255 
1.00482 15.0788 1.49508 61 78 138 255 
1.01237 15.0358 1.3476 69 56 130 255 
1.03071 15.0694 1.20998 72 40 120 255 
0.99195 15.0471 1.08887 67 61 132 255 
1.00646 15.0637 0.947197 60 79 138 255 
1.02191 15.06 0.804283 58 83 139 255 
1.03575 15.0659 0.661986 61 78 138 255 
0.989893 14.9366 0.538436 67 61 132 255 
0.983137 14.6379 0.389294 66 65 134 255 
0.950379 13.9697 0.239516 68 58 131 255 
0.922715 13.3537 0.105132 69 55 129 255 
0.857019 12.8976 -0.00225601 65 66 135 255 
0.840697 12.4521 -0.119807 63 72 137 255 
0.802364 11.7335 -0.221714 66 64 134 255 
0.792884 11.4169 -0.32367 62 76 138 255 
0.736913 11.0031 -0.400514 57 86 140 255 
0.740244 10.9076 -0.498361 58 84 140 255 
0.703767 10.2653 -0.566262 57 86 140 255 
0.699973 10.0537 -0.649953 55 90 140 255 
0.670424 9.98421 -0.726067 57 85 140 255 
0.677222 9.92764 -0.814601 57 86 140 255 
0.691002 10.0024 -0.915989 52 96 141 255 
0.680955 9.78057 -0.988964 70 48 126 255 
0.61262 9.05257 -0.988877 63 72 137 255 
0.583866 8.53715 -1.01431 60 79 138 255 
0.554572 8.00723 -1.02821 57 85 140 255 
0.528101 7.54716 -1.04174 58 83 139 255 
0.486231 7.12961 -1.04379 57 86 140 255 
0.465954 6.77833 -1.05667 57 85 140 255 
0.447991 6.45201 -1.06722 58 83 139 255 
0.42782 6.11403 -1.07188 59 82 139 255 
0.403072 5.85018 -1.07626 55 90 140 255 
0.387225 5.59027 -1.08112 54 93 141 255 
0.372345 5.36255 -1.09072 50 102 142 255 
0.356366 5.10565 -1.09068 56 88 140 255 
0.34307 4.94164 -1.09908 51 98 141 255 
0.330516 4.74754 -1.10221 54 93 141 255 
0.319048 4.57187 -1.1079 51 98 141 255 
0.306391 4.41179 -1.11576 56 88 140 255 
0.299069 4.25419 -1.11484 56 89 140 255 
0.290361 4.12915 -1.12308 57 86 140 255 
0.277625 3.96832 -1.12117 57 86 140 255 
0.264941 3.83429 -1.12608 60 80 139 255 
0.717204 9.90085 2.98196 65 68 135 255 
0.776633 10.8505 3.14601 59 81 139 255 
0.767439 10.7762 3.01028 67 61 132 255 
0.744311 10.4485 2.81264 70 48 126 255 
1.03988 14.4603 3.76284 72 33 115 255 
0.957683 13.3472 3.33143 69 53 129 255 
1.03499 14.3912 3.4453 71 44 122 255 
1.02963 14.2783 3.27865 69 55 129 255 
1.03449 14.4204 3.18925 69 4 87 255 
0 0 0 69 4 87 255 
0 0 0 68 1 84 255 
0 0 0 68 1 84 255 
0 0 0 68 1 84 255 
0 0 0 68 2 86 255 
0 0 0 68 1 84 255 
2.8533 38.721 5.95508 69 4 87 255 
2.7541 38.2976 5.57407 70 11 94 255 
1.08671 15.0353 2.04083 69 56 130 255 
1.1031 15.0447 1.89767 68 57 131 255 
1.12401 15.1813 1.77481 71 42 122 255 
1.08897 15.1429 1.64661 56 88 140 255 
1.09949 15.1021 1.49804 53 94 141 255 
1.10943 15.0949 1.35348 60 80 139 255 
1.12649 15.1075 1.21358 66 64 134 255 
1.08555 15.0586 1.09016 67 61 132 255 
1.09858 15.0533 0.946947 59 81 139 255 
1.11393 15.0484 0.804017 62 76 138 255 
1.12839 15.0623 0.662118 66 63 133 255 
1.08463 14.9731 0.539981 65 68 135 255 
1.08127 14.7452 0.392318 69 56 130 255 
1.04377 14.0673 0.241295 67 62 133 255 
1.02625 13.635 0.107394 70 52 128 255 
0.94179 12.9699 -0.00226963 62 76 138 255 
0.918702 12.4686 -0.120018 65 68 135 255 
0.866689 11.6257 -0.219773 62 73 137 255 
0.872645 11.5404 -0.327317 60 79 138 255 
0.810318 11.0791 -0.403454 61 78 138 255 
0.805314 10.8779 -0.497222 61 77 138 255 
0.76741 10.2698 -0.566756 59 81 139 255 
0.761724 10.0502 -0.650017 56 88 140 255 
0.732111 9.98588 -0.726501 52 96 141 255 
0.740638 9.95709 -0.817375 55 91 141 255 
0.751242 9.98308 -0.914624 51 99 141 255 
0.738323 9.74148 -0.985452 70 50 126 255 
0.667861 9.04467 -0.988444 62 73 137 255 
0.634687 8.51261 -1.01184 60 80 139 255 
0.603992 8.00763 -1.02872 61 78 138 255 
0.573197 7.52797 -1.03956 60 80 139 255 
0.529822 7.12452 -1.0435 59 82 139 255 
0.508939 6.79406 -1.05959 58 84 140 255 
0.48586 6.42651 -1.06347 58 83 139 255 
0.46413 6.09557 -1.06913 60 79 138 255 
0.437488 5.82798 -1.07264 56 89 140 255 
0.419156 5.55645 -1.07506 56 88 140 255 
0.403838 5.34159 -1.08694 53 95 141 255 
0.389021 5.12093 -1.09443 54 92 141 255 
0.373164 4.93652 -1.09843 54 92 141 255 
0.358831 4.73474 -1.09973 50 100 142 255 
0.34761 4.57661 -1.10954 54 93 141 255 
0.33192 4.38953 -1.11062 54 92 141 255 
0.324798 4.24745 -1.11358 57 86 140 255 
0.316207 4.13403 -1.12492 58 83 139 255 
0.303431 3.98574 -1.12659 57 86 140 255 
0.289255 3.84312 -1.12918 59 81 139 255 
0.764506 9.72536 2.93046 62 74 137 255 
0.815645 10.4911 3.04321 63 72 137 255 
0.791553 10.2286 2.85862 72 38 119 255 
1.13003 14.5987 3.93162 69 55 129 255 
1.135 14.5357 3.7842 67 62 133 255 
1.04295 13.3846 3.3423 66 63 133 255 
1.11956 14.337 3.43392 72 28 110 255 
1.12544 14.3766 3.30276 66 64 134 255 
1.12386 14.4254 3.19184 70 50 126 255 
0 0 0 68 1 84 255 
0 0 0 68 1 84 255 
0 0 0 68 1 84 255 
0 0 0 68 1 84 255 
0 0 0 68 1 84 255 
0 0 0 68 1 84 255 
0 0 0 69 4 87 255 
2.97471 38.0965 5.54735 70 11 94 255 
2.93249 37.3811 5.07631 71 14 97 255 
2.99099 37.6258 4.74816 71 17 100 255 
3.02506 37.7136 4.41109 70 7 90 255 
0 0 0 69 4 87 255 
4.00662 50.7326 5.0347 69 4 87 255 
1.54248 19.3612 1.73683 69 53 129 255 
1.56266 19.3548 1.5555 69 53 129 255 
1.17489 15.0129 1.08735 72 29 111 255 
1.20195 15.1856 0.955713 72 35 116 255 
1.22389 15.2613 0.815776 72 23 105 255 
1.56235 19.2672 0.847365 72 24 106 255 
1.18079 15.0209 0.541958 68 57 131 255 
1.17394 14.7662 0.393061 69 55 129 255 
1.14304 14.2221 0.244065 68 59 132 255 
1.12613 13.8278 0.108965 65 66 135 255 
0.998027 12.6677 -0.00221779 66 65 134 255 
1.01063 12.6561 -0.121881 62 73 137 255 
0.974931 12.0776 -0.228424 66 64 134 255 
0.939772 11.49 -0.326044 62 76 138 255 
0.887843 11.1944 -0.407845 58 83 139 255 
0.869568 10.8419 -0.495811 56 89 140 255 
0.853678 10.5525 -0.582637 57 86 140 255 
0.823539 10.0474 -0.650146 56 89 140 255 
0.795582 10.009 -0.728527 56 89 140 255 
0.803 9.96826 -0.81868 51 98 141 255 
0.81216 9.97431 -0.91426 50 100 142 255 
0.797431 9.72884 -0.984649 70 51 127 255 
0.725169 9.06319 -0.990936 57 85 140 255 
0.687387 8.5145 -1.01255 61 78 138 255 
0.653276 8.00575 -1.02897 61 78 138 255 
0.619051 7.52037 -1.03901 58 84 140 255 
0.573288 7.11818 -1.04307 58 83 139 255 
0.549339 6.77505 -1.05714 59 82 139 255 
0.524962 6.41947 -1.06282 53 94 141 255 
0.502331 6.10243 -1.07085 57 85 140 255 
0.472443 5.81539 -1.07084 56 89 140 255 
0.453322 5.55476 -1.07525 48 106 142 255 
0.434928 5.3185 -1.08276 51 99 141 255 
0.420755 5.12234 -1.09527 55 90 140 255 
0.40289 4.92733 -1.09691 51 99 141 255 
0.388194 4.73633 -1.10063 52 96 141 255 
0.374492 4.55986 -1.10602 52 97 141 255 
0.358768 4.38644 -1.11038 55 91 141 255 
0.351172 4.24924 -1.11459 54 92 141 255 
0.338864 4.09931 -1.11601 56 88 140 255 
0.328749 3.99435 -1.12958 55 90 140 255 
0.313142 3.8451 -1.1303 62 74 137 255 
1.21303 14.3068 4.31312 72 20 103 255 
0.880243 10.4888 3.04405 70 51 127 255 
0.857508 10.2619 2.86936 70 51 127 255 
0.866923 10.3722 2.79474 61 78 138 255 
0.868284 10.3048 2.68409 62 73 137 255 
1.17711 13.9968 3.49692 72 38 119 255 
1.20849 14.3415 3.43671 63 71 136 255 
1.21568 14.3937 3.30834 70 51 127 255 
1.16997 13.9142 3.08025 72 41 121 255 
1.20739 14.3271 3.02202 72 41 121 255 
0 0 0 68 2 86 255 
0 0 0 68 1 84 255 
0 0 0 68 1 84 255 
0 0 0 68 1 84 255 
0 0 0 68 1 84 255 
4.27961 49.7404 7.65731 70 10 93 255 
3.21223 38.1229 5.55396 71 13 96 255 
3.2238 38.0951 5.17586 71 16 99 255 
3.25568 38.0022 4.79809 70 11 94 255 
0 0 0 69 4 87 255 
4.16713 49.4557 5.38288 70 7 90 255 
4.39889 51.6589 5.12922 69 4 87 255 
1.78597 20.8042 1.86722 66 64 134 255 
0 0 0 69 4 87 255 
1.64294 19.4579 1.41 72 36 117 255 
1.75933 20.6184 1.29829 72 35 116 255 
1.78919 20.7144 1.10783 72 35 116 255 
1.69105 19.3777 0.852664 67 62 133 255 
1.64341 19.3829 0.69969 70 50 126 255 
1.25718 14.6731 0.390779 71 42 122 255 
1.2402 14.3293 0.246032 68 58 131 255 
1.22858 14.0218 0.110552 68 58 131 255 
1.1245 13.2353 -0.00231832 63 71 136 255 
1.09024 12.6726 -0.122101 62 74 137 255 
1.02418 11.7855 -0.223015 63 71 136 255 
1.0163 11.5527 -0.327995 63 72 137 255 
0.959152 11.2197 -0.408971 58 83 139 255 
0.927737 10.7398 -0.491393 59 82 139 255 
0.919624 10.561 -0.583406 57 85 140 255 
0.883158 10.0193 -0.648666 58 83 139 255 
0.850767 9.93142 -0.723244 56 89 140 255 
0.862857 9.94825 -0.817456 55 90 140 255 
0.874475 9.98204 -0.915443 51 99 141 255 
0.855801 9.7089 -0.983143 69 53 129 255 
0.780937 9.06056 -0.991153 59 82 139 255 
0.741252 8.52892 -1.01478 59 82 139 255 
0.700911 7.98479 -1.02681 59 81 139 255 
0.665271 7.51741 -1.03915 57 85 140 255 
0.617723 7.1234 -1.04437 58 83 139 255 
0.587808 6.73612 -1.0516 60 79 138 255 
0.561661 6.38566 -1.05777 57 86 140 255 
0.539331 6.09432 -1.06999 59 82 139 255 
0.507603 5.8065 -1.06976 59 81 139 255 
0.486881 5.546 -1.07411 53 95 141 255 
0.469443 5.33721 -1.08714 53 94 141 255 
0.451747 5.11479 -1.09423 57 86 140 255 
0.433202 4.92574 -1.09713 51 99 141 255 
0.418788 4.75133 -1.10469 52 97 141 255 
0.401779 4.54973 -1.10414 51 98 141 255 
0.386271 4.39092 -1.11209 55 91 141 255 
0.377238 4.247 -1.11459 54 93 141 255 
0.365291 4.11157 -1.11994 56 88 140 255 
0.354016 4.00089 -1.13202 55 91 141 255 
0.337148 3.84788 -1.13171 62 74 137 255 
1.0883 11.9633 3.60856 66 64 134 255 
0.949498 10.5377 3.05988 69 55 129 255 
1.08535 12.0938 3.38338 71 42 122 255 
1.27895 14.248 3.84112 70 52 128 255 
1.17021 12.9387 3.37194 70 51 127 255 
1.16673 12.9234 3.23045 72 31 112 255 
1.27289 14.0733 3.37423 72 41 121 255 
1.30363 14.3821 3.30745 69 53 129 255 
1.17947 13.0664 2.89413 68 57 131 255 
1.30568 14.4344 3.0463 62 73 137 255 
1.31041 14.404 2.89797 69 55 129 255 
1.31388 14.3837 2.75525 70 10 93 255 
1.29531 14.3498 2.6288 67 62 133 255 
0 0 0 68 1 84 255 
0 0 0 68 1 84 255 
4.58482 49.7142 7.65746 70 7 90 255 
0 0 0 69 4 87 255 
4.3768 48.1982 6.55206 70 7 90 255 
3.48762 37.9687 4.79647 70 10 93 255 
4.64918 50.2206 5.88018 70 7 90 255 
4.49513 49.7015 5.41253 69 5 89 255 
4.54869 49.8016 4.94748 69 4 87 255 
1.90848 20.7373 1.86224 72 27 109 255 
0 0 0 68 2 86 255 
0 0 0 68 2 86 255 
1.899 20.7513 1.30737 72 23 105 255 
3.89123 42.0404 2.24961 71 13 96 255 
1.80992 19.3669 0.852664 72 36 117 255 
1.76131 19.3615 0.699294 70 50 126 255 
1.47412 16.0468 0.427597 71 42 122 255 
1.36392 14.7077 0.252668 69 56 130 255 
1.3385 14.2689 0.112562 67 62 133 255 
1.20923 13.267 -0.00232513 62 76 138 255 
1.16862 12.6726 -0.122169 65 68 135 255 
1.09137 11.7242 -0.221978 64 70 136 255 
1.07133 11.3781 -0.323217 67 62 133 255 
1.03883 11.332 -0.41329 61 78 138 255 
1.00025 10.8055 -0.494672 57 86 140 255 
0.979215 10.4995 -0.580329 59 82 139 255 
0.959145 10.1676 -0.658641 61 77 138 255 
0.910047 9.90814 -0.721942 56 89 140 255 
0.922499 9.92788 -0.816233 54 93 141 255 
0.935429 9.97351 -0.91517 50 100 142 255 
0.914236 9.69158 -0.981939 70 51 127 255 
0.836334 9.05361 -0.990936 58 84 140 255 
0.792282 8.51036 -1.01314 61 77 138 255 
0.75017 7.98331 -1.02719 64 70 136 255 
0.711571 7.51516 -1.03942 59 82 139 255 
0.660962 7.11455 -1.04364 57 86 140 255 
0.630599 6.74812 -1.05406 59 81 139 255 
0.601295 6.38701 -1.05859 54 92 141 255 
0.576901 6.09286 -1.07033 57 85 140 255 
0.546613 5.83951 -1.07644 54 92 141 255 
0.52182 5.55268 -1.07601 55 90 140 255 
0.501448 5.32643 -1.08555 55 91 141 255 
0.484043 5.12166 -1.09631 58 83 139 255 
0.464698 4.93659 -1.10016 51 99 141 255 
0.446012 4.7283 -1.09995 54 92 141 255 
0.430603 4.55686 -1.10649 51 99 141 255 
0.413479 4.39136 -1.11282 55 90 140 255 
0.404938 4.26194 -1.11914 51 98 141 255 
0.390787 4.11213 -1.12073 55 91 141 255 
0.37629 3.97469 -1.12524 61 77 138 255 
0.360125 3.83905 -1.12974 63 72 137 255 
1.04119 10.7162 3.23427 71 47 125 255 
1.13697 11.8073 3.43049 72 29 111 255 
1.10848 11.5548 3.23441 71 46 124 255 
1.38241 14.4072 3.88624 72 35 116 255 
1.25209 12.9573 3.37872 72 37 118 255 
1.23957 12.8493 3.21378 72 27 109 255 
1.31104 13.5666 3.25462 70 50 126 255 
1.38527 14.3059 3.29182 71 47 125 255 
1.38282 14.3362 3.17719 66 63 133 255 
1.39667 14.4514 3.05164 60 80 139 255 
1.39877 14.3957 2.89797 66 64 134 255 
1.40163 14.3704 2.75432 72 36 117 255 
1.38825 14.3925 2.63813 62 73 137 255 
0 0 0 68 2 86 255 
0 0 0 68 1 84 255 
0 0 0 68 1 84 255 
0 0 0 68 2 86 255 
0 0 0 69 4 87 255 
0 0 0 69 4 87 255 
0 0 0 68 1 84 255 
0 0 0 68 2 86 255 
0 0 0 68 2 86 255 
0 0 0 68 2 86 255 
0 0 0 68 2 86 255 
0 0 0 69 4 87 255 
2.0325 20.8028 1.31137 58 83 139 255 
4.19965 42.5275 2.27701 71 13 96 255 
3.51557 35.2802 1.5542 70 11 94 255 
1.87795 19.3284 0.698503 71 46 124 255 
1.58446 16.1588 0.430834 71 47 125 255 
1.4381 14.5369 0.249881 69 53 129 255 
1.4121 14.1211 0.111463 68 57 131 255 
1.28887 13.2414 -0.00232199 65 66 135 255 
1.2583 12.7866 -0.12334 63 71 136 255 
1.18018 11.8874 -0.225201 65 66 135 255 
1.16338 11.5931 -0.329522 62 76 138 255 
1.14981 11.7491 -0.428751 60 80 139 255 
1.06535 10.7873 -0.494126 58 84 140 255 
1.03127 10.3691 -0.57346 59 82 139 255 
1.02461 10.1923 -0.660636 57 85 140 255 
0.971312 9.90733 -0.722304 53 94 141 255 
0.984086 9.92897 -0.816804 51 99 141 255 
0.997598 9.97749 -0.91608 51 98 141 255 
0.972889 9.67786 -0.981136 67 62 133 255 
0.891577 9.04534 -0.990611 63 71 136 255 
0.841836 8.47866 -1.00996 63 71 136 255 
0.80003 7.98744 -1.02833 62 73 137 255 
0.756079 7.49488 -1.03724 60 79 138 255 
0.703238 7.09657 -1.04162 56 88 140 255 
0.671601 6.74019 -1.05345 59 81 139 255 
0.640867 6.38712 -1.05924 58 84 140 255 
0.614275 6.08921 -1.07033 56 89 140 255 
0.58302 5.84192 -1.07752 53 94 141 255 
0.556175 5.55231 -1.07658 58 83 139 255 
0.533632 5.31837 -1.08455 55 90 140 255 
0.517321 5.13708 -1.10027 57 85 140 255 
0.4942 4.92588 -1.09843 50 102 142 255 
0.473652 4.7119 -1.09679 54 93 141 255 
0.457971 4.54833 -1.10508 53 94 141 255 
0.440319 4.38778 -1.11258 53 94 141 255 
0.430496 4.2536 -1.11763 55 91 141 255 
0.418052 4.12982 -1.12623 55 90 140 255 
0.39816 3.94741 -1.11819 62 74 137 255 
0.38291 3.82913 -1.12749 63 71 136 255 
1.08763 10.5229 3.17788 67 62 133 255 
1.06522 10.3934 3.02155 72 33 115 255 
1.19414 11.6924 3.27494 72 36 117 255 
1.45164 14.2111 3.83567 72 41 121 255 
1.47167 14.3118 3.73421 71 47 125 255 
1.04585 10.1869 2.54943 55 91 141 255 
1.05587 10.2677 2.46471 59 82 139 255 
1.41988 13.7813 3.17305 71 16 99 255 
1.38879 13.5289 3.00011 70 48 126 255 
1.45529 14.1505 2.98994 72 20 103 255 
1.48627 14.3791 2.8964 69 55 129 255 
1.48958 14.3596 2.75394 72 33 115 255 
1.48095 14.4268 2.64603 59 82 139 255 
0 0 0 68 2 86 255 
0 0 0 68 1 84 255 
0 0 0 68 2 86 255 
0 0 0 68 1 84 255 
5.25479 50.9206 6.93039 69 5 89 255 
5.25874 50.4459 6.38035 69 5 89 255 
0 0 0 68 2 86 255 
0 0 0 68 2 86 255 
0 0 0 68 2 86 255 
2.01861 19.3313 1.73808 72 29 111 255 
0 0 0 69 4 87 255 
0 0 0 68 1 84 255 
2.16165 20.8049 1.31231 52 96 141 255 
4.4825 42.7105 2.28824 70 8 92 255 
3.83041 36.1879 1.59519 70 8 92 255 
1.99682 19.3195 0.698611 70 51 127 255 
1.72452 16.5415 0.441311 72 35 116 255 
1.52173 14.4751 0.248974 71 42 122 255 
1.4757 13.8954 0.10975 68 57 131 255 
1.40912 13.6102 -0.00238813 61 77 138 255 
1.30959 12.5191 -0.120834 68 57 131 255 
1.24859 11.8372 -0.224391 63 71 136 255 
1.23375 11.5788 -0.329324 58 83 139 255 
1.22147 11.7378 -0.428606 57 85 140 255 
1.12704 10.7378 -0.492168 63 71 136 255 
1.08994 10.3159 -0.570877 55 90 140 255 
1.09846 10.292 -0.667523 60 80 139 255 
1.03674 9.94582 -0.72556 54 93 141 255 
1.04499 9.92275 -0.816804 54 92 141 255 
1.05649 9.9494 -0.914078 51 98 141 255 
1.03109 9.66083 -0.980032 67 61 132 255 
0.946751 9.03674 -0.990286 61 77 138 255 
0.893115 8.46642 -1.00913 62 73 137 255 
0.848396 7.97646 -1.02757 62 74 137 255 
0.799838 7.46942 -1.03438 62 74 137 255 
0.745111 7.07638 -1.03931 57 85 140 255 
0.713154 6.73791 -1.05375 60 79 138 255 
0.680046 6.38307 -1.05924 55 91 141 255 
0.650682 6.07651 -1.06878 57 86 140 255 
0.617714 5.82747 -1.07553 53 95 141 255 
0.589402 5.54098 -1.07506 55 91 141 255 
0.565943 5.31208 -1.08396 53 95 141 255 
0.544674 5.09491 -1.09193 58 84 140 255 
0.523174 4.9111 -1.09583 54 93 141 255 
0.502555 4.70891 -1.09679 55 91 141 255 
0.487006 4.55606 -1.10766 57 86 140 255 
0.466823 4.38114 -1.1116 54 93 141 255 
0.457414 4.25858 -1.11965 56 89 140 255 
0.443075 4.1243 -1.12544 59 82 139 255 
0.420836 3.93053 -1.11412 65 68 135 255 
0.405891 3.82194 -1.12608 62 76 138 255 
1.07144 9.7792 2.9552 68 57 131 255 
1.04874 9.64845 2.80679 65 68 135 255 
1.02785 9.48793 2.65919 48 105 142 255 
1.1288 10.4178 2.81367 72 36 117 255 
1.14263 10.4796 2.73609 72 31 112 255 
1.14352 10.5034 2.63036 72 31 112 255 
1.15712 10.612 2.54902 72 38 119 255 
1.18253 10.8256 2.49415 56 88 140 255 
1.18105 10.8495 2.4075 55 91 141 255 
1.18818 10.8959 2.30375 58 84 140 255 
1.1915 10.8745 2.1919 71 45 123 255 
1.19755 10.8928 2.09043 72 38 119 255 
1.18619 10.8967 1.99987 72 36 117 255 
1.19859 10.9736 1.90476 71 14 97 255 
1.20777 10.9875 1.79823 71 19 101 255 
1.22222 11.0287 1.70193 72 26 108 255 
0 0 0 69 4 87 255 
1.21219 11.0802 1.50902 69 5 89 255 
1.21256 10.9782 1.38943 70 11 94 255 
1.22712 11.0378 1.2948 71 19 101 255 
0 0 0 68 2 86 255 
0 0 0 69 4 87 255 
2.14014 19.3453 1.74048 59 81 139 255 
1.23318 11.0398 0.889859 71 19 101 255 
0 0 0 68 2 86 255 
2.28665 20.7674 1.31081 69 55 129 255 
4.76103 42.8311 2.29622 70 7 90 255 
1.23858 11.0531 0.487556 72 20 103 255 
2.1163 19.3158 0.698935 69 56 130 255 
2.13395 19.3187 0.515743 72 41 121 255 
1.74582 15.6808 0.269892 72 37 118 255 
1.59925 14.227 0.112444 69 55 129 255 
1.47319 13.4244 -0.00235707 62 73 137 255 
1.44166 13.0098 -0.125653 64 69 136 255 
1.31709 11.7926 -0.223693 62 73 137 255 
1.3003 11.5313 -0.328193 68 59 132 255 
1.27364 11.5503 -0.422037 70 52 128 255 
1.18948 10.6999 -0.490756 61 78 138 255 
1.18241 10.57 -0.585329 59 81 139 255 
1.15711 10.2454 -0.664948 57 85 140 255 
1.10924 10.0434 -0.733159 57 86 140 255 
1.10552 9.91318 -0.816559 54 92 141 255 
1.11674 9.9358 -0.913441 52 97 141 255 
1.09448 9.6909 -0.983746 66 64 134 255 
1.00251 9.03372 -0.990611 63 71 136 255 
0.944717 8.45782 -1.00878 62 73 137 255 
0.893883 7.94055 -1.02363 66 63 133 255 
0.845097 7.45945 -1.03369 65 68 135 255 
0.791367 7.09724 -1.04307 57 85 140 255 
0.754373 6.73243 -1.0536 58 84 140 255 
0.718867 6.37584 -1.05875 57 86 140 255 
0.686957 6.06359 -1.06723 59 81 139 255 
0.650936 5.80109 -1.07138 54 93 141 255 
0.62273 5.53141 -1.07393 57 85 140 255 
0.59688 5.29389 -1.08097 51 98 141 255 
0.574606 5.07981 -1.08943 56 89 140 255 
0.554392 4.9175 -1.098 55 90 140 255 
0.532095 4.71154 -1.09815 53 94 141 255 
0.510583 4.51436 -1.09826 55 91 141 255 
0.492501 4.36759 -1.10891 58 84 140 255 
0.481898 4.24127 -1.11586 53 94 141 255 
0.466629 4.10616 -1.12125 57 86 140 255 
0.447546 3.95083 -1.12063 62 74 137 255 
0.42837 3.81079 -1.12355 63 71 136 255 
1.12459 9.71346 2.93736 60 79 138 255 
1.11077 9.66665 2.81402 58 84 140 255 
1.08693 9.4891 2.66134 53 95 141 255 
1.13257 9.88587 2.67182 68 59 132 255 
1.15638 10.0339 2.62153 72 41 121 255 
1.48187 12.8764 3.22683 66 63 133 255 
1.15551 10.0259 2.4099 56 89 140 255 
1.2505 10.8317 2.49728 56 89 140 255 
1.24917 10.8556 2.41052 50 101 142 255 
1.25131 10.8563 2.29696 64 69 136 255 
1.2714 10.9809 2.21489 68 58 131 255 
1.27751 10.9984 2.11216 70 52 128 255 
1.26371 10.982 2.01692 70 51 127 255 
1.27098 11.0101 1.91241 66 64 134 255 
1.28154 11.0348 1.80722 67 62 133 255 
1.29205 11.0397 1.70481 68 57 131 255 
1.27396 11.0542 1.61537 68 58 131 255 
1.27878 11.0607 1.50741 68 59 132 255 
1.28898 11.0484 1.39929 67 61 132 255 
1.29482 11.03 1.2948 70 52 128 255 
1.27594 11.0714 1.20873 69 55 129 255 
1.28552 11.0682 1.10236 66 63 133 255 
1.29175 11.0554 0.995336 68 59 132 255 
1.3044 11.0617 0.892255 67 61 132 255 
1.27803 11.0725 0.80482 66 64 134 255 
1.29004 11.0903 0.700489 62 74 137 255 
1.30204 11.093 0.595125 56 88 140 255 
1.31224 11.0949 0.489746 51 98 141 255 
1.2883 11.1274 0.402919 56 88 140 255 
1.29554 11.1037 0.296639 58 83 139 255 
1.30656 11.1148 0.191438 62 74 137 255 
1.31922 11.1207 0.0879558 57 86 140 255 
1.28969 11.1225 -0.00195425 66 65 134 255 
1.30074 11.1146 -0.107424 63 72 137 255 
1.31661 11.1667 -0.21197 59 82 139 255 
1.3232 11.1211 -0.316743 67 62 133 255 
1.29558 11.1224 -0.406684 66 65 134 255 
1.25604 10.7003 -0.49112 59 82 139 255 
1.24455 10.5397 -0.584065 57 86 140 255 
1.217 10.2134 -0.663339 60 80 139 255 
1.17119 10.0393 -0.733376 55 91 141 255 
1.16412 9.8874 -0.815009 53 94 141 255 
1.17533 9.90898 -0.911622 51 98 141 255 
1.15275 9.67412 -0.982742 65 66 135 255 
1.05514 9.0037 -0.988011 65 68 135 255 
0.995897 8.44595 -1.00807 64 69 136 255 
0.942003 7.92999 -1.023 65 68 135 255 
0.892262 7.46593 -1.03533 63 72 137 255 
0.833049 7.07653 -1.04075 56 88 140 255 
0.795321 6.72473 -1.05314 58 84 140 255 
0.75646 6.35857 -1.05663 56 88 140 255 
0.72415 6.05926 -1.06723 58 83 139 255 
0.683511 5.77159 -1.06669 59 82 139 255 
0.6555 5.51773 -1.07203 56 88 140 255 
0.629004 5.28721 -1.08038 54 92 141 255 
0.607619 5.09173 -1.09277 57 86 140 255 
0.58467 4.91498 -1.09821 53 95 141 255 
0.560302 4.70238 -1.09679 55 91 141 255 
0.541613 4.53913 -1.10508 57 86 140 255 
0.520092 4.37123 -1.11062 55 91 141 255 
0.506186 4.22383 -1.11206 58 83 139 255 
0.4886 4.07639 -1.11392 57 86 140 255 
0.472807 3.95661 -1.12307 60 80 139 255 
0.451518 3.80619 -1.12299 62 73 137 255 
1.19148 9.76627 2.95549 68 58 131 255 
1.14985 9.49276 2.7654 56 88 140 255 
1.14987 9.52147 2.67234 55 91 141 255 
1.17202 9.70327 2.62437 58 84 140 255 
1.25691 10.3476 2.70544 72 41 121 255 
1.27011 10.4703 2.62577 72 27 109 255 
1.30344 10.7302 2.58107 72 40 120 255 
1.31741 10.8277 2.49817 61 77 138 255 
1.31751 10.8623 2.41375 58 84 140 255 
1.3192 10.8591 2.29922 64 70 136 255 
1.32842 10.8882 2.19779 72 41 121 255 
1.326 10.8353 2.08237 72 23 105 255 
1.31887 10.8735 1.99843 72 33 115 255 
1.32721 10.9092 1.89626 71 13 96 255 
3.00102 24.5262 4.01972 70 10 93 255 
3.03901 24.6549 3.81016 70 11 94 255 
1.33735 11.0098 1.61006 72 20 103 255 
1.34531 11.0419 1.50594 71 16 99 255 
1.35711 11.0432 1.39966 70 10 93 255 
1.36284 11.0248 1.29515 69 5 89 255 
1.34157 11.0446 1.20668 72 29 111 255 
1.35111 11.0413 1.10049 72 27 109 255 
2.37872 19.3285 1.74146 72 20 103 255 
1.37495 11.0752 0.894012 70 8 92 255 
1.3445 11.0525 0.803956 67 61 132 255 
1.35042 11.0197 0.696544 70 52 128 255 
1.36199 11.0194 0.591613 71 42 122 255 
1.37425 11.0381 0.4876 72 27 109 255 
1.35341 11.0935 0.401985 50 102 142 255 
1.36096 11.0738 0.296055 64 69 136 255 
1.36565 11.0332 0.190173 72 40 120 255 
1.84346 14.7649 0.116866 72 41 121 255 
1.35864 11.1203 -0.00195529 63 71 136 255 
1.37002 11.1154 -0.107511 68 58 131 255 
1.43018 11.5215 -0.218868 72 41 121 255 
1.43301 11.445 -0.326214 67 62 133 255 
1.36088 11.0905 -0.405813 68 59 132 255 
1.33871 10.8302 -0.49745 61 78 138 255 
1.30945 10.5339 -0.584175 63 72 137 255 
1.28399 10.2404 -0.665592 63 71 136 255 
1.23642 10.0617 -0.735547 55 91 141 255 
1.22341 9.86919 -0.814111 50 101 142 255 
1.23537 9.89566 -0.911076 52 96 141 255 
1.20812 9.63528 -0.97953 67 62 133 255 
1.11402 9.02666 -0.991261 64 69 136 255 
1.04733 8.43672 -1.00772 62 74 137 255 
0.990766 7.92504 -1.02312 63 72 137 255 
0.936572 7.44852 -1.03369 63 71 136 255 
0.874385 7.05459 -1.0383 60 80 139 255 
0.836446 6.71874 -1.05299 62 76 138 255 
0.793622 6.33912 -1.05419 59 81 139 255 
0.761315 6.0547 -1.06723 58 84 140 255 
0.718912 5.76729 -1.06669 59 81 139 255 
0.689588 5.51555 -1.07241 58 84 140 255 
0.661312 5.28228 -1.08018 57 86 140 255 
0.639702 5.0947 -1.09423 59 82 139 255 
0.616757 4.9268 -1.10168 53 94 141 255 
0.58866 4.69499 -1.09589 57 86 140 255 
0.567517 4.52029 -1.10132 55 90 140 255 
0.544856 4.3516 -1.10646 55 91 141 255 
0.530278 4.20624 -1.10827 61 78 138 255 
0.51312 4.06949 -1.11287 60 80 139 255 
0.494914 3.93645 -1.11819 62 74 137 255 
0.478312 3.83096 -1.13114 63 71 136 255 
1.21094 9.44339 2.85997 71 45 123 255 
1.20237 9.44074 2.75234 48 105 142 255 
1.22259 9.627 2.70402 65 68 135 255 
1.23153 9.6959 2.62437 47 107 142 255 
1.24608 9.75782 2.5532 72 36 117 255 
1.26202 9.89536 2.48348 60 80 139 255 
1.69392 13.2643 3.19307 72 36 117 255 
1.27227 9.94731 2.2968 72 40 120 255 
1.80191 14.1301 3.14229 64 70 136 255 
1.77621 13.9077 2.94695 69 56 130 255 
2.97338 23.1865 4.68379 70 11 94 255 
3.19439 24.8379 4.7771 69 5 89 255 
3.11509 24.4277 4.49297 71 19 101 255 
3.08039 24.086 4.18989 72 23 105 255 
3.10752 24.1657 3.96368 71 17 100 255 
3.18033 24.5593 3.79833 72 29 111 255 
3.15086 24.6739 3.61103 70 8 92 255 
0 0 0 68 2 86 255 
0 0 0 68 2 86 255 
0 0 0 68 2 86 255 
0 0 0 68 2 86 255 
8.91601 69.3308 6.91552 69 5 89 255 
9.02744 69.8169 6.29525 69 4 87 255 
2.6967 20.6831 1.67088 72 27 109 255 
0 0 0 68 2 86 255 
2.49261 19.3558 1.2244 66 63 133 255 
0 0 0 69 4 87 255 
4.93182 37.7234 1.66771 70 11 94 255 
2.472 19.2776 0.699079 69 55 129 255 
2.49251 19.3019 0.516433 66 63 133 255 
2.11653 16.2796 0.280821 70 50 126 255 
1.92817 14.7087 0.116513 66 65 134 255 
1.74054 13.5547 -0.00238517 62 73 137 255 
1.63928 12.6597 -0.122543 64 69 136 255 
1.57154 12.0548 -0.229178 63 71 136 255 
1.55128 11.8017 -0.336646 65 68 135 255 
1.45472 11.2821 -0.413145 64 69 136 255 
1.40411 10.8139 -0.497086 62 76 138 255 
1.3831 10.5949 -0.588022 62 76 138 255 
1.358 10.3174 -0.671127 60 80 139 255 
1.28715 9.96882 -0.729323 58 83 139 255 
1.28755 9.88917 -0.816396 55 91 141 255 
1.29633 9.88986 -0.911258 54 92 141 255 
1.2654 9.61387 -0.978125 68 59 132 255 
1.16632 8.99599 -0.988661 63 71 136 255 
1.0987 8.42718 -1.00737 63 71 136 255 
1.03847 7.91193 -1.02223 64 69 136 255 
0.983035 7.44852 -1.03451 61 77 138 255 
0.916505 7.04026 -1.03699 57 86 140 255 
0.876118 6.70173 -1.05114 60 80 139 255 
0.835589 6.35761 -1.0581 55 90 140 255 
0.795487 6.02746 -1.06327 62 74 137 255 
0.754541 5.76472 -1.06705 62 76 138 255 
0.719328 5.48006 -1.06635 58 84 140 255 
0.689241 5.24412 -1.07322 60 79 138 255 
0.669545 5.08001 -1.09193 60 79 138 255 
0.643796 4.89872 -1.09626 61 78 138 255 
0.616822 4.68646 -1.09476 61 77 138 255 
0.594607 4.5119 -1.10014 60 79 138 255 
0.56864 4.32606 -1.10084 63 72 137 255 
0.556711 4.2077 -1.10953 64 70 136 255 
0.538586 4.07009 -1.11392 63 71 136 255 
0.517295 3.91998 -1.11439 63 72 137 255 
0.502183 3.83081 -1.13199 65 66 135 255 
1.26899 9.43673 2.86026 53 94 141 255 
1.3053 9.77026 2.85069 69 56 130 255 
1.29601 9.72721 2.73435 66 65 134 255 
1.28947 9.67667 2.62125 56 88 140 255 
1.2986 9.69531 2.53888 56 89 140 255 
1.32259 9.88646 2.48323 49 104 142 255 
1.32307 9.8776 2.37971 69 56 130 255 
1.32318 9.86396 2.27938 56 88 140 255 
1.89324 14.1536 3.15004 68 57 131 255 
1.79615 13.4086 2.84348 68 58 131 255 
1.90665 14.178 2.86635 71 47 125 255 
3.37076 24.9959 4.81139 72 22 104 255 
3.31422 24.7767 4.56082 71 19 101 255 
3.21738 23.9865 4.17595 72 27 109 255 
3.25402 24.1335 3.96159 72 24 106 255 
3.31501 24.4218 3.78014 72 22 104 255 
3.29024 24.5648 3.59795 69 5 89 255 
0 0 0 68 1 84 255 
0 0 0 68 2 86 255 
3.57591 26.2752 3.09162 70 7 90 255 
0 0 0 68 2 86 255 
0 0 0 68 2 86 255 
0 0 0 69 4 87 255 
2.82815 20.6998 1.6736 64 69 136 255 
0 0 0 68 2 86 255 
2.62682 19.4549 1.23166 69 5 89 255 
5.99277 44.0391 2.36816 69 5 89 255 
5.34379 39.0109 1.72604 70 10 93 255 
2.59356 19.2868 0.699977 71 42 122 255 
2.61104 19.2872 0.516459 69 56 130 255 
2.21719 16.2722 0.280923 71 44 122 255 
1.95104 14.2062 0.112625 68 59 132 255 
1.87225 13.9045 -0.0024487 69 53 129 255 
1.70039 12.5275 -0.121362 60 79 138 255 
1.67566 12.2659 -0.233381 64 70 136 255 
1.63416 11.8682 -0.338823 63 71 136 255 
1.55685 11.5166 -0.422073 61 78 138 255 
1.47367 10.8288 -0.498179 65 68 135 255 
1.45255 10.6189 -0.589835 62 74 137 255 
1.41733 10.2802 -0.66926 58 84 140 255 
1.35217 9.9894 -0.731422 60 80 139 255 
1.35063 9.89886 -0.817864 52 97 141 255 
1.35834 9.89159 -0.912168 52 97 141 255 
1.32546 9.61381 -0.978928 67 61 132 255 
1.22203 8.99261 -0.989094 63 72 137 255 
1.14823 8.40454 -1.00548 62 76 138 255 
1.0874 7.90836 -1.02262 62 74 137 255 
1.03075 7.45707 -1.03656 61 77 138 255 
0.961693 7.04921 -1.03916 58 84 140 255 
0.916016 6.68741 -1.04976 62 73 137 255 
0.872699 6.33868 -1.05582 63 72 137 255 
0.831107 6.01271 -1.06155 67 61 132 255 
0.789097 5.75414 -1.06597 61 78 138 255 
0.750933 5.46096 -1.06351 65 68 135 255 
0.719267 5.22425 -1.07004 63 71 136 255 
0.699499 5.06709 -1.09006 58 84 140 255 
0.667983 4.85212 -1.08673 63 72 137 255 
0.646763 4.69128 -1.09679 66 65 134 255 
0.621749 4.50432 -1.0992 64 69 136 255 
0.59729 4.33786 -1.10475 65 66 135 255 
0.583183 4.209 -1.1108 66 63 133 255 
0.56249 4.05906 -1.11182 66 65 134 255 
0.544369 3.93866 -1.12063 66 63 133 255 
0.523329 3.81054 -1.12693 68 59 132 255 
1.32473 9.4136 2.85566 53 94 141 255 
1.38971 9.93711 2.90181 63 71 136 255 
1.33278 9.55498 2.68818 52 97 141 255 
1.34682 9.65423 2.61736 63 71 136 255 
1.3238 9.44272 2.47482 54 92 141 255 
1.38295 9.87624 2.48275 47 107 142 255 
1.39364 9.94058 2.39689 67 61 132 255 
1.37433 9.78905 2.26398 50 102 142 255 
1.87646 13.4019 2.98525 72 27 109 255 
1.86005 13.2665 2.81572 55 90 140 255 
1.98992 14.1399 2.86104 69 56 130 255 
3.52516 24.9826 4.81289 71 17 100 255 
1.91834 13.701 2.52415 68 58 131 255 
3.29997 23.5067 4.09586 72 29 111 255 
3.43031 24.3134 3.99451 72 26 108 255 
3.4616 24.3785 3.77665 72 29 111 255 
3.52266 25.1273 3.68344 70 8 92 255 
0 0 0 68 2 86 255 
0 0 0 68 2 86 255 
0 0 0 69 4 87 255 
0 0 0 68 2 86 255 
0 0 0 68 2 86 255 
0 0 0 68 2 86 255 
2.95708 20.6958 1.67471 59 81 139 255 
0 0 0 68 2 86 255 
0 0 0 68 1 84 255 
0 0 0 68 2 86 255 
5.68505 39.6894 1.75757 70 10 93 255 
4.01661 28.5421 1.03676 71 14 97 255 
2.72681 19.253 0.515982 71 46 124 255 
2.7227 19.1051 0.330113 72 27 109 255 
2.03078 14.1425 0.112217 67 61 132 255 
1.98879 14.1146 -0.00248779 68 59 132 255 
1.78228 12.5525 -0.121708 61 77 138 255 
1.7499 12.2484 -0.233249 63 71 136 255 
1.68517 11.7066 -0.334497 61 77 138 255 
1.62748 11.5068 -0.422073 57 86 140 255 
1.54135 10.8285 -0.498588 67 61 132 255 
1.50368 10.5119 -0.584395 58 83 139 255 
1.48451 10.3 -0.671127 63 72 137 255 
1.41736 10.0086 -0.733448 56 88 140 255 
1.41359 9.90618 -0.81917 54 93 141 255 
1.42623 9.93334 -0.916808 57 86 140 255 
1.3803 9.57694 -0.976018 67 62 133 255 
1.27313 8.9564 -0.985952 65 68 135 255 
1.19206 8.34327 -0.999011 66 63 133 255 
1.13337 7.88386 -1.02033 66 64 134 255 
1.07366 7.431 -1.03383 69 56 130 255 
0.999896 7.00791 -1.03396 64 70 136 255 
0.95493 6.66699 -1.04745 64 69 136 255 
0.913122 6.34395 -1.05761 61 78 138 255 
0.867562 6.00457 -1.06103 66 65 134 255 
0.82048 5.72192 -1.06091 59 81 139 255 
0.786802 5.47277 -1.06673 58 83 139 255 
0.754241 5.24011 -1.07421 55 90 140 255 
0.727643 5.04237 -1.08568 61 78 138 255 
0.696491 4.83924 -1.08478 54 92 141 255 
0.675953 4.69011 -1.09747 57 85 140 255 
0.647987 4.4908 -1.09685 63 71 136 255 
0.623066 4.32835 -1.10328 62 76 138 255 
0.606641 4.18907 -1.1065 64 70 136 255 
0.589322 4.0689 -1.11549 61 78 138 255 
0.570453 3.94858 -1.12442 61 78 138 255 
0.544791 3.79396 -1.12299 66 63 133 255 
1.4379 9.78241 2.97016 72 37 118 255 
1.38288 9.46454 2.76623 50 102 142 255 
1.39222 9.55234 2.68979 53 95 141 255 
1.38207 9.4814 2.57276 50 100 142 255 
1.3834 9.44592 2.47783 52 97 141 255 
1.87615 12.8249 3.22683 72 40 120 255 
1.92299 13.1299 3.16869 72 33 115 255 
1.4297 9.74861 2.25661 50 102 142 255 
1.93138 13.2037 2.94368 63 72 137 255 
1.92667 13.1542 2.79432 72 33 115 255 
1.91793 13.0477 2.64238 62 76 138 255 
1.98821 13.4914 2.60141 68 57 131 255 
3.7043 25.324 4.66959 72 23 105 255 
3.47775 23.7152 4.13582 72 28 110 255 
3.54432 24.0536 3.95533 72 26 108 255 
3.61445 24.3793 3.78014 72 20 103 255 
3.79336 25.9013 3.80024 71 16 99 255 
3.8132 25.9711 3.55374 71 17 100 255 
0 0 0 69 4 87 255 
3.90348 26.2657 3.0959 70 8 92 255 
3.84276 26.2386 2.87615 71 19 101 255 
0 0 0 68 2 86 255 
0 0 0 68 1 84 255 
3.08195 20.6635 1.6736 71 42 122 255 
0 0 0 68 2 86 255 
0 0 0 68 1 84 255 
3.07263 20.6773 1.11384 70 10 93 255 
6.06851 40.5905 1.79909 69 5 89 255 
4.31548 29.3593 1.06738 71 14 97 255 
2.84489 19.2359 0.515982 69 55 129 255 
2.85547 19.1929 0.331926 72 38 119 255 
2.08788 13.932 0.110646 65 66 135 255 
2.00547 13.6272 -0.00240402 68 59 132 255 
1.86015 12.5473 -0.121765 65 68 135 255 
1.82001 12.2038 -0.232609 63 71 136 255 
1.78443 11.8789 -0.339727 65 66 135 255 
1.70857 11.5678 -0.424686 58 84 140 255 
1.61188 10.8465 -0.499863 62 73 137 255 
1.56948 10.5114 -0.58489 63 71 136 255 
1.54664 10.2837 -0.670676 62 74 137 255 
1.47174 9.95232 -0.729975 51 98 141 255 
1.47406 9.89534 -0.819007 50 100 142 255 
1.48877 9.93524 -0.917808 56 88 140 255 
1.43475 9.53976 -0.973107 68 59 132 255 
1.32733 8.9435 -0.98541 61 78 138 255 
1.24674 8.35937 -1.00184 64 70 136 255 
1.18084 7.87088 -1.01957 63 71 136 255 
1.11909 7.42329 -1.03369 66 65 134 255 
1.04025 6.98403 -1.03136 62 74 137 255 
0.994798 6.65417 -1.04638 59 82 139 255 
0.951152 6.33237 -1.05663 58 84 140 255 
0.902187 5.98452 -1.05845 63 71 136 255 
0.852225 5.69441 -1.05676 60 79 138 255 
0.820514 5.46881 -1.06692 58 83 139 255 
0.787253 5.2412 -1.07541 60 80 139 255 
0.759152 5.04168 -1.08651 62 73 137 255 
0.728056 4.84742 -1.0876 59 82 139 255 
0.699937 4.65408 -1.09002 60 80 139 255 
0.673359 4.47232 -1.09333 63 71 136 255 
0.647885 4.31294 -1.10035 63 71 136 255 
0.629876 4.169 -1.1022 65 68 135 255 
0.61197 4.04994 -1.1113 65 66 135 255 
0.593953 3.94025 -1.12307 65 68 135 255 
0.5655 3.77346 -1.11793 65 68 135 255 
1.45118 9.46858 2.87752 57 86 140 255 
1.43919 9.44448 2.7629 57 86 140 255 
1.72414 11.3417 3.19656 72 35 116 255 
1.43601 9.44506 2.56524 48 106 142 255 
1.43534 9.39802 2.46753 50 101 142 255 
1.48766 9.75109 2.45569 55 91 141 255 
2.0182 13.214 3.19191 68 59 132 255 
2.01997 13.2085 3.06031 70 50 126 255 
2.02356 13.2649 2.96005 72 31 112 255 
3.53535 23.1459 4.92138 72 29 111 255 
2.01831 13.1684 2.6693 56 89 140 255 
3.8082 24.786 4.78366 72 20 103 255 
3.61172 23.6757 4.36966 71 14 97 255 
3.75175 24.534 4.28256 72 26 108 255 
3.79646 24.7124 4.06741 72 23 105 255 
3.72684 24.1164 3.74285 72 28 110 255 
3.68268 24.1127 3.54106 71 14 97 255 
3.96574 25.9031 3.5477 72 20 103 255 
3.9785 25.8073 3.28485 72 20 103 255 
4.00101 25.8309 3.0475 72 24 106 255 
3.99587 26.1634 2.87054 72 24 106 255 
0 0 0 68 2 86 255 
0 0 0 68 2 86 255 
2.99726 19.2839 1.56332 68 57 131 255 
0 0 0 68 2 86 255 
0 0 0 68 1 84 255 
3.20097 20.6679 1.11438 67 61 132 255 
5.50918 35.3641 1.56891 69 5 89 255 
4.55005 29.6879 1.08032 72 22 104 255 
2.96393 19.225 0.516167 71 45 123 255 
2.97808 19.2066 0.332473 72 37 118 255 
2.20618 14.1294 0.112319 68 59 132 255 
2.02535 13.1995 -0.00233071 65 68 135 255 
1.95085 12.6246 -0.122629 66 65 134 255 
1.8967 12.2043 -0.232835 58 83 139 255 
1.85729 11.8677 -0.339727 63 72 137 255 
1.75579 11.403 -0.419024 57 85 140 255 
1.76097 11.3695 -0.524454 57 85 140 255 
1.63395 10.5016 -0.58489 62 76 138 255 
1.60292 10.2307 -0.667844 59 82 139 255 
1.52989 9.92437 -0.728599 55 90 140 255 
1.53842 9.90975 -0.820965 48 106 142 255 
1.5474 9.91116 -0.916444 53 94 141 255 
1.48956 9.50718 -0.970699 66 64 134 255 
1.37626 8.89687 -0.981185 62 73 137 255 
1.30106 8.37119 -1.00419 64 70 136 255 
1.22942 7.86544 -1.01982 63 71 136 255 
1.16369 7.41041 -1.03288 66 63 133 255 
1.08339 6.97947 -1.03165 56 89 140 255 
1.03454 6.6411 -1.0453 56 88 140 255 
0.986632 6.30497 -1.05305 59 81 139 255 
0.940418 5.9886 -1.06017 57 85 140 255 
0.88624 5.68324 -1.05568 56 88 140 255 
0.850415 5.44039 -1.06237 58 84 140 255 
0.815306 5.21013 -1.07004 58 83 139 255 
0.787799 5.02243 -1.08339 62 76 138 255 
0.751145 4.80043 -1.07807 60 80 139 255 
0.727576 4.64393 -1.08867 58 83 139 255 
0.697625 4.44794 -1.08839 61 78 138 255 
0.675236 4.31463 -1.10182 62 76 138 255 
0.656196 4.16984 -1.10346 60 80 139 255 
0.636358 4.04325 -1.11052 63 71 136 255 
0.611848 3.89659 -1.11167 66 64 134 255 
0.583017 3.73389 -1.10724 66 64 134 255 
1.50925 9.45949 2.87752 63 71 136 255 
1.50178 9.46488 2.77151 60 79 138 255 
1.49352 9.43463 2.66161 68 58 131 255 
1.48896 9.40459 2.55668 62 74 137 255 
1.82556 11.4806 3.01721 64 69 136 255 
1.81585 11.4314 2.8816 70 50 126 255 
2.10367 13.2292 3.19865 72 40 120 255 
2.08228 13.0784 3.03308 72 41 121 255 
2.11885 13.34 2.97965 72 22 104 255 
2.09932 13.201 2.80954 66 65 134 255 
2.0949 13.1297 2.66399 72 32 113 255 
3.99186 24.96 4.82188 71 17 100 255 
3.78717 23.8436 4.40484 71 19 101 255 
3.90036 24.4989 4.28052 72 24 106 255 
3.87243 24.2159 3.98953 72 31 112 255 
3.88541 24.1594 3.75315 70 11 94 255 
3.8245 24.0515 3.53546 72 36 117 255 
4.12086 25.8548 3.54448 72 29 111 255 
4.12609 25.7158 3.27636 72 27 109 255 
4.15611 25.7853 3.04507 72 23 105 255 
4.21363 26.4987 2.91011 72 31 112 255 
4.2334 26.4718 2.65218 72 23 105 255 
6.95172 43.2783 3.91971 69 5 89 255 
3.11744 19.277 1.56428 54 92 141 255 
0 0 0 69 4 87 255 
0 0 0 68 1 84 255 
3.32677 20.642 1.11406 63 72 137 255 
6.87304 42.4064 1.88318 69 5 89 255 
4.78692 30.0029 1.09283 72 24 106 255 
3.08437 19.2223 0.516592 70 48 126 255 
3.09747 19.1979 0.332644 71 46 124 255 
2.29733 14.1432 0.112539 63 71 136 255 
2.08832 13.0743 -0.00231082 60 80 139 255 
2.08114 12.9411 -0.125826 66 65 134 255 
1.98543 12.2783 -0.234475 64 70 136 255 
1.94485 11.9469 -0.342328 63 71 136 255 
1.83253 11.4345 -0.420585 59 82 139 255 
