ply
format ascii 1.0
comment VTK generated PLY File
obj_info vtkPolyData points and polygons: vtk4.0
element vertex 1261
property float x
property float y
property float z
property uchar red
property uchar green
property uchar blue
property uchar alpha
element face 0
property list uchar int vertex_indices
end_header
3.46878 2.09529 -1.09952 64 70 136 255 
3.3104 2.00125 -1.09024 66 64 134 255 
3.19876 1.93751 -1.09572 66 63 133 255 
7.792 4.68433 2.73109 44 113 142 255 
7.79849 4.69734 2.63288 66 65 134 255 
14.3392 8.64408 4.66533 69 53 129 255 
14.7892 8.91492 4.63673 72 31 112 255 
14.5103 8.7335 4.39568 72 28 110 255 
14.2115 8.55674 4.12986 71 45 123 255 
0 0 0 68 1 84 255 
0 0 0 68 2 86 255 
0 0 0 69 4 87 255 
45.9228 27.6393 11.2657 70 7 90 255 
0 0 0 69 4 87 255 
0 0 0 69 4 87 255 
32.6408 19.6537 6.95161 70 10 93 255 
32.8083 19.7383 6.60664 70 8 92 255 
33.0998 19.8827 6.28151 70 10 93 255 
33.0582 19.8177 5.91172 69 4 87 255 
32.3123 19.4482 5.47494 70 10 93 255 
26.7241 16.0716 4.22185 71 13 96 255 
26.7499 16.0493 3.92427 71 16 99 255 
33.1832 19.8769 4.50975 70 8 92 255 
32.5774 19.6078 4.12391 70 10 93 255 
32.4133 19.4699 3.74076 69 5 89 255 
26.2918 15.7682 2.74152 70 8 92 255 
28.98 17.3386 2.70527 70 7 90 255 
32.7517 19.7049 2.75994 70 10 93 255 
28.9576 17.3873 2.11912 71 19 101 255 
29.0951 17.4288 1.80714 70 11 94 255 
47.8267 28.5919 2.4426 69 5 89 255 
47.8216 28.749 2.00701 70 10 93 255 
47.8989 28.7376 1.48221 70 7 90 255 
47.2885 28.3159 0.942842 70 7 90 255 
41.8813 25.0177 0.38316 69 5 89 255 
34.4879 20.7249 -0.00702251 70 8 92 255 
25.6659 15.3865 -0.287265 70 11 94 255 
20.4696 12.2473 -0.449686 72 28 110 255 
16.1572 9.64386 -0.532165 72 22 104 255 
14.9425 8.96882 -0.632946 72 33 115 255 
13.3894 8.02044 -0.711475 72 36 117 255 
11.8967 7.11514 -0.762873 72 36 117 255 
10.9 6.50336 -0.818571 71 44 122 255 
10.1116 6.06682 -0.855605 63 72 137 255 
9.21974 5.51839 -0.879628 71 42 122 255 
8.5356 5.0989 -0.908346 71 45 123 255 
7.94361 4.73948 -0.933063 71 46 124 255 
7.405 4.43763 -0.94088 62 74 137 255 
6.95625 4.16195 -0.960873 55 91 141 255 
6.62133 3.95381 -0.987927 57 85 140 255 
6.20486 3.69914 -0.994681 58 83 139 255 
5.88036 3.51977 -1.00101 52 97 141 255 
5.60351 3.34995 -1.01534 50 100 142 255 
5.31879 3.17476 -1.02212 53 95 141 255 
5.04529 3.00784 -1.02726 60 80 139 255 
4.8437 2.89468 -1.03564 60 80 139 255 
4.64512 2.7737 -1.0438 63 71 136 255 
4.44069 2.65063 -1.04936 64 70 136 255 
4.26043 2.54094 -1.05713 64 70 136 255 
4.10001 2.44733 -1.05944 65 66 135 255 
3.99484 2.38351 -1.07739 62 73 137 255 
3.82923 2.28383 -1.07782 66 64 134 255 
3.68502 2.1995 -1.08273 65 68 135 255 
3.56243 2.12224 -1.08399 62 76 138 255 
3.46913 2.06656 -1.09559 64 69 136 255 
3.32179 1.9804 -1.08997 67 61 132 255 
3.20647 1.91538 -1.09431 67 61 132 255 
7.71432 4.57342 2.69397 70 52 128 255 
7.9494 4.72201 2.674 67 62 133 255 
14.0931 8.37823 4.56843 69 55 129 255 
14.7191 8.74998 4.59783 72 38 119 255 
14.0992 8.36863 4.2555 72 40 120 255 
14.8586 8.82263 4.30211 72 26 108 255 
15.1115 8.96941 4.19619 69 5 89 255 
0 0 0 68 2 86 255 
0 0 0 69 4 87 255 
0 0 0 69 4 87 255 
0 0 0 69 4 87 255 
0 0 0 68 2 86 255 
32.7667 19.4565 6.95287 70 8 92 255 
32.933 19.5392 6.60749 70 8 92 255 
33.042 19.573 6.24763 69 5 89 255 
33.0192 19.5199 5.88322 70 10 93 255 
33.2072 19.7103 5.60597 70 7 90 255 
32.4528 19.2466 5.10811 70 7 90 255 
36.0573 21.3337 5.27039 70 10 93 255 
33.3011 19.6709 4.50929 70 8 92 255 
32.9664 19.5673 4.15787 70 8 92 255 
32.2933 19.1292 3.71329 70 11 94 255 
32.5838 19.2709 3.38521 70 7 90 255 
32.6582 19.2681 3.03753 70 7 90 255 
32.9183 19.5311 2.76383 70 7 90 255 
29.2733 17.3333 2.1344 70 10 93 255 
29.1422 17.2149 1.80347 71 16 99 255 
0 0 0 69 4 87 255 
61.6731 36.5628 2.57888 69 5 89 255 
61.7538 36.5366 1.90398 69 5 89 255 
47.4639 28.0267 0.942893 69 4 87 255 
42.1374 24.8212 0.384103 70 7 90 255 
35.9323 21.294 -0.00728989 69 4 87 255 
26.526 15.6816 -0.295808 70 11 94 255 
20.6029 12.156 -0.450968 72 26 108 255 
15.9749 9.40257 -0.524249 72 22 104 255 
15.0102 8.8846 -0.633491 72 33 115 255 
13.4211 7.92798 -0.710565 72 40 120 255 
11.9281 7.03491 -0.762104 72 37 118 255 
10.9543 6.44496 -0.819665 71 44 122 255 
10.1332 5.99552 -0.854302 63 71 136 255 
9.25514 5.46273 -0.879792 72 38 119 255 
8.56672 5.04643 -0.908346 71 44 122 255 
8.01456 4.71537 -0.937981 72 37 118 255 
7.45092 4.40324 -0.943264 58 83 139 255 
6.96541 4.1096 -0.958636 56 89 140 255 
6.62495 3.90103 -0.984878 56 89 140 255 
6.21975 3.65647 -0.993454 59 82 139 255 
5.91293 3.49016 -1.00289 50 101 142 255 
5.62056 3.3135 -1.01472 55 91 141 255 
5.33987 3.14306 -1.02244 51 98 141 255 
5.07045 2.98082 -1.02864 61 78 138 255 
4.85374 2.86041 -1.03401 60 79 138 255 
4.65359 2.74016 -1.04191 62 73 137 255 
4.4611 2.62582 -1.05035 61 77 138 255 
4.28269 2.51872 -1.05879 64 70 136 255 
4.1099 2.41915 -1.05814 63 71 136 255 
4.01023 2.35944 -1.07761 61 77 138 255 
3.84987 2.26424 -1.0797 64 70 136 255 
3.68424 2.16849 -1.07858 66 63 133 255 
3.56037 2.09152 -1.07944 65 66 135 255 
3.47842 2.04328 -1.09454 68 57 131 255 
3.34301 1.96535 -1.09296 64 69 136 255 
3.20741 1.88934 -1.09066 68 59 132 255 
15.1496 8.85625 5.27143 72 29 111 255 
13.575 7.95139 4.54982 71 46 124 255 
13.5708 7.95546 4.38322 71 45 123 255 
14.3642 8.42018 4.47076 72 37 118 255 
14.1686 8.29272 4.26102 72 40 120 255 
14.8429 8.69059 4.28206 68 59 132 255 
15.1562 8.87063 4.1934 72 32 113 255 
15.046 8.80225 3.99238 70 7 90 255 
0 0 0 69 4 87 255 
0 0 0 69 4 87 255 
0 0 0 68 2 86 255 
34.9247 20.399 7.71543 70 10 93 255 
33.2496 19.4684 7.02987 70 10 93 255 
32.7053 19.1337 6.53811 71 13 96 255 
33.1819 19.3819 6.25148 69 5 89 255 
33.2826 19.4011 5.90884 70 7 90 255 
32.9124 19.2632 5.53614 70 7 90 255 
33.8671 19.8055 5.31149 70 8 92 255 
36.4395 21.2591 5.30708 69 5 89 255 
35.1876 20.4951 4.74762 70 8 92 255 
33.3681 19.5299 4.19335 70 7 90 255 
33.3579 19.4843 3.82188 70 7 90 255 
32.7419 19.0942 3.3894 70 11 94 255 
32.7551 19.0553 3.03561 70 7 90 255 
32.9919 19.302 2.76001 70 7 90 255 
36.2474 21.1636 2.63339 70 7 90 255 
0 0 0 68 2 86 255 
0 0 0 69 4 87 255 
62.3363 36.4409 2.59721 69 4 87 255 
62.0062 36.1742 1.90488 70 7 90 255 
48.3547 28.154 0.95714 70 7 90 255 
42.8146 24.8675 0.388878 69 4 87 255 
36.1867 21.1457 -0.00731502 69 4 87 255 
26.6251 15.5205 -0.295846 71 14 97 255 
20.4248 11.8826 -0.445464 71 19 101 255 
17.1709 9.96517 -0.561482 72 26 108 255 
15.0747 8.79838 -0.633926 72 28 110 255 
13.5308 7.88118 -0.713798 72 35 116 255 
12.028 6.99472 -0.765731 71 42 122 255 
11.0014 6.38213 -0.820244 71 46 124 255 
10.175 5.93625 -0.854737 61 77 138 255 
9.30313 5.41436 -0.881179 72 40 120 255 
8.62853 5.01177 -0.911622 72 41 121 255 
8.04248 4.6656 -0.93788 71 46 124 255 
7.47952 4.35844 -0.94348 62 76 138 255 
6.98534 4.06379 -0.95793 54 92 141 255 
6.6359 3.85283 -0.982972 59 81 139 255 
6.2395 3.61675 -0.993044 56 88 140 255 
5.93594 3.45481 -1.00318 51 98 141 255 
5.63395 3.27498 -1.01349 51 98 141 255 
5.3454 3.10231 -1.01984 53 95 141 255 
5.09035 2.95064 -1.02899 57 85 140 255 
4.8559 2.82168 -1.03076 64 70 136 255 
4.65334 2.70169 -1.03812 64 70 136 255 
4.47034 2.59446 -1.04876 62 74 137 255 
4.29129 2.48847 -1.05713 63 71 136 255 
4.12635 2.39487 -1.05857 64 70 136 255 
4.01789 2.33088 -1.07581 62 74 137 255 
3.86453 2.24106 -1.07993 61 78 138 255 
3.69748 2.14584 -1.07858 67 62 133 255 
3.57062 2.06818 -1.07868 65 68 135 255 
3.46249 2.00545 -1.08564 67 62 133 255 
3.3625 1.94914 -1.0954 66 63 133 255 
3.24052 1.88216 -1.09797 67 61 132 255 
15.3398 8.84156 5.31861 72 24 106 255 
13.6751 7.89773 4.56704 70 52 128 255 
14.0864 8.14199 4.53354 71 45 123 255 
14.342 8.28935 4.44794 71 47 125 255 
14.3006 8.25255 4.28539 72 41 121 255 
14.9565 8.63429 4.29946 69 55 129 255 
15.1775 8.7585 4.18435 72 29 111 255 
15.1985 8.76675 4.0185 72 33 115 255 
0 0 0 68 2 86 255 
45.7999 26.4293 11.1144 69 5 89 255 
0 0 0 68 2 86 255 
35.0943 20.2103 7.72536 70 7 90 255 
34.4488 19.8877 7.25746 71 13 96 255 
33.1131 19.1006 6.5961 70 8 92 255 
34.5302 19.8863 6.48238 70 8 92 255 
33.8501 19.4546 5.98828 70 8 92 255 
33.4123 19.2815 5.60022 70 7 90 255 
33.6789 19.4191 5.2632 70 8 92 255 
35.2362 20.2683 5.11362 69 5 89 255 
33.9776 19.5121 4.56812 70 7 90 255 
35.2482 20.341 4.41385 69 5 89 255 
33.9589 19.5568 3.87692 70 7 90 255 
32.9016 18.9178 3.39385 71 19 101 255 
32.7287 18.7722 3.02244 70 10 93 255 
33.1011 19.0942 2.75929 69 5 89 255 
0 0 0 69 4 87 255 
0 0 0 69 4 87 255 
0 0 0 68 2 86 255 
62.3743 35.9514 2.58955 69 4 87 255 
63.7356 36.6608 1.95106 69 4 87 255 
48.5864 27.8911 0.95832 69 4 87 255 
0 0 0 68 2 86 255 
36.4561 21.0042 -0.0073433 69 5 89 255 
26.7259 15.3604 -0.295913 71 13 96 255 
20.6994 11.8729 -0.449856 72 22 104 255 
17.1927 9.83729 -0.56021 72 26 108 255 
15.2012 8.74759 -0.636975 72 28 110 255 
13.5763 7.79651 -0.713661 72 37 118 255 
12.0585 6.91383 -0.764961 72 37 118 255 
11.0507 6.32045 -0.821017 71 47 125 255 
10.219 5.87818 -0.855388 62 73 137 255 
9.34482 5.36214 -0.881994 71 46 124 255 
8.67035 4.96517 -0.912804 71 46 124 255 
8.06578 4.6132 -0.937278 71 42 122 255 
7.49233 4.30454 -0.941747 61 77 138 255 
7.02134 4.02728 -0.95946 58 84 140 255 
6.66716 3.81648 -0.984115 57 86 140 255 
6.26416 3.57987 -0.993454 57 85 140 255 
5.9493 3.41389 -1.00187 53 94 141 255 
5.66423 3.24624 -1.01534 52 96 141 255 
5.36433 3.06946 -1.01984 54 93 141 255 
5.10494 2.9174 -1.0283 53 95 141 255 
4.88848 2.80063 -1.03401 63 72 137 255 
4.67409 2.67553 -1.03907 61 77 138 255 
4.47427 2.56017 -1.04598 62 74 137 255 
4.30988 2.46403 -1.05796 64 69 136 255 
4.14097 2.36951 -1.05857 60 79 138 255 
4.02451 2.30183 -1.07378 59 82 139 255 
3.86808 2.21152 -1.07711 63 72 137 255 
3.7232 2.13034 -1.08225 65 66 135 255 
3.60845 2.06062 -1.08626 65 68 135 255 
3.50239 1.99996 -1.09428 66 64 134 255 
3.34932 1.91415 -1.08726 68 57 131 255 
3.23202 1.85079 -1.09122 67 61 132 255 
13.7409 7.80805 4.74754 68 57 131 255 
15.2986 8.71059 5.09129 72 22 104 255 
14.6199 8.33107 4.68868 72 28 110 255 
14.4354 8.22558 4.46116 67 61 132 255 
14.6395 8.32882 4.37156 70 50 126 255 
14.4914 8.24764 4.15112 72 28 110 255 
15.2064 8.65126 4.17761 71 14 97 255 
15.2504 8.67236 4.01806 72 31 112 255 
0 0 0 68 1 84 255 
45.564 25.9218 11.0183 69 5 89 255 
45.5565 25.8865 10.4986 70 7 90 255 
35.0237 19.8845 7.68282 70 10 93 255 
34.7044 19.7523 7.28564 71 13 96 255 
34.871 19.8304 6.92189 70 10 93 255 
34.0155 19.3129 6.3634 70 10 93 255 
33.6773 19.0813 5.93689 70 8 92 255 
34.0607 19.3781 5.68886 70 7 90 255 
33.9982 19.3262 5.29446 70 8 92 255 
33.8357 19.1874 4.8932 70 10 93 255 
25.2611 14.3011 3.38437 71 16 99 255 
33.5629 19.0949 4.18806 69 5 89 255 
33.167 18.8307 3.77325 71 19 101 255 
33.1271 18.7779 3.40516 70 8 92 255 
33.1791 18.7609 3.05334 70 10 93 255 
0 0 0 68 2 86 255 
39.275 22.2896 2.83326 70 8 92 255 
33.8077 19.1403 2.07003 70 11 94 255 
33.7784 19.0842 1.70069 70 7 90 255 
33.7262 19.1645 1.39528 71 13 96 255 
33.7671 19.1481 1.03005 71 13 96 255 
33.861 19.1627 0.665544 71 14 97 255 
33.8374 19.1019 0.305187 69 5 89 255 
33.7305 19.1591 -0.00677048 70 8 92 255 
12.3628 7.00478 -0.136404 72 37 118 255 
12.4351 7.03157 -0.269307 67 61 132 255 
12.452 7.02369 -0.404326 67 61 132 255 
12.3749 7.02046 -0.51673 72 40 120 255 
12.4477 7.04717 -0.652049 70 48 126 255 
12.1155 6.84806 -0.765896 72 33 115 255 
11.1015 6.25939 -0.821918 71 46 124 255 
10.2679 5.82275 -0.856474 62 73 137 255 
9.41138 5.32383 -0.885177 71 46 124 255 
8.70499 4.91432 -0.913259 71 45 123 255 
8.0714 4.55092 -0.934669 71 44 122 255 
7.50908 4.25309 -0.940555 62 73 137 255 
7.05543 3.9895 -0.960755 56 89 140 255 
6.68268 3.77111 -0.982972 59 81 139 255 
6.29118 3.54429 -0.994272 58 83 139 255 
5.9822 3.38415 -1.0039 50 100 142 255 
5.6763 3.20705 -1.01395 53 95 141 255 
5.38478 3.03745 -1.02016 54 92 141 255 
5.12617 2.88795 -1.02899 50 101 142 255 
4.89016 2.76188 -1.03076 62 74 137 255 
4.68785 2.64535 -1.0385 67 62 133 255 
4.49758 2.537 -1.04777 62 74 137 255 
4.33003 2.44042 -1.05921 65 66 135 255 
4.16904 2.35173 -1.06204 65 68 135 255 
4.01564 2.26418 -1.06769 62 74 137 255 
3.87057 2.18154 -1.07406 65 68 135 255 
3.74211 2.11079 -1.08396 65 66 135 255 
3.62861 2.04271 -1.08854 63 72 137 255 
3.51375 1.97796 -1.09402 66 63 133 255 
3.40293 1.91718 -1.10082 66 63 133 255 
3.26087 1.84083 -1.09712 68 57 131 255 
15.0193 8.41302 5.17131 72 40 120 255 
14.8918 8.35842 4.93877 70 51 127 255 
14.538 8.16667 4.64627 70 51 127 255 
14.478 8.1326 4.45883 71 44 122 255 
14.5451 8.1574 4.32835 70 48 126 255 
14.656 8.22266 4.18374 71 14 97 255 
15.2355 8.54447 4.17111 72 27 109 255 
15.3339 8.59578 4.02609 71 19 101 255 
0 0 0 68 1 84 255 
45.6667 25.6106 11.0049 70 8 92 255 
45.7803 25.6434 10.5137 70 8 92 255 
34.8742 19.5177 7.62361 70 11 94 255 
35.241 19.7725 7.37269 70 8 92 255 
35.5894 19.951 7.04006 70 11 94 255 
34.813 19.4842 6.49009 70 7 90 255 
33.7567 18.8536 5.93037 71 16 99 255 
35.2432 19.7656 5.866 69 5 89 255 
34.4999 19.3323 5.35402 70 7 90 255 
33.6809 18.8274 4.85401 70 11 94 255 
25.3397 14.141 3.38321 71 14 97 255 
33.4193 18.7427 4.15572 70 8 92 255 
33.6466 18.831 3.8146 71 13 96 255 
33.193 18.5471 3.40018 71 13 96 255 
25.2353 14.0655 2.31432 70 8 92 255 
33.3077 18.6725 2.7572 70 7 90 255 
0 0 0 68 2 86 255 
0 0 0 68 2 86 255 
0 0 0 68 2 86 255 
0 0 0 68 2 86 255 
66.4328 37.1348 2.01952 69 5 89 255 
49.3214 27.5139 0.966085 70 7 90 255 
0 0 0 68 2 86 255 
12.424 6.95645 -0.00248517 70 7 90 255 
27.6641 15.4511 -0.304178 70 10 93 255 
21.2217 11.8288 -0.458017 72 27 109 255 
17.071 9.4915 -0.552407 72 33 115 255 
15.583 8.71452 -0.648444 72 29 111 255 
13.6335 7.60839 -0.711703 72 37 118 255 
12.2105 6.80324 -0.769248 71 42 122 255 
11.1406 6.19164 -0.821982 71 46 124 255 
10.3095 5.76304 -0.85698 63 72 137 255 
9.42907 5.25774 -0.883789 72 36 117 255 
8.71148 4.84774 -0.910803 71 45 123 255 
8.10091 4.50228 -0.934869 71 44 122 255 
7.52983 4.20403 -0.939905 62 74 137 255 
7.08065 3.94661 -0.960873 55 91 141 255 
6.71003 3.73245 -0.983607 60 80 139 255 
6.31368 3.5061 -0.994409 57 86 140 255 
6.01235 3.35268 -1.00549 53 94 141 255 
5.69069 3.16928 -1.01303 56 88 140 255 
5.40936 3.00771 -1.0213 52 97 141 255 
5.14638 2.85788 -1.0295 51 98 141 255 
4.9199 2.739 -1.03347 64 69 136 255 
4.7306 2.63133 -1.04437 64 70 136 255 
4.51648 2.51126 -1.04856 66 64 134 255 
4.36031 2.42235 -1.06296 63 71 136 255 
4.18851 2.32895 -1.06334 65 66 135 255 
4.04989 2.25085 -1.0731 61 77 138 255 
3.86944 2.14972 -1.07006 62 73 137 255 
3.76008 2.09061 -1.08543 64 70 136 255 
3.64361 2.02182 -1.0893 62 76 138 255 
3.52836 1.95777 -1.0948 65 66 135 255 
3.39107 1.88318 -1.09323 67 61 132 255 
3.27713 1.82359 -1.09881 68 59 132 255 
15.0019 8.28274 5.14772 70 52 128 255 
15.0269 8.31339 4.96655 69 55 129 255 
14.6612 8.11791 4.66962 70 51 127 255 
14.5834 8.07448 4.47595 69 53 129 255 
14.7508 8.15417 4.37458 72 31 112 255 
15.1358 8.3702 4.30598 68 59 132 255 
15.3404 8.48001 4.18551 72 37 118 255 
15.4819 8.55433 4.0511 72 24 106 255 
0 0 0 68 1 84 255 
0 0 0 69 4 87 255 
0 0 0 69 4 87 255 
34.9959 19.3047 7.62417 70 11 94 255 
35.8731 19.8386 7.47931 70 7 90 255 
35.2747 19.4911 6.95402 69 5 89 255 
33.6502 18.5632 6.25197 71 16 99 255 
23.6237 13.0047 4.13611 71 19 101 255 
23.4887 12.9844 3.8962 72 23 105 255 
34.0072 18.783 5.25957 70 7 90 255 
25.3455 13.9646 3.64032 72 27 109 255 
33.5303 18.443 4.46158 70 8 92 255 
35.8472 19.8162 4.44242 70 8 92 255 
35.1653 19.3986 3.9732 70 7 90 255 
33.5409 18.4723 3.42414 69 5 89 255 
25.2303 13.8604 2.30602 71 17 100 255 
0 0 0 69 4 87 255 
39.9546 22.0315 2.86257 69 5 89 255 
0 0 0 68 2 86 255 
0 0 0 68 1 84 255 
67.5853 37.3148 2.7769 70 8 92 255 
0 0 0 69 4 87 255 
49.7364 27.3466 0.970908 69 4 87 255 
0 0 0 68 2 86 255 
12.5129 6.9057 -0.00249442 69 5 89 255 
27.7776 15.2916 -0.304389 70 10 93 255 
21.286 11.694 -0.457847 72 26 108 255 
17.1622 9.40483 -0.553481 72 28 110 255 
15.6922 8.64962 -0.650767 71 42 122 255 
13.6992 7.53518 -0.712705 72 37 118 255 
12.2529 6.72867 -0.769303 72 40 120 255 
11.1845 6.12652 -0.822433 64 70 136 255 
10.349 5.70208 -0.857342 61 77 138 255 
9.4629 5.20074 -0.883953 71 42 122 255 
8.75154 4.79995 -0.911895 71 42 122 255 
8.13362 4.45536 -0.935472 72 38 119 255 
7.55722 4.15871 -0.940121 63 71 136 255 
7.10386 3.90262 -0.960755 56 88 140 255 
6.73454 3.69216 -0.983861 61 78 138 255 
6.33246 3.46587 -0.993999 57 86 140 255 
6.01634 3.30667 -1.00274 53 94 141 255 
5.71869 3.13905 -1.01457 52 96 141 255 
5.44674 2.9849 -1.02488 51 98 141 255 
5.16814 2.82861 -1.03036 52 96 141 255 
4.94179 2.7116 -1.03456 61 77 138 255 
4.75612 2.60745 -1.04646 62 73 137 255 
4.56103 2.49951 -1.05532 65 66 135 255 
4.38024 2.39837 -1.06421 66 65 134 255 
4.19758 2.30039 -1.06204 65 66 135 255 
4.06876 2.22877 -1.07446 60 79 138 255 
3.88767 2.12874 -1.07147 66 65 134 255 
3.76688 2.06424 -1.08371 63 71 136 255 
3.64237 1.992 -1.08525 63 72 137 255 
3.54792 1.94025 -1.09716 63 72 137 255 
3.39412 1.85772 -1.09052 66 64 134 255 
3.30425 1.81222 -1.10415 66 63 133 255 
15.0423 8.18505 5.14427 69 53 129 255 
15.092 8.22885 4.97127 67 62 133 255 
14.7293 8.03794 4.67553 69 55 129 255 
15.0498 8.21246 4.60353 69 53 129 255 
15.7788 8.5965 4.66374 70 51 127 255 
15.1025 8.2312 4.28206 72 23 105 255 
0 0 0 68 1 84 255 
10.0861 5.49245 2.63033 55 90 140 255 
0 0 0 68 1 84 255 
0 0 0 69 4 87 255 
0 0 0 68 2 86 255 
35.4675 19.282 7.701 70 7 90 255 
35.4914 19.3442 7.37485 70 10 93 255 
25.1357 13.6881 4.93857 71 13 96 255 
23.6776 12.8729 4.38437 72 23 105 255 
23.7352 12.8769 4.14172 72 26 108 255 
34.3725 18.7265 5.6824 69 5 89 255 
25.4051 13.8291 3.91597 70 7 90 255 
25.4412 13.8145 3.64182 72 29 111 255 
33.6079 18.2179 4.45695 71 16 99 255 
35.3649 19.2672 4.36792 71 13 96 255 
37.3977 20.3317 4.21126 69 4 87 255 
35.5829 19.3134 3.62044 70 8 92 255 
25.2579 13.6745 2.30083 70 11 94 255 
34.4006 18.7341 2.82843 69 5 89 255 
24.6089 13.3734 1.7572 72 28 110 255 
0 0 0 69 4 87 255 
0 0 0 68 2 86 255 
65.205 35.4803 2.67011 70 7 90 255 
65.0053 35.2969 1.96281 70 7 90 255 
49.8321 27.0024 0.969523 70 7 90 255 
46.5447 25.1572 0.41555 69 5 89 255 
12.5454 6.82353 -0.0024925 69 5 89 255 
27.8876 15.13 -0.304572 70 11 94 255 
21.3063 11.5356 -0.456754 71 19 101 255 
17.1888 9.28272 -0.552492 72 31 112 255 
15.9022 8.63856 -0.657264 70 48 126 255 
13.7504 7.45384 -0.712978 72 37 118 255 
12.2931 6.65289 -0.769248 72 40 120 255 
11.2333 6.06394 -0.823269 72 41 121 255 
10.3786 5.63562 -0.856908 63 71 136 255 
9.49989 5.14543 -0.884442 70 50 126 255 
8.79047 4.75137 -0.912895 71 42 122 255 
8.15818 4.40395 -0.93517 70 48 126 255 
7.60008 4.12174 -0.942288 61 78 138 255 
7.14252 3.86699 -0.962756 57 86 140 255 
6.76754 3.65642 -0.985386 61 77 138 255 
6.36407 3.43259 -0.995636 56 89 140 255 
6.02781 3.26498 -1.0013 52 96 141 255 
5.73523 3.10249 -1.01411 54 93 141 255 
5.46843 2.9533 -1.02554 53 95 141 255 
5.19667 2.80293 -1.0326 51 99 141 255 
4.96353 2.68403 -1.03564 61 78 138 255 
4.76426 2.57402 -1.04475 63 72 137 255 
4.55731 2.46123 -1.05095 63 71 136 255 
4.38024 2.36356 -1.06067 65 66 135 255 
4.22966 2.28433 -1.06659 64 70 136 255 
4.10121 2.21394 -1.07942 59 82 139 255 
3.91007 2.10992 -1.07406 65 68 135 255 
3.77521 2.03878 -1.08249 62 74 137 255 
3.66815 1.97695 -1.0893 61 78 138 255 
3.53342 1.90425 -1.08904 63 72 137 255 
3.41732 1.84325 -1.09431 66 63 133 255 
3.3153 1.79191 -1.10415 66 64 134 255 
15.0805 8.08626 5.14024 72 33 115 255 
14.6759 7.88556 4.81819 71 42 122 255 
14.7919 7.95472 4.67982 71 47 125 255 
14.9213 8.0239 4.54908 69 55 129 255 
15.0945 8.10394 4.44668 71 44 122 255 
0 0 0 68 1 84 255 
10.0899 5.41699 2.7346 72 36 117 255 
10.1763 5.46088 2.64507 54 92 141 255 
0 0 0 68 2 86 255 
0 0 0 68 1 84 255 
0 0 0 69 4 87 255 
24.245 12.9887 5.24686 70 11 94 255 
25.9089 13.9158 5.36583 70 8 92 255 
25.6229 13.7503 5.01764 72 20 103 255 
23.7935 12.7474 4.39128 72 35 116 255 
25.8326 13.8103 4.49284 70 8 92 255 
34.4667 18.5045 5.67909 70 11 94 255 
25.1926 13.5137 3.87036 72 24 106 255 
25.5228 13.6567 3.64144 71 17 100 255 
25.5528 13.6493 3.37754 70 8 92 255 
36.3925 19.5385 4.47995 69 5 89 255 
26.4376 14.1637 2.96723 71 16 99 255 
26.2152 14.0213 2.65851 72 26 108 255 
25.6051 13.66 2.32478 70 8 92 255 
24.9645 13.3974 2.04579 72 22 104 255 
24.7133 13.2344 1.75883 72 40 120 255 
25.5183 13.6314 1.54152 70 8 92 255 
0 0 0 68 2 86 255 
0 0 0 69 4 87 255 
65.0787 34.8214 1.95854 70 7 90 255 
0 0 0 69 4 87 255 
47.1413 25.1071 0.419493 69 4 87 255 
37.471 20.0839 -0.00742009 70 7 90 255 
28.1651 15.0576 -0.306588 70 10 93 255 
21.5117 11.4766 -0.459638 72 24 106 255 
17.0989 9.09913 -0.547799 72 32 113 255 
15.9848 8.55686 -0.658498 71 47 125 255 
13.7774 7.35945 -0.712022 72 33 115 255 
12.2729 6.54491 -0.765456 71 46 124 255 
11.2773 5.99865 -0.823784 71 45 123 255 
10.413 5.57183 -0.856908 62 74 137 255 
9.53216 5.08751 -0.884524 70 52 128 255 
8.83352 4.70483 -0.914351 69 55 129 255 
8.18592 4.35427 -0.935271 69 56 130 255 
7.61383 4.06894 -0.94088 60 79 138 255 
7.18538 3.83338 -0.965346 54 93 141 255 
6.79423 3.61716 -0.986021 57 86 140 255 
6.38677 3.39441 -0.995909 57 86 140 255 
6.05384 3.23119 -1.00231 51 99 141 255 
5.73236 3.05563 -1.01026 54 92 141 255 
5.47774 2.91505 -1.02391 50 100 142 255 
5.21377 2.77099 -1.0326 50 102 142 255 
4.99379 2.66093 -1.03853 60 80 139 255 
4.78776 2.54889 -1.04646 60 80 139 255 
4.54464 2.41849 -1.04458 62 74 137 255 
4.38257 2.33021 -1.05775 67 61 132 255 
4.21688 2.24412 -1.05987 65 68 135 255 
4.113 2.18782 -1.07897 62 76 138 255 
3.92724 2.08817 -1.07523 61 77 138 255 
3.80134 2.02287 -1.0864 63 71 136 255 
3.67509 1.95169 -1.08778 60 79 138 255 
3.58425 1.90336 -1.10109 62 74 137 255 
3.43451 1.82541 -1.09621 64 70 136 255 
3.3237 1.77018 -1.10331 66 65 134 255 
9.82966 5.19334 3.33956 70 8 92 255 
14.7444 7.80615 4.82486 69 53 129 255 
14.78 7.83178 4.66077 71 47 125 255 
15.0086 7.95255 4.56074 68 59 132 255 
15.031 7.95143 4.41352 68 59 132 255 
10.1078 5.34912 2.84706 70 11 94 255 
0 0 0 68 1 84 255 
10.2019 5.39424 2.64306 70 8 92 255 
13.6258 7.21114 3.40079 70 8 92 255 
35.6657 18.8666 8.48067 69 5 89 255 
24.0736 12.7187 5.45529 72 24 106 255 
25.45 13.434 5.48971 71 17 100 255 
25.3469 13.4142 5.23229 72 22 104 255 
23.6709 12.5163 4.62026 72 23 105 255 
23.6548 12.4869 4.35146 72 38 119 255 
23.8905 12.5842 4.14157 71 14 97 255 
34.8455 18.4334 5.72277 70 10 93 255 
25.4932 13.4741 3.90376 71 13 96 255 
23.9623 12.6332 3.40767 72 23 105 255 
23.7507 12.5 3.12914 70 8 92 255 
26.6474 14.0965 3.2696 71 17 100 255 
26.3022 13.8841 2.94242 72 24 106 255 
26.2664 13.8421 2.65503 71 16 99 255 
25.3029 13.3 2.28989 71 14 97 255 
25.2208 13.3362 2.06005 72 22 104 255 
24.8029 13.0872 1.75946 72 32 113 255 
51.7747 27.25 3.11748 70 8 92 255 
0 0 0 68 2 86 255 
0 0 0 69 4 87 255 
0 0 0 69 4 87 255 
50.4225 26.5271 0.974603 69 4 87 255 
12.1893 6.39624 0.108117 64 70 136 255 
12.3532 6.52383 -0.00243822 72 23 105 255 
12.1702 6.41069 -0.132046 71 16 99 255 
21.7091 11.4114 -0.462352 72 27 109 255 
17.1819 9.00843 -0.548675 72 26 108 255 
16.0043 8.44136 -0.657155 72 38 119 255 
13.8108 7.26872 -0.71143 72 41 121 255 
12.3349 6.4811 -0.76683 71 44 122 255 
11.2874 5.91544 -0.821853 72 36 117 255 
10.4743 5.52225 -0.859151 65 66 135 255 
9.5782 5.03681 -0.885911 71 47 125 255 
8.86927 4.65424 -0.915079 52 97 141 255 
8.20896 4.30212 -0.934869 70 52 128 255 
7.63337 4.01936 -0.94023 58 83 139 255 
7.19998 3.78459 -0.964168 55 91 141 255 
6.81893 3.57679 -0.986403 60 80 139 255 
6.40221 3.3524 -0.995091 56 88 140 255 
6.08406 3.19951 -1.00404 57 85 140 255 
5.75975 3.02499 -1.0118 55 91 141 255 
5.48678 2.8768 -1.02228 53 94 141 255 
5.21933 2.733 -1.03036 54 92 141 255 
4.99435 2.62201 -1.03528 54 92 141 255 
4.79809 2.51673 -1.04532 61 77 138 255 
4.57241 2.39739 -1.04757 62 73 137 255 
4.40892 2.30963 -1.06067 65 68 135 255 
4.24267 2.22455 -1.06291 65 68 135 255 
4.08752 2.14219 -1.06882 64 69 136 255 
3.92792 2.05772 -1.07194 62 73 137 255 
3.79823 1.9914 -1.082 62 73 137 255 
3.6767 1.92372 -1.08475 61 77 138 255 
3.59672 1.88178 -1.10135 63 72 137 255 
3.45673 1.81011 -1.09974 63 71 136 255 
3.3073 1.73548 -1.09431 66 63 133 255 
15.4886 8.06199 5.24525 72 23 105 255 
15.1387 7.89635 4.93793 69 55 129 255 
14.8304 7.74228 4.66157 69 55 129 255 
15.4005 8.03953 4.66473 72 28 110 255 
16.0374 8.35829 4.69388 72 37 118 255 
10.1559 5.29508 2.85141 71 14 97 255 
0 0 0 68 2 86 255 
0 0 0 69 4 87 255 
35.5933 18.5582 8.85494 70 8 92 255 
35.1455 18.3164 8.33011 70 10 93 255 
24.1511 12.5707 5.45529 71 17 100 255 
24.196 12.5828 5.20246 71 13 96 255 
26.0498 13.5823 5.36008 70 10 93 255 
23.763 12.379 4.62332 72 35 116 255 
23.9631 12.4622 4.39401 72 27 109 255 
23.8392 12.3709 4.11943 71 14 97 255 
23.8529 12.4315 3.90482 71 17 100 255 
23.9537 12.473 3.65624 72 31 112 255 
24.0464 12.4896 3.40866 72 26 108 255 
26.5067 13.7434 3.48107 71 16 99 255 
26.5041 13.8133 3.24157 72 23 105 255 
26.401 13.7298 2.94399 72 24 106 255 
26.3827 13.6972 2.65824 70 8 92 255 
25.5611 13.2362 2.30586 72 23 105 255 
25.2296 13.1435 2.05415 72 22 104 255 
24.9146 12.9513 1.76171 72 22 104 255 
53.4994 27.7399 3.21101 70 7 90 255 
0 0 0 68 2 86 255 
0 0 0 68 2 86 255 
0 0 0 68 2 86 255 
50.587 26.2186 0.974654 69 5 89 255 
12.2221 6.31812 0.108062 58 83 139 255 
12.1934 6.34406 -0.00239895 66 63 133 255 
12.1294 6.29444 -0.131182 71 46 124 255 
12.111 6.27164 -0.257112 72 41 121 255 
12.1763 6.28905 -0.387589 71 45 123 255 
12.1035 6.28928 -0.495389 71 44 122 255 
12.1577 6.30374 -0.624271 71 45 123 255 
12.1847 6.30706 -0.75507 70 48 126 255 
11.3252 5.84699 -0.821982 69 56 130 255 
10.5 5.45374 -0.8585 63 71 136 255 
9.6337 4.99078 -0.888195 70 52 128 255 
8.89147 4.59653 -0.914442 68 59 132 255 
8.25642 4.26262 -0.937278 69 53 129 255 
7.66054 3.97382 -0.940555 61 77 138 255 
7.21337 3.73532 -0.962874 57 86 140 255 
6.84868 3.53898 -0.987546 62 76 138 255 
6.42882 3.31623 -0.996045 57 85 140 255 
6.115 3.16804 -1.00592 54 92 141 255 
5.79225 2.99686 -1.01426 55 91 141 255 
5.52099 2.85169 -1.02537 52 96 141 255 
5.23425 2.70002 -1.03002 53 95 141 255 
5.02432 2.59854 -1.03817 53 95 141 255 
4.80908 2.48499 -1.04437 62 76 138 255 
4.59836 2.37513 -1.05015 61 77 138 255 
4.43343 2.28791 -1.06317 63 72 137 255 
4.28053 2.21102 -1.06897 62 73 137 255 
4.09106 2.11216 -1.06633 64 69 136 255 
3.93097 2.02868 -1.06936 65 66 135 255 
3.80779 1.96672 -1.08127 64 69 136 255 
3.70134 1.90777 -1.08854 60 79 138 255 
3.57903 1.84464 -1.09245 62 73 137 255 
3.45751 1.78357 -1.09648 64 69 136 255 
3.31107 1.71163 -1.09206 67 61 132 255 
15.1858 7.78633 5.12643 72 23 105 255 
14.916 7.66414 4.84986 65 66 135 255 
14.857 7.64057 4.65513 69 55 129 255 
15.5191 7.98066 4.68574 72 35 116 255 
10.1564 5.21427 2.9632 71 14 97 255 
10.2788 5.27921 2.87677 71 42 122 255 
0 0 0 68 1 84 255 
25.8994 13.2902 6.66714 70 10 93 255 
23.3657 12.001 5.79451 72 24 106 255 
25.9802 13.3377 6.13826 70 11 94 255 
10.4657 5.3661 2.35653 57 85 140 255 
10.4928 5.3751 2.24895 69 55 129 255 
25.6968 13.1983 5.2707 71 16 99 255 
24.0595 12.3463 4.66617 72 35 116 255 
23.8862 12.2367 4.36607 71 16 99 255 
23.8557 12.1943 4.10928 72 26 108 255 
23.7078 12.1715 3.86876 72 31 112 255 
24.0034 12.3123 3.65221 72 35 116 255 
23.8108 12.1823 3.3646 72 28 110 255 
23.8465 12.1791 3.12184 71 17 100 255 
26.469 13.5891 3.22701 72 22 104 255 
26.553 13.6025 2.95157 69 5 89 255 
26.0955 13.3455 2.62101 71 19 101 255 
25.6897 13.1035 2.31017 72 24 106 255 
25.2344 12.9497 2.04802 72 22 104 255 
0 0 0 68 2 86 255 
0 0 0 68 2 86 255 
0 0 0 68 2 86 255 
66.1628 33.9241 2.67442 69 5 89 255 
0 0 0 69 4 87 255 
12.4396 6.35076 0.238917 69 55 129 255 
12.2508 6.23801 0.107975 61 78 138 255 
12.2223 6.26411 -0.00239704 63 71 136 255 
12.2292 6.2513 -0.131845 72 35 116 255 
13.1816 6.72375 -0.278957 71 44 122 255 
13.2241 6.72776 -0.41962 72 32 113 255 
13.1845 6.74855 -0.537926 70 50 126 255 
13.2584 6.77155 -0.678643 69 53 129 255 
12.482 6.36416 -0.771061 71 45 123 255 
11.3662 5.7801 -0.822368 65 66 135 255 
10.5173 5.38104 -0.857197 66 65 134 255 
9.70675 4.95332 -0.892112 68 59 132 255 
8.92927 4.54686 -0.915443 71 47 125 255 
8.28065 4.21098 -0.937077 68 57 131 255 
7.69274 3.93082 -0.94153 59 82 139 255 
7.23615 3.69099 -0.962874 58 83 139 255 
6.87292 3.49824 -0.987927 58 83 139 255 
6.48526 3.29512 -1.00164 56 88 140 255 
6.1308 3.12866 -1.00534 54 92 141 255 
5.81229 2.96216 -1.01457 58 84 140 255 
5.54366 2.82044 -1.02635 54 93 141 255 
5.26038 2.67277 -1.03192 51 98 141 255 
5.00599 2.55025 -1.03113 61 78 138 255 
4.82862 2.45766 -1.04532 62 73 137 255 
4.63818 2.35976 -1.05592 62 76 138 255 
4.45349 2.26377 -1.06463 64 69 136 255 
4.29401 2.18471 -1.06897 64 70 136 255 
4.10134 2.08569 -1.06566 63 71 136 255 
3.94768 2.00672 -1.07053 65 66 135 255 
3.82238 1.94464 -1.082 66 63 133 255 
3.70349 1.88021 -1.08576 63 72 137 255 
3.57995 1.8174 -1.08931 60 79 138 255 
3.46495 1.76058 -1.0954 65 68 135 255 
3.33434 1.69781 -1.09628 67 62 133 255 
15.0461 7.59846 5.06343 71 45 123 255 
14.9627 7.57248 4.84986 70 51 127 255 
15.0257 7.61107 4.69324 69 53 129 255 
15.2559 7.72731 4.59186 67 61 132 255 
10.2202 5.16802 2.97249 72 26 108 255 
10.1465 5.13282 2.83087 65 68 135 255 
10.1356 5.12517 2.71207 50 102 142 255 
10.2577 5.18443 2.63234 58 83 139 255 
10.3274 5.22451 2.55312 71 14 97 255 
10.3794 5.24835 2.44465 51 99 141 255 
10.5344 5.3199 2.36459 61 78 138 255 
10.5913 5.34381 2.263 72 27 109 255 
24.3184 12.3024 4.97239 71 16 99 255 
24.2007 12.2318 4.67892 71 17 100 255 
27.328 13.7888 4.97961 72 23 105 255 
23.8648 12.0148 4.09806 72 26 108 255 
23.5338 11.9003 3.82839 72 33 115 255 
24.6861 12.4717 3.74438 72 24 106 255 
24.0233 12.1056 3.38408 72 37 118 255 
24.1391 12.1423 3.15033 71 19 101 255 
25.9096 13.1016 3.14895 72 22 104 255 
26.213 13.2259 2.90471 72 22 104 255 
26.0987 13.1457 2.61317 70 7 90 255 
25.6744 12.8978 2.30162 72 24 106 255 
25.4006 12.8387 2.05508 71 16 99 255 
37.1571 18.7397 2.61091 69 5 89 255 
0 0 0 69 4 87 255 
0 0 0 68 2 86 255 
66.1609 33.4121 2.66601 70 7 90 255 
66.3449 33.4311 1.97135 70 7 90 255 
12.4792 6.27476 0.238934 61 78 138 255 
12.3702 6.20352 0.10869 65 66 135 255 
12.3283 6.22325 -0.0024103 65 68 135 255 
13.1319 6.61142 -0.141136 72 28 110 255 
13.2583 6.6607 -0.279711 71 45 123 255 
13.2696 6.64873 -0.419761 72 36 117 255 
13.2488 6.67922 -0.53887 71 44 122 255 
13.2952 6.68782 -0.678415 71 47 125 255 
12.5128 6.28342 -0.770566 71 42 122 255 
11.4265 5.72276 -0.82417 72 41 121 255 
10.5501 5.3164 -0.857197 66 64 134 255 
9.74409 4.89725 -0.892764 69 56 130 255 
8.96857 4.49779 -0.916626 71 44 122 255 
8.30099 4.15742 -0.936475 70 51 127 255 
7.72471 3.88756 -0.942505 61 77 138 255 
7.26221 3.6483 -0.963345 55 90 140 255 
6.88272 3.45022 -0.986275 59 82 139 255 
6.48321 3.24418 -0.998228 58 83 139 255 
6.15784 3.09498 -1.00664 53 94 141 255 
5.83477 2.92865 -1.01534 60 80 139 255 
5.54851 2.78018 -1.02407 52 96 141 255 
5.28725 2.64573 -1.03398 52 97 141 255 
5.011 2.51419 -1.02896 56 89 140 255 
4.82078 2.41654 -1.04039 62 73 137 255 
4.63942 2.32467 -1.05294 62 76 138 255 
4.45943 2.23246 -1.06275 64 69 136 255 
4.28377 2.14652 -1.06312 62 74 137 255 
4.12974 2.06834 -1.06972 62 76 138 255 
3.98512 1.99508 -1.07735 65 66 135 255 
3.82644 1.91724 -1.0798 66 63 133 255 
3.70716 1.85355 -1.08348 63 71 136 255 
3.57723 1.78849 -1.08512 66 63 133 255 
3.5041 1.7535 -1.10435 64 70 136 255 
3.33783 1.67388 -1.09403 67 62 133 255 
15.1019 7.51068 5.06659 71 42 122 255 
14.9298 7.4411 4.8243 70 52 128 255 
15.2143 7.58969 4.73753 71 45 123 255 
10.1435 5.05986 3.04369 69 56 130 255 
10.2508 5.10478 2.97224 69 55 129 255 
10.2699 5.11633 2.85648 58 83 139 255 
10.2008 5.07979 2.72113 53 95 141 255 
10.3687 5.16092 2.65266 72 38 119 255 
10.4554 5.20895 2.57682 69 55 129 255 
10.4035 5.18064 2.4428 61 77 138 255 
10.5457 5.24468 2.35987 72 26 108 255 
26.1723 13.0043 5.57497 71 16 99 255 
25.9731 12.9399 5.29439 71 16 99 255 
23.9586 11.9255 4.61788 72 40 120 255 
26.9772 13.4047 4.90061 71 16 99 255 
23.4014 11.602 4.00619 72 35 116 255 
23.0643 11.4857 3.74047 72 40 120 255 
25.188 12.5319 3.80878 72 22 104 255 
24.1646 11.9915 3.39356 72 31 112 255 
26.2202 12.9882 3.41147 71 17 100 255 
26.2119 13.0532 3.1759 72 26 108 255 
26.4425 13.1388 2.92115 71 16 99 255 
26.1735 12.9826 2.61264 70 7 90 255 
25.6199 12.6741 2.28973 72 23 105 255 
25.5789 12.7324 2.06315 70 8 92 255 
26.351 13.0876 1.84593 71 17 100 255 
37.3279 18.4911 2.2196 70 8 92 255 
37.3552 18.4634 1.82659 70 8 92 255 
37.332 18.5665 1.4997 70 7 90 255 
37.3693 18.5437 1.10698 70 11 94 255 
12.5139 6.1963 0.238866 65 66 135 255 
12.4645 6.15539 0.109185 66 65 134 255 
12.42 6.17419 -0.00242077 60 80 139 255 
14.0601 6.9709 -0.150649 72 26 108 255 
22.5302 11.1461 -0.473869 71 13 96 255 
12.091 5.96567 -0.381313 72 35 116 255 
16.5477 8.21537 -0.670983 69 53 129 255 
13.9716 6.92095 -0.710747 72 35 116 255 
12.5529 6.20741 -0.770676 71 42 122 255 
11.4641 5.65387 -0.824363 71 42 122 255 
10.5924 5.25645 -0.857993 66 64 134 255 
9.75698 4.82897 -0.891214 68 58 131 255 
9.04868 4.46869 -0.921993 69 53 129 255 
8.32545 4.10596 -0.936375 67 61 132 255 
7.74842 3.84009 -0.942505 61 78 138 255 
7.2809 3.60191 -0.962874 57 86 140 255 
6.89843 3.40529 -0.985513 59 82 139 255 
6.48699 3.19646 -0.995773 58 84 140 255 
6.17849 3.05802 -1.00693 53 95 141 255 
5.84023 2.88667 -1.01318 58 84 140 255 
5.56989 2.74827 -1.02488 52 97 141 255 
5.29543 2.60932 -1.03243 51 99 141 255 
5.03426 2.48732 -1.03058 52 96 141 255 
4.8364 2.38735 -1.04058 60 80 139 255 
4.61054 2.27491 -1.04319 62 76 138 255 
4.45813 2.1977 -1.05921 65 66 135 255 
4.3205 2.13186 -1.06897 62 73 137 255 
4.13973 2.04167 -1.06904 60 79 138 255 
3.99031 1.96715 -1.07547 62 73 137 255 
3.84856 1.89888 -1.08273 68 58 131 255 
3.72107 1.83205 -1.08424 64 70 136 255 
3.589 1.76694 -1.08538 67 61 132 255 
3.48457 1.71707 -1.09486 66 64 134 255 
3.34976 1.65422 -1.09459 68 58 131 255 
14.7735 7.23465 4.94145 70 48 126 255 
15.0304 7.37644 4.84208 70 52 128 255 
15.1897 7.46136 4.71552 68 58 131 255 
10.1952 5.00775 3.04992 55 90 140 255 
10.2437 5.02304 2.96119 70 52 128 255 
10.3133 5.0592 2.85986 58 84 140 255 
10.3366 5.06849 2.749 60 80 139 255 
10.4203 5.10707 2.65779 72 36 117 255 
10.5696 5.18513 2.59707 70 48 126 255 
10.5028 5.14988 2.45863 49 103 142 255 
10.6675 5.22386 2.37991 70 52 128 255 
26.4034 12.9177 5.6072 70 11 94 255 
26.2816 12.8929 5.34106 70 10 93 255 
24.0729 11.7986 4.62587 72 31 112 255 
23.6659 11.5789 4.2861 72 32 113 255 
23.3007 11.3745 3.97692 72 38 119 255 
23.9998 11.7683 3.8804 71 19 101 255 
24.2161 11.8636 3.65074 72 31 112 255 
24.6978 12.0677 3.45796 71 13 96 255 
26.6208 12.9838 3.45316 70 8 92 255 
26.2737 12.8834 3.17375 71 14 97 255 
36.4985 17.857 4.01987 70 7 90 255 
24.8475 12.1355 2.4728 71 19 101 255 
25.0421 12.1976 2.23136 72 22 104 255 
24.9777 12.2425 2.00856 71 14 97 255 
26.0964 12.7621 1.82257 72 24 106 255 
37.4667 18.2745 2.22114 70 10 93 255 
0 0 0 69 4 87 255 
0 0 0 69 4 87 255 
0 0 0 68 2 86 255 
12.5796 6.13298 0.239396 70 52 128 255 
12.583 6.11815 0.109892 71 44 122 255 
12.5259 6.13128 -0.00243404 61 78 138 255 
12.4087 6.0576 -0.132555 71 14 97 255 
19.7937 9.6416 -0.415062 70 7 90 255 
12.1534 5.90403 -0.382133 67 61 132 255 
14.0741 6.87997 -0.568958 72 24 106 255 
14.0389 6.84735 -0.712022 71 47 125 255 
12.281 5.97947 -0.751718 68 58 131 255 
11.4887 5.57862 -0.823655 72 41 121 255 
10.6271 5.19267 -0.85821 66 65 134 255 
9.80972 4.78036 -0.893336 68 59 132 255 
9.09743 4.42354 -0.924177 69 53 129 255 
8.33617 4.04785 -0.934769 69 56 130 255 
7.77005 3.7916 -0.942288 62 74 137 255 
7.30286 3.55717 -0.962874 60 80 139 255 
6.93079 3.36853 -0.987165 61 78 138 255 
6.51094 3.15876 -0.996455 57 85 140 255 
6.18735 3.01528 -1.00534 56 88 140 255 
5.86227 2.85294 -1.01395 57 85 140 255 
5.58665 2.71404 -1.02488 54 92 141 255 
5.30691 2.57463 -1.03157 52 97 141 255 
5.06447 2.4637 -1.03365 51 98 141 255 
4.85449 2.35935 -1.04134 60 79 138 255 
4.65526 2.26157 -1.05015 60 79 138 255 
4.46889 2.16903 -1.05858 65 66 135 255 
4.33438 2.10573 -1.06919 59 82 139 255 
4.17059 2.02516 -1.07378 60 79 138 255 
3.99531 1.93924 -1.07359 64 70 136 255 
3.83485 1.86294 -1.07564 66 65 134 255 
3.7305 1.80834 -1.08374 65 68 135 255 
3.61627 1.75288 -1.09035 67 61 132 255 
3.49418 1.69524 -1.09458 66 63 133 255 
3.37624 1.64161 -1.09993 67 62 133 255 
14.3604 6.92343 4.78897 67 61 132 255 
10.0655 4.86343 3.23296 72 40 120 255 
14.4694 6.99769 4.47851 69 53 129 255 
10.2509 4.95729 3.05744 45 112 142 255 
15.3658 7.41804 4.42859 72 38 119 255 
10.3398 4.99372 2.85865 57 86 140 255 
10.5742 5.10477 2.80381 64 69 136 255 
10.6586 5.14301 2.71048 64 69 136 255 
10.4517 5.04797 2.56045 50 100 142 255 
10.5597 5.09768 2.4646 53 94 141 255 
10.7656 5.19025 2.39465 59 81 139 255 
10.7976 5.20081 2.28624 72 36 117 255 
26.4107 12.7558 5.35129 70 8 92 255 
24.1866 11.6708 4.63386 72 28 110 255 
23.7143 11.4228 4.28209 72 37 118 255 
23.8012 11.4386 4.0503 72 26 108 255 
24.2792 11.7211 3.91388 72 22 104 255 
23.4602 11.3152 3.52624 72 28 110 255 
23.5509 11.3289 3.28759 71 17 100 255 
23.8311 11.4427 3.08212 71 14 97 255 
25.9386 12.5222 3.12393 70 10 93 255 
0 0 0 68 2 86 255 
24.3937 11.729 2.42043 72 24 106 255 
25.2944 12.1291 2.24717 72 20 103 255 
35.1814 16.9768 2.82065 69 5 89 255 
25.5718 12.3117 1.78062 72 20 103 255 
25.8407 12.4081 1.52737 70 7 90 255 
0 0 0 68 2 86 255 
51.943 25.0428 2.07416 70 8 92 255 
51.9256 24.9776 1.52898 70 7 90 255 
12.6088 6.05179 0.239242 72 20 103 255 
0 0 0 68 2 86 255 
12.4228 5.98659 -0.00240681 72 36 117 255 
12.4366 5.97702 -0.132459 70 7 90 255 
12.2238 5.86173 -0.255566 70 52 128 255 
12.221 5.84445 -0.383123 64 69 136 255 
16.5203 7.95058 -0.665866 72 22 104 255 
14.0032 6.7239 -0.708106 71 45 123 255 
12.403 5.94501 -0.756939 72 40 120 255 
11.5245 5.50889 -0.823784 72 40 120 255 
10.6606 5.12823 -0.858355 68 57 131 255 
9.85684 4.7287 -0.894967 63 71 136 255 
9.11003 4.36075 -0.922721 70 52 128 255 
8.34828 3.99062 -0.933364 69 55 129 255 
7.80302 3.74859 -0.94348 59 82 139 255 
7.33261 3.51616 -0.963933 58 83 139 255 
6.9567 3.32851 -0.987927 58 84 140 255 
6.54003 3.12344 -0.997955 58 83 139 255 
6.19771 2.97341 -1.00404 53 94 141 255 
5.89214 2.82289 -1.0161 61 78 138 255 
5.60942 2.68269 -1.02602 55 91 141 255 
5.32261 2.54201 -1.03157 55 90 140 255 
5.0857 2.43555 -1.03492 50 100 142 255 
4.87951 2.3346 -1.04361 61 77 138 255 
4.6549 2.2262 -1.04697 62 74 137 255 
4.48564 2.14325 -1.05942 63 71 136 255 
4.33224 2.07194 -1.0655 63 72 137 255 
4.19085 2.00332 -1.07581 62 74 137 255 
3.99661 1.90966 -1.07077 63 72 137 255 
3.8742 1.85276 -1.08347 64 69 136 255 
3.74764 1.78833 -1.08551 66 63 133 255 
3.6409 1.73731 -1.09454 64 70 136 255 
3.52796 1.68497 -1.10191 68 58 131 255 
3.38019 1.61796 -1.09797 69 53 129 255 
14.5194 6.89062 4.82781 71 42 122 255 
10.1177 4.81231 3.24019 50 102 142 255 
10.3981 4.95022 3.20891 62 73 137 255 
10.4285 4.96446 3.10126 71 47 125 255 
10.2469 4.86953 2.94461 62 74 137 255 
10.315 4.90393 2.84343 59 82 139 255 
10.5807 5.0281 2.79731 55 91 141 255 
10.4232 4.95079 2.64283 72 31 112 255 
10.5434 5.01268 2.57531 52 96 141 255 
10.5714 5.02355 2.46007 66 64 134 255 
10.6963 5.07617 2.37225 61 77 138 255 
25.817 12.2405 5.45036 70 11 94 255 
23.5264 11.1852 4.75287 71 13 96 255 
24.0254 11.4118 4.58948 72 37 118 255 
23.8356 11.3016 4.2914 72 32 113 255 
23.4894 11.1118 3.98557 72 33 115 255 
24.0762 11.4415 3.86977 72 23 105 255 
23.1013 10.9679 3.46211 72 40 120 255 
23.6182 11.1833 3.28734 72 22 104 255 
23.4267 11.0722 3.02098 72 28 110 255 
23.9542 11.3835 2.87647 71 13 96 255 
24.4967 11.6147 2.68211 71 14 97 255 
24.9018 11.7858 2.46362 72 20 103 255 
25.0898 11.8422 2.22249 72 23 105 255 
25.0251 11.8871 2.00049 72 22 104 255 
26.16 12.3978 1.81625 71 16 99 255 
26.1149 12.3432 1.53908 70 7 90 255 
0 0 0 68 2 86 255 
32.3136 15.3354 1.28654 70 7 90 255 
32.3231 15.3048 0.94899 69 5 89 255 
0 0 0 69 4 87 255 
0 0 0 69 4 87 255 
12.303 5.8361 -0.00237661 68 59 132 255 
12.2715 5.80524 -0.130318 65 68 135 255 
12.1935 5.75546 -0.25419 71 16 99 255 
12.2783 5.77957 -0.383801 64 70 136 255 
12.2554 5.80572 -0.492521 57 86 140 255 
12.2243 5.7777 -0.616348 63 72 137 255 
12.7625 6.02132 -0.776611 71 42 122 255 
11.5608 5.43935 -0.823977 72 38 119 255 
10.6684 5.05162 -0.856474 68 59 132 255 
9.91361 4.68133 -0.897497 61 77 138 255 
9.13211 4.30265 -0.922266 71 47 125 255 
8.38342 3.9444 -0.934568 69 53 129 255 
7.82857 3.70192 -0.943805 62 73 137 255 
7.36482 3.47619 -0.965346 57 85 140 255 
6.96981 3.28238 -0.986911 59 82 139 255 
6.56714 3.08705 -0.999183 59 81 139 255 
6.23015 2.94208 -1.00635 52 96 141 255 
5.91025 2.78711 -1.01626 58 84 140 255 
5.6356 2.65285 -1.02782 53 94 141 255 
5.34078 2.51057 -1.03209 53 94 141 255 
5.10677 2.40724 -1.03618 51 99 141 255 
4.90706 2.31089 -1.04646 62 73 137 255 
4.68266 2.20427 -1.05015 63 72 137 255 
4.49074 2.11194 -1.05754 65 66 135 255 
4.36342 2.05405 -1.07005 61 77 138 255 
4.20658 1.97922 -1.07671 61 77 138 255 
4.01969 1.89047 -1.07382 62 76 138 255 
3.87848 1.82565 -1.08151 64 70 136 255 
3.74541 1.75914 -1.08171 62 73 137 255 
3.64712 1.71288 -1.09323 67 62 133 255 
3.52081 1.6551 -1.09648 68 58 131 255 
3.39093 1.5976 -1.09825 69 56 130 255 
15.6643 7.31654 5.19347 70 50 126 255 
10.2889 4.81652 3.28547 57 86 140 255 
15.751 7.38037 4.84678 71 47 125 255 
10.3084 4.82989 3.05666 70 51 127 255 
10.2082 4.77458 2.92501 55 90 140 255 
10.5875 4.95406 2.91011 62 73 137 255 
10.5232 4.92188 2.77408 57 86 140 255 
10.7324 5.01719 2.71338 72 29 111 255 
10.5978 4.95907 2.58113 68 59 132 255 
10.6747 4.99258 2.47694 63 71 136 255 
23.7803 11.1072 5.25883 72 24 106 255 
23.5568 10.9923 4.95886 71 16 99 255 
27.3824 12.8131 5.51588 72 22 104 255 
24.1539 11.2917 4.60071 72 32 113 255 
23.604 11.0148 4.23745 72 33 115 255 
23.2032 10.8027 3.92568 72 28 110 255 
23.5741 11.0261 3.77811 72 28 110 255 
22.9679 10.7324 3.43219 72 41 121 255 
24.0362 11.2012 3.3359 71 19 101 255 
24.0625 11.1926 3.09405 71 13 96 255 
25.5392 11.9452 3.05794 71 13 96 255 
24.7072 11.5294 2.69737 72 20 103 255 
24.6748 11.4936 2.43414 72 29 111 255 
25.8717 12.0177 2.28518 71 14 97 255 
26.7556 12.5084 2.13265 69 5 89 255 
0 0 0 68 2 86 255 
0 0 0 68 2 86 255 
0 0 0 68 2 86 255 
0 0 0 68 2 86 255 
0 0 0 69 4 87 255 
51.3741 23.8865 0.969147 69 5 89 255 
49.9058 23.1395 0.432051 70 7 90 255 
12.3322 5.75754 -0.00237539 64 69 136 255 
12.325 5.73827 -0.13051 59 81 139 255 
12.3012 5.71423 -0.255698 66 63 133 255 
12.319 5.70664 -0.383971 62 73 137 255 
12.2963 5.73295 -0.492739 60 79 138 255 
12.5603 5.84246 -0.631466 69 53 129 255 
12.802 5.94415 -0.776776 71 44 122 255 
11.5966 5.36957 -0.82417 72 38 119 255 
10.7119 4.99196 -0.857487 67 62 133 255 
9.96836 4.63259 -0.899863 59 82 139 255 
9.17912 4.25617 -0.924359 68 59 132 255 
8.41107 3.89456 -0.93497 70 51 127 255 
7.85114 3.65381 -0.943805 62 73 137 255 
7.39862 3.43679 -0.966994 56 88 140 255 
6.99432 3.24164 -0.987546 60 79 138 255 
6.58057 3.0442 -0.998364 58 84 140 255 
6.25167 2.90547 -1.00693 52 96 141 255 
5.92993 2.75204 -1.01672 59 82 139 255 
5.65714 2.6207 -1.02879 53 95 141 255 
5.36145 2.48023 -1.03312 56 88 140 255 
5.12591 2.37793 -1.03708 48 105 142 255 
4.92293 2.28157 -1.04684 62 76 138 255 
4.70055 2.17756 -1.05115 64 70 136 255 
4.5196 2.09174 -1.06129 66 65 134 255 
4.35557 2.0178 -1.06507 59 81 139 255 
4.21511 1.95174 -1.07581 63 72 137 255 
4.04003 1.86986 -1.07617 62 76 138 255 
3.88961 1.80182 -1.08151 67 62 133 255 
3.76403 1.73977 -1.08399 62 76 138 255 
3.6707 1.69655 -1.09716 67 62 133 255 
3.52217 1.62943 -1.09377 68 58 131 255 
3.40066 1.57676 -1.09825 69 55 129 255 
15.8229 7.27269 5.23116 70 7 90 255 
15.8752 7.31324 5.05489 71 45 123 255 
15.8021 7.28641 4.84866 70 48 126 255 
10.2273 4.7156 3.02399 52 96 141 255 
10.261 4.72278 2.93179 56 88 140 255 
10.2907 4.73842 2.82048 57 86 140 255 
10.7123 4.93041 2.81589 72 36 117 255 
10.8861 5.00787 2.74441 72 31 112 255 
24.1335 11.1129 5.86107 71 13 96 255 
10.77 4.95686 2.49196 59 82 139 255 
23.3785 10.7453 5.1553 72 37 118 255 
23.6943 10.8799 4.97366 72 24 106 255 
24.467 11.2664 4.91459 70 7 90 255 
24.3633 11.208 4.6274 72 24 106 255 
22.8854 10.509 4.09679 72 22 104 255 
23.2421 10.6478 3.92113 71 42 122 255 
22.9877 10.5804 3.67367 72 38 119 255 
22.8218 10.494 3.40067 71 42 122 255 
23.6039 10.824 3.26663 72 29 111 255 
23.6719 10.8347 3.03522 71 16 99 255 
24.1102 11.097 2.87863 72 20 103 255 
24.4872 11.2443 2.66577 72 29 111 255 
24.4778 11.2195 2.40787 72 24 106 255 
25.2641 11.5475 2.22521 70 7 90 255 
36.6079 16.8415 2.90967 69 5 89 255 
27.2417 12.5034 1.88056 71 16 99 255 
27.9388 12.7882 1.63719 70 11 94 255 
0 0 0 68 2 86 255 
0 0 0 68 2 86 255 
70.231 32.2048 2.05019 69 5 89 255 
51.958 23.7714 0.97739 69 4 87 255 
50.1405 22.8756 0.43286 70 8 92 255 
12.4145 5.70347 -0.00238447 71 47 125 255 
12.4036 5.68253 -0.130971 57 86 140 255 
12.4215 5.67772 -0.25747 51 98 141 255 
12.5093 5.70184 -0.388805 72 32 113 255 
12.967 5.94909 -0.518146 72 41 121 255 
12.4969 5.71997 -0.626503 61 78 138 255 
12.87 5.88001 -0.778699 72 40 120 255 
11.643 5.30451 -0.825136 71 42 122 255 
10.7341 4.9224 -0.856835 66 65 134 255 
10.0301 4.58668 -0.902882 52 96 141 255 
9.20143 4.19812 -0.923995 68 58 131 255 
8.42032 3.83627 -0.933364 70 52 128 255 
7.88426 3.61054 -0.945105 62 73 137 255 
7.4268 3.39463 -0.967935 58 83 139 255 
7.01679 3.1999 -0.987927 60 79 138 255 
6.57027 2.99063 -0.993999 60 79 138 255 
6.26668 2.86582 -1.0065 53 94 141 255 
5.9467 2.7156 -1.01672 57 85 140 255 
5.66504 2.58226 -1.02733 53 95 141 255 
5.37388 2.44606 -1.0326 56 88 140 255 
5.1413 2.34684 -1.03726 49 104 142 255 
4.94756 2.25621 -1.04911 62 76 138 255 
4.71917 2.15111 -1.05234 61 78 138 255 
4.52967 2.06275 -1.06067 64 69 136 255 
4.34922 1.98253 -1.06052 63 72 137 255 
4.22524 1.92503 -1.07536 61 78 138 255 
4.04789 1.84342 -1.07523 63 72 137 255 
3.9147 1.78435 -1.08543 66 65 134 255 
3.77992 1.71905 -1.08551 62 73 137 255 
3.66523 1.6668 -1.09245 63 71 136 255 
3.54261 1.61257 -1.09703 67 62 133 255 
3.41464 1.55786 -1.09965 67 62 133 255 
15.8803 7.18138 5.23547 70 8 92 255 
12.3535 5.59925 3.92251 71 44 122 255 
12.47 5.65745 3.81553 62 73 137 255 
10.5419 4.78243 3.10827 56 88 140 255 
10.2731 4.65214 2.92702 53 95 141 255 
10.3142 4.67279 2.81903 61 78 138 255 
10.3684 4.69527 2.71787 59 81 139 255 
10.3945 4.70464 2.61314 71 44 122 255 
10.8402 4.91126 2.62529 72 20 103 255 
10.8065 4.89351 2.4934 56 88 140 255 
23.5512 10.6501 5.17887 72 37 118 255 
23.7132 10.7129 4.96373 71 13 96 255 
27.4255 12.4254 5.49344 70 10 93 255 
24.6228 11.1448 4.66362 72 22 104 255 
22.8793 10.3367 4.08427 72 41 121 255 
23.2565 10.4822 3.91264 72 38 119 255 
22.9242 10.3812 3.65327 71 44 122 255 
23.2306 10.5098 3.45191 72 31 112 255 
23.697 10.6912 3.27037 71 17 100 255 
24.2116 10.9026 3.09579 72 26 108 255 
24.4069 11.0526 2.90591 72 24 106 255 
24.5294 11.0819 2.66291 72 27 109 255 
25.5431 11.5187 2.50566 72 22 104 255 
24.7617 11.1347 2.1749 71 19 101 255 
36.0127 16.3007 2.85436 70 7 90 255 
27.5753 12.4522 1.89828 72 20 103 255 
28.3235 12.7547 1.65512 72 20 103 255 
0 0 0 68 2 86 255 
0 0 0 68 2 86 255 
0 0 0 68 2 86 255 
0 0 0 69 4 87 255 
50.7215 22.7656 0.436661 70 8 92 255 
13.6521 6.17088 -0.00261485 71 16 99 255 
12.3608 5.57139 -0.130155 71 42 122 255 
12.3986 5.57556 -0.256282 72 31 112 255 
18.9406 8.49329 -0.587067 72 22 104 255 
16.4044 7.40461 -0.653671 72 35 116 255 
14.4236 6.49511 -0.721084 72 27 109 255 
12.3393 5.54632 -0.74452 70 51 127 255 
11.7199 5.25297 -0.828289 71 42 122 255 
10.7705 4.85932 -0.857342 66 64 134 255 
10.0345 4.51441 -0.90076 57 86 140 255 
