ply
format ascii 1.0
comment VTK generated PLY File
obj_info vtkPolyData points and polygons: vtk4.0
element vertex 1191
property float x
property float y
property float z
property uchar red
property uchar green
property uchar blue
property uchar alpha
element face 0
property list uchar int vertex_indices
end_header
-5.87914 4.32113 -1.20398 50 101 142 255 
-5.60224 4.12225 -1.21642 62 74 137 255 
-5.35008 3.92789 -1.21814 51 99 141 255 
-5.0863 3.7371 -1.21771 56 89 140 255 
-4.86676 3.57704 -1.22554 55 91 141 255 
-4.6665 3.43245 -1.23449 57 85 140 255 
-4.45475 3.27415 -1.22666 55 91 141 255 
-4.27447 3.14292 -1.22879 57 86 140 255 
-4.12487 3.03398 -1.23783 61 77 138 255 
-3.93451 2.89192 -1.23196 62 73 137 255 
-3.80267 2.79999 -1.23447 64 70 136 255 
-3.66192 2.69646 -1.23385 66 64 134 255 
-3.50725 2.58064 -1.22724 68 57 131 255 
-3.39003 2.48991 -1.23236 70 52 128 255 
-19.8322 14.668 7.40987 72 38 119 255 
-20.5419 15.1657 7.38439 72 38 119 255 
-21.2881 15.7049 7.37123 72 33 115 255 
-22.022 16.247 7.34823 72 31 112 255 
-22.4818 16.6095 7.25487 72 32 113 255 
-23.3344 17.2337 7.22189 72 26 108 255 
-29.3247 21.6653 8.70616 71 19 101 255 
-30.5113 22.5511 8.68956 70 8 92 255 
-29.5183 21.8002 8.09494 71 16 99 255 
-30.5063 22.5387 7.9722 70 10 93 255 
-29.8616 22.0861 7.44189 71 14 97 255 
-29.8862 22.1213 7.09295 71 13 96 255 
-0 0 0 69 4 87 255 
-31.5019 23.2828 6.75916 69 5 89 255 
-31.2581 23.1359 6.32647 70 11 94 255 
-31.8063 23.5855 6.07333 69 4 87 255 
-16.4819 12.1769 2.97488 72 26 108 255 
-16.4918 12.1934 2.77669 71 14 97 255 
-22.4002 16.5978 3.50714 72 28 110 255 
-11.4821 8.52054 1.667 72 29 111 255 
-12.9737 9.58499 1.74947 70 50 126 255 
-11.9877 8.87292 1.47549 69 56 130 255 
-10.283 7.62217 1.14461 59 81 139 255 
-10.2526 7.61649 1.02313 62 73 137 255 
-10.2775 7.59575 0.922788 63 71 136 255 
-9.51847 7.04786 0.743068 59 82 139 255 
-9.52196 7.06576 0.631785 62 76 138 255 
-9.50802 7.06851 0.51935 66 64 134 255 
-8.0974 5.9889 0.362264 68 57 131 255 
-8.07599 5.98416 0.266718 54 92 141 255 
-7.32665 5.43872 0.156086 57 85 140 255 
-7.32172 5.44712 0.0716747 58 84 140 255 
-7.33468 5.42677 -0.00159244 55 91 141 255 
-7.33259 5.43728 -0.0876308 51 99 141 255 
-7.32854 5.44409 -0.172105 54 93 141 255 
-6.84487 5.09607 -0.241346 66 63 133 255 
-6.59303 4.88337 -0.297981 53 94 141 255 
-6.60304 4.89987 -0.374818 58 83 139 255 
-6.58852 4.89614 -0.451745 57 86 140 255 
-6.59962 4.91527 -0.530697 58 83 139 255 
-6.59846 4.88918 -0.595877 58 84 140 255 
-6.58695 4.8915 -0.671654 57 86 140 255 
-6.09716 4.53595 -0.69427 64 69 136 255 
-5.86258 4.36633 -0.737357 50 101 142 255 
-5.8637 4.3495 -0.795696 49 103 142 255 
-5.86627 4.35791 -0.866233 50 100 142 255 
-5.85331 4.35613 -0.934687 52 96 141 255 
-5.8405 4.35306 -1.003 53 95 141 255 
-5.86363 4.3542 -1.06677 50 102 142 255 
-5.87213 4.36544 -1.13797 52 97 141 255 
-5.85805 4.36125 -1.20511 49 104 142 255 
-5.59106 4.16714 -1.21952 59 82 139 255 
-5.32351 3.95888 -1.2176 48 105 142 255 
-5.05461 3.76179 -1.21562 54 92 141 255 
-4.82743 3.59396 -1.22117 57 86 140 255 
-4.62966 3.44934 -1.23033 54 93 141 255 
-4.43771 3.30375 -1.22753 54 93 141 255 
-4.26214 3.17432 -1.23082 56 88 140 255 
-4.10462 3.05807 -1.23737 63 71 136 255 
-3.9128 2.91312 -1.23074 62 73 137 255 
-3.77301 2.81401 -1.23043 64 70 136 255 
-3.64298 2.71715 -1.23306 66 64 134 255 
-3.49829 2.60728 -1.22968 67 61 132 255 
-3.36314 2.50207 -1.22815 67 61 132 255 
-19.7525 14.7975 7.4139 72 37 118 255 
-20.4492 15.292 7.38467 72 33 115 255 
-21.2214 15.8577 7.38169 72 31 112 255 
-21.9119 16.3743 7.34486 72 31 112 255 
-22.3972 16.7605 7.26065 72 31 112 255 
-23.2127 17.3649 7.21706 70 10 93 255 
-29.9334 22.4002 8.9275 70 10 93 255 
-29.933 22.409 8.56387 70 8 92 255 
-29.3629 21.9651 8.08913 71 13 96 255 
-29.9514 22.4141 7.86298 71 14 97 255 
-30.0166 22.4871 7.51477 70 10 93 255 
-30.1013 22.5677 7.1767 70 11 94 255 
-29.7782 22.2758 6.78505 71 16 99 255 
-0 0 0 68 1 84 255 
-31.4346 23.5664 6.39134 70 11 94 255 
-31.6531 23.7743 6.07181 71 13 96 255 
-0 0 0 68 1 84 255 
-22.1141 16.5611 3.74036 72 28 110 255 
-22.0709 16.5646 3.47144 72 28 110 255 
-11.3375 8.5216 1.65357 68 57 131 255 
-11.3864 8.52077 1.54245 66 64 134 255 
-11.3764 8.52905 1.40667 66 63 133 255 
-10.2217 7.67436 1.14301 64 69 136 255 
-10.208 7.68105 1.02337 61 77 138 255 
-10.2426 7.66763 0.923869 58 83 139 255 
-9.47983 7.10973 0.743444 55 91 141 255 
-9.47683 7.12286 0.631678 64 70 136 255 
-9.47324 7.13332 0.519832 64 69 136 255 
-8.0501 6.03069 0.361797 65 66 135 255 
-8.05192 6.0432 0.267142 53 95 141 255 
-7.30113 5.48958 0.156257 54 93 141 255 
-7.29056 5.49375 0.0716983 61 78 138 255 
-7.30685 5.47587 -0.00159366 57 86 140 255 
-7.2959 5.47977 -0.0875924 53 95 141 255 
-7.30059 5.49316 -0.172237 54 92 141 255 
-6.78633 5.11751 -0.240385 66 65 134 255 
-6.58372 4.93933 -0.298925 54 93 141 255 
-6.58403 4.9487 -0.375455 58 84 140 255 
-6.55995 4.93768 -0.451855 59 81 139 255 
-6.555 4.94485 -0.529539 57 86 140 255 
-6.56754 4.92897 -0.595805 58 83 139 255 
-6.56956 4.94141 -0.672959 58 84 140 255 
-6.05251 4.56069 -0.692359 62 74 137 255 
-5.83806 4.40402 -0.737659 61 78 138 255 
-5.83929 4.38719 -0.796021 51 99 141 255 
-5.82752 4.38487 -0.864468 54 92 141 255 
-5.83281 4.39674 -0.935704 54 93 141 255 
-5.83266 4.40314 -1.00628 54 92 141 255 
-5.8281 4.38355 -1.06518 50 100 142 255 
-5.8555 4.40912 -1.13997 51 99 141 255 
-5.83434 4.39949 -1.20577 49 104 142 255 
-5.55831 4.19603 -1.21797 55 90 140 255 
-5.29912 3.99147 -1.2176 47 108 142 255 
-5.03222 3.79333 -1.21581 56 89 140 255 
-4.7912 3.61289 -1.21759 56 89 140 255 
-4.60763 3.47709 -1.23012 50 100 142 255 
-4.41424 3.32857 -1.22666 55 91 141 255 
-4.24491 3.20217 -1.2315 61 78 138 255 
-4.06949 3.0709 -1.23243 61 78 138 255 
-3.90027 2.94116 -1.23245 63 72 137 255 
-3.76339 2.84294 -1.23295 64 69 136 255 
-3.59467 2.7156 -1.22233 65 66 135 255 
-3.49068 2.63508 -1.23266 66 63 133 255 
-3.34313 2.51919 -1.22646 68 58 131 255 
-19.6842 14.9358 7.42253 72 35 116 255 
-20.3611 15.4219 7.38689 72 38 119 255 
-21.1153 15.9812 7.37874 72 31 112 255 
-21.5946 16.3446 7.27199 72 24 106 255 
-22.3341 16.928 7.27371 72 28 110 255 
-28.9382 21.9262 9.03883 70 10 93 255 
-29.0621 22.0277 8.70779 71 13 96 255 
-28.7783 21.8213 8.27164 69 5 89 255 
-29.2019 22.1254 8.08202 71 13 96 255 
-29.9264 22.6832 7.89281 71 16 99 255 
-0 0 0 68 2 86 255 
-30.8353 23.4149 7.38582 70 11 94 255 
-29.7563 22.5454 6.81143 71 14 97 255 
-0 0 0 68 1 84 255 
-0 0 0 68 2 86 255 
-0 0 0 68 2 86 255 
-0 0 0 68 2 86 255 
-21.7981 16.5342 3.704 72 36 117 255 
-21.803 16.5736 3.44523 72 35 116 255 
-11.1933 8.52121 1.64013 69 55 129 255 
-11.2626 8.53643 1.53274 67 61 132 255 
-11.2328 8.52949 1.39535 64 69 136 255 
-10.1951 7.75261 1.14533 58 83 139 255 
-10.1821 7.75985 1.02553 62 73 137 255 
-10.1978 7.73214 0.924085 58 83 139 255 
-9.46861 7.19251 0.746011 58 84 140 255 
-9.45122 7.19478 0.632902 62 74 137 255 
-9.45392 7.2101 0.521189 62 73 137 255 
-8.0233 6.08782 0.362264 62 76 138 255 
-8.02901 6.10338 0.26762 50 101 142 255 
-7.2689 5.53549 0.156291 51 98 141 255 
-7.26625 5.54566 0.0717925 61 78 138 255 
-7.26753 5.51637 -0.00159244 58 83 139 255 
-7.26373 5.52564 -0.0876116 57 85 140 255 
-7.26595 5.53725 -0.172218 61 78 138 255 
-6.74607 5.15238 -0.240074 63 71 136 255 
-6.55727 4.98265 -0.299106 50 101 142 255 
-6.5599 4.99384 -0.37582 58 83 139 255 
-6.54144 4.98692 -0.45268 58 84 140 255 
-6.54753 5.00255 -0.531405 58 84 140 255 
-6.53955 4.97099 -0.596022 55 91 141 255 
-6.53039 4.97498 -0.672062 56 89 140 255 
-6.01728 4.59231 -0.691541 64 70 136 255 
-5.80856 4.43795 -0.737357 59 81 139 255 
-5.81859 4.42776 -0.796888 53 94 141 255 
-5.81551 4.43198 -0.866704 49 104 142 255 
-5.8136 4.43847 -0.936974 51 99 141 255 
-5.81104 4.44305 -1.00723 52 96 141 255 
-5.81211 4.42763 -1.0672 51 98 141 255 
-5.83619 4.45096 -1.1415 50 101 142 255 
-5.81821 4.44359 -1.20805 48 105 142 255 
-5.5215 4.22168 -1.21556 58 84 140 255 
-5.2628 4.01496 -1.21489 51 98 141 255 
-4.98855 3.80864 -1.21089 56 88 140 255 
-4.7705 3.64341 -1.21799 52 97 141 255 
-4.58388 3.50351 -1.22949 51 99 141 255 
-4.39528 3.35678 -1.2271 55 90 140 255 
-4.21512 3.22047 -1.22856 63 72 137 255 
-4.03589 3.0846 -1.22797 62 74 137 255 
-3.88215 2.96503 -1.23245 62 73 137 255 
-3.74588 2.86598 -1.23295 64 69 136 255 
-3.58867 2.74582 -1.22599 66 63 133 255 
-3.45839 2.64417 -1.22697 65 66 135 255 
-3.32303 2.53616 -1.22477 68 58 131 255 
-19.6066 15.0674 7.42799 72 31 112 255 
-20.2943 15.5681 7.39717 72 35 116 255 
-21.0321 16.1222 7.38411 72 33 115 255 
-21.4525 16.4451 7.25798 72 32 113 255 
-22.2252 17.0612 7.2722 72 27 109 255 
-0 0 0 68 1 84 255 
-0 0 0 68 2 86 255 
-25.4146 19.5175 7.33912 70 8 92 255 
-30.6746 23.5389 8.52944 70 8 92 255 
-0 0 0 68 2 86 255 
-0 0 0 68 1 84 255 
-30.4341 23.406 7.32399 70 10 93 255 
-31.3874 24.0859 7.21851 69 5 89 255 
-31.6565 24.3106 6.8872 70 10 93 255 
-0 0 0 68 2 86 255 
-0 0 0 68 2 86 255 
-0 0 0 68 1 84 255 
-21.4149 16.4515 3.65597 72 35 116 255 
-21.4391 16.5055 3.40367 72 37 118 255 
-11.0252 8.50058 1.62311 66 63 133 255 
-11.0491 8.48188 1.51075 68 59 132 255 
-11.039 8.48966 1.37773 64 70 136 255 
-10.1568 7.82231 1.1464 62 73 137 255 
-10.1391 7.82584 1.02601 66 65 134 255 
-10.1478 7.79275 0.923869 63 72 137 255 
-9.44092 7.26325 0.747326 58 83 139 255 
-9.4235 7.26544 0.634019 64 69 136 255 
-9.4182 7.27469 0.521671 67 61 132 255 
-8.00005 6.1479 0.362911 55 90 140 255 
-7.99299 6.15375 0.267673 52 96 141 255 
-7.24747 5.58976 0.156564 59 82 139 255 
-7.24079 5.59687 0.0718789 57 86 140 255 
-7.24861 5.57244 -0.00159575 58 83 139 255 
-7.23919 5.57743 -0.0877268 56 89 140 255 
-7.23975 5.58783 -0.172407 62 73 137 255 
-6.71116 5.19123 -0.239961 66 65 134 255 
-6.52737 5.0234 -0.299142 53 94 141 255 
-6.53151 5.03583 -0.375956 58 84 140 255 
-6.52178 5.0355 -0.453449 57 85 140 255 
-6.52776 5.05118 -0.532306 54 92 141 255 
-6.50735 5.0098 -0.595877 54 93 141 255 
-6.50448 5.01861 -0.672551 59 81 139 255 
-5.97481 4.61818 -0.689903 61 78 138 255 
-5.79066 4.48081 -0.738562 61 77 138 255 
-5.79604 4.46702 -0.797538 51 98 141 255 
-5.79214 4.47061 -0.867293 49 104 142 255 
-5.79489 4.48073 -0.938372 50 100 142 255 
-5.79229 4.4853 -1.00873 50 100 142 255 
-5.80599 4.47953 -1.0711 46 110 142 255 
-5.79704 4.47762 -1.1392 48 106 142 255 
-5.78771 4.47679 -1.20739 50 101 142 255 
-5.48615 4.24824 -1.21349 55 91 141 255 
-5.23106 4.04177 -1.21327 46 111 142 255 
-4.94179 3.82116 -1.20521 57 86 140 255 
-4.75038 3.67442 -1.21858 50 101 142 255 
-4.5623 3.53157 -1.22949 52 96 141 255 
-4.38155 3.38906 -1.22905 55 91 141 255 
-4.17987 3.23435 -1.22405 65 66 135 255 
-4.0192 3.11109 -1.22867 64 70 136 255 
-3.85698 2.98346 -1.23025 66 65 134 255 
-3.71599 2.87943 -1.22891 65 66 135 255 
-3.58854 2.78079 -1.23175 66 64 134 255 
-3.45808 2.67772 -1.23266 66 63 133 255 
-3.30741 2.55651 -1.22477 68 58 131 255 
-19.535 15.2038 7.43605 72 35 116 255 
-20.2159 15.7059 7.40356 72 31 112 255 
-20.9313 16.2497 7.38357 72 33 115 255 
-21.3558 16.5799 7.25954 72 28 110 255 
-22.0781 17.1646 7.25839 72 20 103 255 
-0 0 0 68 1 84 255 
-25.02 19.452 7.56764 70 7 90 255 
-30.238 23.5181 8.77351 69 4 87 255 
-30.461 23.6733 8.51027 70 7 90 255 
-24.6185 19.1402 6.55437 71 19 101 255 
-24.7492 19.2622 6.28376 69 4 87 255 
-30.5851 23.8223 7.39538 70 11 94 255 
-30.4118 23.6351 7.02736 70 8 92 255 
-0 0 0 68 2 86 255 
-0 0 0 68 1 84 255 
-0 0 0 68 2 86 255 
-0 0 0 68 2 86 255 
-21.2267 16.5151 3.64108 72 24 106 255 
-21.1168 16.4647 3.36847 72 35 116 255 
-10.853 8.47454 1.60539 67 61 132 255 
-10.9247 8.49338 1.50083 64 69 136 255 
-10.9074 8.49547 1.36778 63 71 136 255 
-10.1094 7.8851 1.14649 61 77 138 255 
-10.1042 7.89834 1.02736 66 64 134 255 
-10.1226 7.87262 0.925957 63 71 136 255 
-9.40955 7.33147 0.74839 58 83 139 255 
-9.40551 7.34402 0.635828 64 70 136 255 
-9.38047 7.33788 0.522065 64 69 136 255 
-7.9748 6.20669 0.363486 54 93 141 255 
-7.95193 6.20022 0.267567 51 99 141 255 
-7.23116 5.64828 0.156958 56 89 140 255 
-7.22048 5.65229 0.0720203 55 91 141 255 
-7.23322 5.63155 -0.00159994 52 96 141 255 
-7.2474 5.65496 -0.0882451 51 98 141 255 
-7.22108 5.64447 -0.172784 55 91 141 255 
-6.65873 5.21628 -0.239226 66 63 133 255 
-6.51376 5.07688 -0.299941 57 86 140 255 
-6.51072 5.08381 -0.376548 60 79 138 255 
-6.49548 5.07911 -0.453779 61 78 138 255 
-6.50214 5.09545 -0.532757 57 85 140 255 
-6.49379 5.06313 -0.597469 53 94 141 255 
-6.48691 5.06886 -0.673938 59 81 139 255 
-5.93303 4.64432 -0.688356 64 69 136 255 
-5.76306 4.51626 -0.738562 52 96 141 255 
-5.77244 4.50555 -0.798079 60 80 139 255 
-5.77086 4.51096 -0.868234 51 99 141 255 
-5.77432 4.5217 -0.939516 50 100 142 255 
-5.76699 4.52259 -1.00914 50 100 142 255 
-5.79321 4.52664 -1.07385 50 100 142 255 
-5.77958 4.52102 -1.1412 48 105 142 255 
-5.76246 4.51404 -1.20788 54 93 141 255 
-5.44835 4.2727 -1.21091 52 96 141 255 
-5.20771 4.075 -1.21363 50 101 142 255 
-4.93062 3.8611 -1.20824 53 94 141 255 
-4.72543 3.70168 -1.21799 51 99 141 255 
-4.53438 3.55467 -1.22782 55 91 141 255 
-4.34761 3.40564 -1.22536 54 92 141 255 
-4.17375 3.27075 -1.22811 59 81 139 255 
-4.02604 3.15608 -1.23666 62 76 138 255 
-3.83021 3.00049 -1.22756 66 63 133 255 
-3.69673 2.90098 -1.2284 67 62 133 255 
-3.55926 2.79322 -1.22756 66 65 134 255 
-3.43477 2.69354 -1.23022 65 66 135 255 
-3.29619 2.5803 -1.22646 68 59 132 255 
-19.4541 15.3335 7.44094 72 29 111 255 
-20.1093 15.8219 7.39995 72 33 115 255 
-20.6608 16.2439 7.32318 72 28 110 255 
-21.2498 16.7077 7.25824 72 27 109 255 
-25.4318 20.0235 8.40121 71 14 97 255 
-25.1914 19.8277 7.98118 69 5 89 255 
-24.927 19.6262 7.57577 71 13 96 255 
-0 0 0 68 1 84 255 
-0 0 0 68 2 86 255 
-25.2065 19.8466 6.74319 71 16 99 255 
-24.6867 19.458 6.2981 70 10 93 255 
-0 0 0 69 4 87 255 
-0 0 0 68 2 86 255 
-25.3152 19.9394 5.5604 72 24 106 255 
-0 0 0 68 2 86 255 
-0 0 0 68 1 84 255 
-0 0 0 68 1 84 255 
-18.066 14.2347 3.11383 67 61 132 255 
-18.0532 14.255 2.89368 64 70 136 255 
-10.807 8.5459 1.60632 64 69 136 255 
-10.8271 8.52458 1.49457 63 72 137 255 
-10.8191 8.53389 1.36326 58 83 139 255 
-10.0725 7.95624 1.14782 59 81 139 255 
-10.0688 7.97071 1.02872 64 69 136 255 
-10.0905 7.94755 0.92747 59 82 139 255 
-9.36204 7.38722 0.748203 52 96 141 255 
-9.35557 7.39788 0.635509 61 78 138 255 
-9.33997 7.39902 0.522328 62 74 137 255 
-7.95462 6.26973 0.364313 52 97 141 255 
-7.93021 6.26191 0.268124 51 99 141 255 
-7.21126 5.70433 0.157283 52 97 141 255 
-7.1982 5.70642 0.0721459 49 103 142 255 
-7.21267 5.68697 -0.00160308 49 104 142 255 
-7.21257 5.69933 -0.0882451 50 101 142 255 
-7.19102 5.69239 -0.172897 55 91 141 255 
-6.60467 5.23964 -0.238434 62 73 137 255 
-6.47229 5.1087 -0.299469 50 100 142 255 
-6.4747 5.11994 -0.376275 54 93 141 255 
-6.4822 5.13313 -0.455042 54 92 141 255 
-6.47701 5.14021 -0.533272 51 99 141 255 
-6.48373 5.11957 -0.599423 50 101 142 255 
-6.44787 5.10238 -0.673123 57 86 140 255 
-5.88803 4.66764 -0.686446 64 69 136 255 
-5.75082 4.5639 -0.740569 55 91 141 255 
-5.7478 4.54335 -0.798513 55 90 140 255 
-5.74073 4.54443 -0.867881 52 96 141 255 
-5.75113 4.56075 -0.940278 53 94 141 255 
-5.74612 4.56343 -1.01037 54 93 141 255 
-5.7661 4.56272 -1.07399 49 103 142 255 
-5.7556 4.55947 -1.14196 53 95 141 255 
-5.7192 4.53705 -1.20463 59 81 139 255 
-5.40583 4.29319 -1.20729 54 92 141 255 
-5.18106 4.10565 -1.21327 47 107 142 255 
-4.8976 3.88396 -1.20596 53 94 141 255 
-4.69879 3.72756 -1.21699 50 100 142 255 
-4.51938 3.5879 -1.2297 55 91 141 255 
-4.32281 3.42922 -1.22428 53 94 141 255 
-4.16047 3.30175 -1.23014 60 79 138 255 
-4.01041 3.18374 -1.23783 61 77 138 255 
-3.80945 3.02213 -1.22682 67 61 132 255 
-3.68113 2.92542 -1.22916 64 69 136 255 
-3.54206 2.81501 -1.22756 66 63 133 255 
-3.40913 2.70738 -1.22697 65 68 135 255 
-3.28631 2.60525 -1.22871 66 63 133 255 
-19.3664 15.458 7.44353 72 28 110 255 
-20.0937 16.0103 7.43023 72 35 116 255 
-20.4929 16.3164 7.29902 72 26 108 255 
-21.1968 16.8775 7.27536 72 26 108 255 
-25.1745 20.0724 8.35674 71 14 97 255 
-25.0579 19.9728 7.97756 69 4 87 255 
-25.003 19.9358 7.63592 71 13 96 255 
-24.7874 19.7717 7.26188 70 11 94 255 
-25.3558 20.2096 7.15271 71 16 99 255 
-25.3023 20.1748 6.80182 71 16 99 255 
-24.6159 19.6483 6.31067 69 4 87 255 
-0 0 0 68 1 84 255 
-0 0 0 68 2 86 255 
-25.4666 20.3131 5.62093 71 14 97 255 
-25.6879 20.5186 5.34844 69 5 89 255 
-0 0 0 68 2 86 255 
-20.5693 16.4005 3.81906 72 20 103 255 
-17.818 14.2174 3.08606 70 52 128 255 
-20.5334 16.419 3.30731 72 36 117 255 
-10.7652 8.62074 1.60794 64 69 136 255 
-10.7745 8.59085 1.49457 63 71 136 255 
-10.7751 8.60694 1.36434 56 88 140 255 
-10.0352 8.02722 1.14916 61 78 138 255 
-10.0252 8.0367 1.02928 64 70 136 255 
-10.0478 8.01429 0.928046 63 72 137 255 
-9.31654 7.44452 0.748203 58 84 140 255 
-9.30766 7.45327 0.63535 59 81 139 255 
-9.30063 7.46119 0.522678 62 73 137 255 
-7.92146 6.32279 0.364565 52 96 141 255 
-7.90413 6.32044 0.268548 48 105 142 255 
-7.18003 5.75159 0.157368 45 112 142 255 
-7.17553 5.7605 0.0722716 50 102 142 255 
-7.19873 5.74797 -0.0016078 45 112 142 255 
-7.17044 5.73785 -0.0881587 52 96 141 255 
-7.15907 5.73891 -0.172972 61 78 138 255 
-6.5459 5.25879 -0.237473 65 66 135 255 
-6.45956 5.16329 -0.30034 50 100 142 255 
-6.45408 5.16831 -0.376913 56 89 140 255 
-6.45214 5.17406 -0.455152 53 95 141 255 
-6.44457 5.17923 -0.533207 52 97 141 255 
-6.46388 5.1686 -0.600508 50 102 142 255 
-6.432 5.15432 -0.674754 57 86 140 255 
-5.84996 4.6962 -0.685354 65 66 135 255 
-5.73279 4.60721 -0.741874 53 95 141 255 
-5.73534 4.59096 -0.80068 50 100 142 255 
-5.72436 4.58889 -0.869647 51 98 141 255 
-5.73154 4.60278 -0.941676 53 95 141 255 
-5.72727 4.60606 -1.01201 49 104 142 255 
-5.73027 4.59182 -1.07255 49 103 142 255 
-5.7306 4.59717 -1.14258 50 102 142 255 
-5.69048 4.57144 -1.20446 65 66 135 255 
-5.38169 4.32813 -1.20781 57 85 140 255 
-5.15731 4.1386 -1.21363 48 106 142 255 
-4.86908 3.91024 -1.20483 55 91 141 255 
-4.67583 3.75632 -1.21699 49 103 142 255 
-4.49423 3.61311 -1.22887 52 96 141 255 
-4.29027 3.44651 -1.22103 54 93 141 255 
-4.1333 3.32172 -1.22811 64 69 136 255 
-3.98398 3.20281 -1.23572 63 71 136 255 
-3.78781 3.04302 -1.22584 67 62 133 255 
-3.6503 2.93764 -1.22486 62 73 137 255 
-3.52096 2.83366 -1.22625 66 65 134 255 
-3.36395 2.70533 -1.21666 67 62 133 255 
-3.27625 2.63017 -1.23096 68 59 132 255 
-19.2712 15.5765 7.44353 72 33 115 255 
-19.9861 16.126 7.4269 72 37 118 255 
-20.4097 16.4557 7.3052 72 29 111 255 
-21.0936 17.0078 7.27562 72 27 109 255 
-25.0133 20.1961 8.34418 71 16 99 255 
-25.2792 20.4041 8.08772 71 13 96 255 
-24.9173 20.1188 7.6473 70 11 94 255 
-25.1964 20.3522 7.41815 70 7 90 255 
-25.1811 20.3244 7.13849 70 8 92 255 
-25.213 20.358 6.81128 70 8 92 255 
-0 0 0 68 2 86 255 
-24.8856 20.1298 6.10582 71 14 97 255 
-25.3019 20.4219 5.93247 69 5 89 255 
-25.2794 20.4188 5.60716 71 13 96 255 
-25.3751 20.525 5.30942 70 7 90 255 
-0 0 0 68 1 84 255 
-20.2973 16.3884 3.78716 72 33 115 255 
-17.5662 14.1938 3.05749 72 41 121 255 
-20.2943 16.4329 3.28497 72 31 112 255 
-10.7137 8.68789 1.60817 66 63 133 255 
-10.7348 8.66742 1.49641 62 73 137 255 
-10.743 8.6898 1.367 57 85 140 255 
-9.99966 8.09993 1.15076 60 79 138 255 
-9.99657 8.11503 1.03144 64 69 136 255 
-10.0086 8.08394 0.928982 62 76 138 255 
-9.28077 7.50971 0.749017 61 77 138 255 
-9.27339 7.51968 0.636148 62 73 137 255 
-9.26708 7.5282 0.523379 68 59 132 255 
-7.89573 6.38195 0.365176 50 101 142 255 
-7.87841 6.37951 0.268999 51 99 141 255 
-7.15082 5.80058 0.157505 54 92 141 255 
-7.1447 5.8082 0.0723187 51 99 141 255 
-7.168 5.79581 -0.00160884 50 102 142 255 
-7.15529 5.79811 -0.0884083 55 90 140 255 
-7.12761 5.78588 -0.173066 64 69 136 255 
-6.49335 5.28245 -0.236738 66 65 134 255 
-6.43319 5.20723 -0.300594 54 92 141 255 
-6.4238 5.20908 -0.377004 57 86 140 255 
-6.41174 5.20663 -0.454548 58 83 139 255 
-6.41267 5.21868 -0.533207 57 86 140 255 
-6.42972 5.20628 -0.600291 55 91 141 255 
-6.40335 5.1962 -0.675081 54 92 141 255 
-5.81486 4.72698 -0.684626 64 69 136 255 
-5.70442 4.6423 -0.741874 54 93 141 255 
-5.7171 4.6342 -0.802088 52 96 141 255 
-5.71075 4.63582 -0.871883 48 105 142 255 
-5.70011 4.63536 -0.941168 53 95 141 255 
-5.6989 4.64111 -1.01201 51 99 141 255 
-5.70122 4.62627 -1.0724 50 102 142 255 
-5.72069 4.6472 -1.14627 47 107 142 255 
-5.64319 4.59071 -1.20039 62 76 138 255 
-5.34969 4.35672 -1.2066 55 91 141 255 
-5.12342 4.16334 -1.21164 50 100 142 255 
-4.82595 3.92456 -1.20009 56 89 140 255 
-4.64357 3.77752 -1.21461 50 101 142 255 
-4.46515 3.63506 -1.22699 53 95 141 255 
-4.28192 3.48324 -1.22471 52 96 141 255 
-4.11661 3.3501 -1.22924 63 72 137 255 
-3.95294 3.21799 -1.2322 64 70 136 255 
-3.75477 3.05457 -1.2212 67 62 133 255 
-3.61945 2.94959 -1.22056 65 68 135 255 
-3.50276 2.85461 -1.22599 66 64 134 255 
-3.36296 2.73868 -1.22235 65 66 135 255 
-3.24442 2.63751 -1.22505 68 57 131 255 
-19.1782 15.6969 7.44468 72 28 110 255 
-19.7886 16.1681 7.39023 72 28 110 255 
-20.3202 16.5904 7.30949 72 32 113 255 
-20.9394 17.0966 7.2585 70 10 93 255 
-24.9039 20.3614 8.3492 69 4 87 255 
-25.1738 20.5754 8.09424 71 14 97 255 
-24.868 20.3323 7.67029 70 8 92 255 
-25.0401 20.4811 7.409 70 8 92 255 
-24.2764 19.8414 6.9164 70 11 94 255 
-0 0 0 68 1 84 255 
-0 0 0 68 2 86 255 
-24.6317 20.1757 6.07378 71 14 97 255 
-25.4092 20.7672 5.9874 72 23 105 255 
-25.117 20.5436 5.599 70 11 94 255 
-25.1639 20.6109 5.29159 70 11 94 255 
-0 0 0 68 2 86 255 
-19.9796 16.3353 3.74651 72 38 119 255 
-19.8809 16.2667 3.47767 72 24 106 255 
-11.4488 9.38735 1.86247 71 47 125 255 
-10.6671 8.75913 1.60921 67 61 132 255 
-10.6814 8.73312 1.49641 64 69 136 255 
-10.6972 8.76186 1.36798 62 73 137 255 
-9.95901 8.16872 1.15183 59 81 139 255 
-9.95583 8.18381 1.03239 65 68 135 255 
-9.97112 8.1553 0.930134 58 84 140 255 
-9.2569 7.58486 0.750832 59 81 139 255 
-9.24096 7.58784 0.637105 63 72 137 255 
-9.24154 7.60205 0.524562 67 62 133 255 
-7.85875 6.43218 0.365284 52 96 141 255 
-7.84221 6.43027 0.269105 55 91 141 255 
-7.13363 5.85958 0.157916 54 92 141 255 
-7.12669 5.86655 0.0724994 57 86 140 255 
-7.14004 5.84601 -0.00161059 50 100 142 255 
-7.12267 5.84444 -0.0884467 52 96 141 255 
-7.10974 5.84411 -0.1735 57 85 140 255 
-6.44461 5.30885 -0.236144 65 68 135 255 
-6.40653 5.25104 -0.300848 57 86 140 255 
-6.40175 5.25664 -0.377596 56 89 140 255 
-6.39124 5.25538 -0.455372 54 93 141 255 
-6.39131 5.26681 -0.534108 55 90 140 255 
-6.40383 5.25069 -0.60087 59 81 139 255 
-6.38059 5.24298 -0.67606 63 71 136 255 
-5.77421 4.75308 -0.683261 64 69 136 255 
-5.6812 4.68164 -0.742576 54 92 141 255 
-5.69317 4.67298 -0.802738 51 99 141 255 
-5.69524 4.68149 -0.873884 52 96 141 255 
-5.67692 4.67466 -0.942057 54 93 141 255 
-5.6772 4.68166 -1.01323 51 99 141 255 
-5.6819 4.66871 -1.07414 49 104 142 255 
-5.68367 4.67531 -1.14458 47 107 142 255 
-5.61492 4.62525 -1.20039 59 81 139 255 
-5.3221 4.38883 -1.20643 53 94 141 255 
-5.07727 4.17783 -1.20677 48 105 142 255 
-4.79193 3.94598 -1.19763 56 88 140 255 
-4.61955 3.80532 -1.21441 52 96 141 255 
-4.42465 3.64746 -1.22199 57 86 140 255 
-4.26122 3.51007 -1.22493 55 91 141 255 
-4.09749 3.37653 -1.22969 60 80 139 255 
-3.92187 3.23291 -1.22867 62 73 137 255 
-3.72548 3.06892 -1.21777 65 66 135 255 
-3.60502 2.97482 -1.22183 64 70 136 255 
-3.48294 2.8742 -1.22521 66 63 133 255 
-3.33718 2.75191 -1.2191 66 63 133 255 
-3.23632 2.66408 -1.22815 68 57 131 255 
-19.1147 15.8418 7.45763 72 29 111 255 
-19.4988 16.1319 7.31883 72 31 112 255 
-20.224 16.7197 7.31164 72 31 112 255 
-24.8655 20.5577 8.663 71 17 100 255 
-24.7777 20.5132 8.34895 71 14 97 255 
-24.778 20.5067 8.00727 70 7 90 255 
-24.7113 20.4584 7.66054 71 19 101 255 
-24.5394 20.3241 7.2976 70 11 94 255 
-23.9097 19.7876 6.84639 71 13 96 255 
-24.6123 20.3769 6.71604 72 22 104 255 
-24.6623 20.4397 6.41794 72 24 106 255 
-24.6367 20.4337 6.10582 72 22 104 255 
-24.7872 20.5138 5.87037 71 19 101 255 
-24.9594 20.6716 5.59202 72 26 108 255 
-25.0012 20.7353 5.28405 70 11 94 255 
-24.8476 20.6452 4.95493 70 10 93 255 
-19.6891 16.3005 3.71073 72 38 119 255 
-19.6708 16.2973 3.45835 72 36 117 255 
-11.3521 9.4251 1.85611 60 79 138 255 
-10.6307 8.83903 1.61188 66 64 134 255 
-10.6406 8.80928 1.49824 64 70 136 255 
-10.6455 8.82923 1.36828 59 81 139 255 
-9.92863 8.24622 1.15414 61 77 138 255 
-9.91768 8.25494 1.03367 61 78 138 255 
-9.9278 8.22205 0.930782 61 77 138 255 
-9.23093 7.65872 0.752523 54 92 141 255 
-9.20191 7.65079 0.637638 62 74 137 255 
-9.20624 7.66821 0.525218 63 71 136 255 
-7.82606 6.48602 0.365607 49 103 142 255 
-7.80414 6.47954 0.269158 52 97 141 255 
-7.10292 5.90771 0.158035 55 91 141 255 
-7.09056 5.91017 0.0724994 55 91 141 255 
-7.11481 5.89865 -0.00161303 46 110 142 255 
-7.08976 5.89059 -0.0884851 51 99 141 255 
-7.08604 5.89785 -0.173801 60 79 138 255 
-6.40193 5.33997 -0.235777 64 70 136 255 
-6.3888 5.30238 -0.301538 53 94 141 255 
-6.37629 5.30157 -0.378005 54 92 141 255 
-6.36808 5.30217 -0.456032 54 92 141 255 
-6.36577 5.31168 -0.534687 58 83 139 255 
-6.37686 5.29435 -0.601377 54 93 141 255 
-6.35519 5.28777 -0.676794 61 78 138 255 
-5.73958 4.78396 -0.682624 63 72 137 255 
-5.66153 4.72406 -0.743781 52 97 141 255 
-5.67203 4.71418 -0.803822 49 103 142 255 
-5.67251 4.72143 -0.874826 50 102 142 255 
-5.65804 4.71766 -0.943709 54 92 141 255 
-5.66205 4.72784 -1.01569 55 91 141 255 
-5.67064 4.71804 -1.07746 45 112 142 255 
-5.65943 4.71389 -1.1455 49 104 142 255 
-5.58795 4.66087 -1.20072 60 79 138 255 
-5.29204 4.41888 -1.20574 57 86 140 255 
-5.04474 4.20324 -1.20515 43 116 142 255 
-4.78196 3.98726 -1.20123 54 93 141 255 
-4.59912 3.8361 -1.2152 50 101 142 255 
-4.39768 3.67078 -1.22074 50 100 142 255 
-4.21786 3.51802 -1.21865 58 83 139 255 
-4.0535 3.38226 -1.2227 59 81 139 255 
-3.9042 3.25878 -1.22938 62 76 138 255 
-3.72147 3.10415 -1.22266 66 64 134 255 
-3.59041 2.99999 -1.22309 64 70 136 255 
-3.45561 2.88747 -1.2218 65 66 135 255 
-3.3158 2.76864 -1.21747 68 59 132 255 
-3.21328 2.67835 -1.22562 70 52 128 255 
-19.015 15.9569 7.45676 72 37 118 255 
-19.4407 16.2858 7.33439 72 31 112 255 
-20.121 16.8434 7.31164 72 29 111 255 
-24.5789 20.576 8.60699 70 10 93 255 
-23.6544 19.8292 8.01131 72 22 104 255 
-24.8257 20.8042 8.0638 71 19 101 255 
-24.5719 20.5984 7.65636 71 14 97 255 
-23.4179 19.6387 6.99978 71 13 96 255 
-23.5184 19.7081 6.76884 70 11 94 255 
-23.5681 19.7574 6.46407 72 31 112 255 
-24.45 20.5181 6.39535 72 20 103 255 
-24.4311 20.5175 6.08596 71 17 100 255 
-24.7807 20.766 5.89891 71 16 99 255 
-24.9098 20.8895 5.60954 72 27 109 255 
-24.8849 20.8978 5.28646 72 22 104 255 
-24.7469 20.8195 4.96024 69 5 89 255 
-19.4014 16.2639 3.67525 72 36 117 255 
-19.4437 16.3114 3.43595 72 41 121 255 
-11.3069 9.50543 1.85823 58 84 140 255 
-10.6014 8.9252 1.6157 62 73 137 255 
-10.6199 8.9025 1.50298 63 71 136 255 
-10.6056 8.90655 1.37015 59 81 139 255 
-9.89004 8.31724 1.15557 65 66 135 255 
-9.87599 8.32335 1.03463 61 77 138 255 
-9.88863 8.29243 0.931863 63 72 137 255 
-9.2021 7.73062 0.754026 55 91 141 255 
-9.18688 7.73411 0.639872 61 78 138 255 
-9.16818 7.73228 0.525744 63 71 136 255 
-7.79606 6.54227 0.366074 50 101 142 255 
-7.76807 6.53052 0.269291 53 94 141 255 
-7.05889 5.94474 0.157864 57 86 140 255 
-7.0618 5.96001 0.0725779 57 86 140 255 
-7.08078 5.94412 -0.00161356 52 96 141 255 
-7.0596 5.93913 -0.0885619 57 86 140 255 
-7.04972 5.94122 -0.173801 64 69 136 255 
-6.36294 5.37399 -0.23555 62 74 137 255 
-6.35997 5.34469 -0.301719 48 106 142 255 
-6.35281 5.34831 -0.378552 55 91 141 255 
-6.35299 5.35594 -0.457295 54 93 141 255 
-6.3483 5.36352 -0.535975 54 92 141 255 
-6.36258 5.34878 -0.603114 52 96 141 255 
-6.33101 5.33373 -0.677692 58 83 139 255 
-5.70175 4.81202 -0.681624 61 77 138 255 
-5.6446 4.76898 -0.745386 55 91 141 255 
-5.65213 4.75657 -0.805122 50 101 142 255 
-5.64951 4.76127 -0.875768 49 103 142 255 
-5.63808 4.75997 -0.945234 51 99 141 255 
-5.6405 4.76889 -1.01705 53 95 141 255 
-5.64991 4.75976 -1.07905 50 100 142 255 
-5.64098 4.75745 -1.14765 48 105 142 255 
-5.55472 4.69125 -1.19974 55 90 140 255 
-5.25881 4.44618 -1.20436 59 82 139 255 
-5.02186 4.23665 -1.20587 46 110 142 255 
-4.74164 4.00322 -1.19725 53 94 141 255 
-4.56801 3.85793 -1.21321 52 96 141 255 
-4.37358 3.69644 -1.22032 52 97 141 255 
-4.18202 3.53187 -1.21453 58 83 139 255 
-4.0297 3.40456 -1.22179 63 72 137 255 
-3.88265 3.28142 -1.22891 64 69 136 255 
-3.70976 3.13318 -1.22511 65 66 135 255 
-3.56381 3.01509 -1.22031 65 68 135 255 
-3.42309 2.89616 -1.21657 64 69 136 255 
-3.31419 2.80198 -1.22317 68 59 132 255 
-3.19092 2.69307 -1.22337 70 51 127 255 
-18.8977 16.0571 7.44928 72 35 116 255 
-19.347 16.4103 7.33689 72 33 115 255 
-20.0254 16.9734 7.31459 72 23 105 255 
-24.3638 20.6515 8.57587 72 23 105 255 
-23.5795 20.014 8.02739 69 4 87 255 
-24.0302 20.3899 7.8459 70 10 93 255 
-24.3924 20.7041 7.63987 71 14 97 255 
-23.742 20.16 7.13351 70 10 93 255 
-24.9272 21.1504 7.21152 71 13 96 255 
-23.68 20.0998 6.52845 71 17 100 255 
-24.5389 20.8506 6.45193 72 22 104 255 
-24.7994 21.0876 6.20982 70 7 90 255 
-24.5673 20.8451 5.87845 72 20 103 255 
-24.6685 20.9463 5.58403 71 19 101 255 
-24.8239 21.1077 5.30091 72 28 110 255 
-19.0461 16.224 3.83745 71 19 101 255 
-19.1104 16.2207 3.6389 72 40 120 255 
-19.0932 16.218 3.39154 72 32 113 255 
-11.268 9.59135 1.86147 57 85 140 255 
-10.5608 9.00232 1.6179 68 59 132 255 
-10.5764 8.97715 1.5046 64 70 136 255 
-10.5629 8.98177 1.37172 57 85 140 255 
-9.83958 8.37841 1.15566 64 69 136 255 
-9.82474 8.38379 1.03463 66 64 134 255 
-9.8695 8.38006 0.934888 58 84 140 255 
-9.14993 7.78306 0.75365 52 97 141 255 
-9.14153 7.79228 0.640032 65 68 135 255 
-9.12284 7.79034 0.525875 71 47 125 255 
-7.75577 6.58998 0.366074 52 97 141 255 
-7.73698 6.58584 0.269609 52 96 141 255 
-7.03674 6.00027 0.158189 60 79 138 255 
-7.0289 6.00648 0.0726172 51 98 141 255 
-7.04189 5.98551 -0.00161303 57 86 140 255 
-7.02912 5.98752 -0.0886387 61 78 138 255 
-7.01845 5.98891 -0.173933 65 68 135 255 
-6.3344 5.41683 -0.23572 62 76 138 255 
-6.33923 5.39398 -0.3023 50 101 142 255 
-6.31988 5.38719 -0.378552 54 92 141 255 
-6.32836 5.40195 -0.4579 51 99 141 255 
-6.32817 5.4134 -0.537069 55 91 141 255 
-6.3342 5.3916 -0.603548 54 92 141 255 
-6.29665 5.37118 -0.677528 54 92 141 255 
-5.66076 4.83721 -0.680259 61 77 138 255 
-5.63111 4.81711 -0.747494 52 96 141 255 
-5.63343 4.80019 -0.806639 51 98 141 255 
-5.62397 4.79907 -0.876356 51 98 141 255 
-5.60877 4.79448 -0.945234 51 99 141 255 
-5.61038 4.80276 -1.01692 50 100 142 255 
-5.62888 4.8014 -1.08064 46 109 142 255 
-5.63197 4.80929 -1.1518 48 106 142 255 
-5.51233 4.71371 -1.19681 55 91 141 255 
-5.21946 4.46811 -1.2016 54 92 141 255 
-4.98455 4.2578 -1.20316 47 107 142 255 
-4.60653 3.93782 -1.16921 61 77 138 255 
-4.52861 3.87251 -1.20904 54 93 141 255 
-4.34562 3.71875 -1.21886 55 90 140 255 
-4.1625 3.55936 -1.21518 63 71 136 255 
-4.01391 3.43365 -1.22337 62 76 138 255 
-3.85062 3.29507 -1.22515 62 74 137 255 
-3.69563 3.16029 -1.22682 64 70 136 255 
-3.54157 3.03375 -1.21904 64 69 136 255 
-3.42505 2.93406 -1.22364 66 63 133 255 
-3.3196 2.84167 -1.23158 67 61 132 255 
-3.17069 2.70948 -1.22196 69 53 129 255 
-18.6427 16.0385 7.38743 72 31 112 255 
-19.2671 16.5469 7.34494 72 32 113 255 
-0 0 0 68 1 84 255 
-24.7123 21.2088 8.74417 70 10 93 255 
-24.6206 21.1589 8.42583 72 22 104 255 
-24.2204 20.8082 7.94954 71 13 96 255 
-24.6071 21.1476 7.74764 71 13 96 255 
-23.5365 20.2354 7.10895 70 10 93 255 
-23.7525 20.4057 6.90778 70 11 94 255 
-25.0339 21.5147 6.93798 71 16 99 255 
-24.4603 21.0436 6.46509 71 16 99 255 
-23.8254 20.5126 5.99733 70 11 94 255 
-24.2554 20.8377 5.83429 72 22 104 255 
-24.6569 21.1981 5.61073 72 22 104 255 
-24.928 21.4612 5.35117 72 32 113 255 
-18.7867 16.2031 3.80516 72 32 113 255 
-18.8807 16.226 3.61405 72 40 120 255 
-18.8431 16.2056 3.36471 72 36 117 255 
-11.23 9.67844 1.86497 56 89 140 255 
-10.9678 9.46608 1.68912 69 53 129 255 
-10.773 9.2583 1.54062 68 58 131 255 
-10.5106 9.04901 1.37212 65 68 135 255 
-9.81816 8.46464 1.15922 63 71 136 255 
-4.49471 3.88341 0.475832 35 138 141 255 
-9.80655 8.43071 0.933807 65 66 135 255 
-4.60545 3.96642 0.381333 61 78 138 255 
-4.63182 3.99751 0.326002 50 100 142 255 
-4.68102 4.04723 0.271259 41 123 142 255 
-4.70684 4.04934 0.223333 45 112 142 255 
-4.73265 4.07885 0.165787 53 94 141 255 
-7.01341 6.0551 0.158497 60 79 138 255 
-6.98586 6.04426 0.0725543 59 81 139 255 
-7.0073 6.03057 -0.00161356 61 77 138 255 
-6.99906 6.03642 -0.0887251 59 82 139 255 
-7.01638 6.06193 -0.1748 61 77 138 255 
-6.31314 5.46606 -0.236172 60 80 139 255 
-6.3151 5.4406 -0.302736 53 94 141 255 
-6.30032 5.43762 -0.379372 53 94 141 255 
-6.29585 5.44134 -0.457955 50 100 142 255 
-6.30086 5.45736 -0.537584 56 89 140 255 
-6.31157 5.43948 -0.604561 55 90 140 255 
-6.27338 5.41819 -0.678589 54 92 141 255 
-5.61139 4.85491 -0.677894 60 79 138 255 
-5.59769 4.84831 -0.746992 54 93 141 255 
-5.60989 4.83986 -0.807506 51 99 141 255 
-5.60042 4.83868 -0.877298 47 107 142 255 
-5.60099 4.84762 -0.948919 53 94 141 255 
-5.5853 4.84099 -1.01773 51 99 141 255 
-5.59782 4.83455 -1.08035 50 100 142 255 
-5.60833 4.84893 -1.15303 49 103 142 255 
-5.47212 4.73775 -1.19437 56 89 140 255 
-5.17854 4.48844 -1.1985 60 79 138 255 
-4.95536 4.28573 -1.20244 45 112 142 255 
-4.58377 3.96729 -1.16959 56 89 140 255 
-4.50773 3.90279 -1.20983 50 102 142 255 
-4.31754 3.74086 -1.2174 53 95 141 255 
-4.14574 3.58931 -1.2167 65 68 135 255 
-3.98835 3.45439 -1.22202 62 76 138 255 
-3.82299 3.31227 -1.2228 61 78 138 255 
-3.64318 3.15435 -1.21581 66 64 134 255 
-3.50534 3.04021 -1.21297 65 68 135 255 
-3.41063 2.95818 -1.22495 69 55 129 255 
-3.30574 2.86513 -1.23293 67 61 132 255 
-3.1569 2.7314 -1.22309 69 55 129 255 
-18.5173 16.1293 7.37678 72 31 112 255 
-19.1913 16.6875 7.35495 72 28 110 255 
-24.5159 21.302 9.04963 70 7 90 255 
-24.3404 21.1504 8.65834 70 10 93 255 
-24.2697 21.1177 8.34996 71 17 100 255 
-23.7826 20.687 7.84735 71 19 101 255 
-23.8517 20.7542 7.54975 71 16 99 255 
-23.8832 20.7897 7.25206 71 13 96 255 
-25.2213 21.9379 7.37394 71 19 101 255 
-24.0332 20.9124 6.69609 72 22 104 255 
-24.0579 20.9557 6.3926 71 14 97 255 
-23.4059 20.4028 5.92312 71 16 99 255 
-23.9742 20.8532 5.79732 72 23 105 255 
-24.7441 21.5386 5.66055 71 17 100 255 
-25.1098 21.8874 5.41893 71 19 101 255 
-18.5574 16.2049 3.77878 72 38 119 255 
-18.6098 16.1928 3.58115 72 41 121 255 
-18.6028 16.1986 3.33949 71 46 124 255 
-11.1801 9.75565 1.86659 58 84 140 255 
-10.9289 9.55019 1.69213 68 57 131 255 
-10.7205 9.32814 1.54126 67 61 132 255 
-10.4744 9.13033 1.37468 67 62 133 255 
-9.75328 8.51359 1.15771 62 74 137 255 
-4.46029 3.90172 0.474714 33 142 141 255 
-4.60422 4.00765 0.440761 44 114 142 255 
-4.57501 3.98936 0.380833 44 113 142 255 
-4.51396 3.94438 0.319404 51 99 141 255 
-4.36744 3.82319 0.254442 53 94 141 255 
-4.65629 4.05582 0.222111 42 118 142 255 
-4.70302 4.10387 0.165628 41 122 142 255 
-6.96107 6.08486 0.158155 66 64 134 255 
-6.96369 6.10019 0.0727114 60 80 139 255 
-6.98223 6.08396 -0.00161635 52 96 141 255 
-6.97093 6.08714 -0.0888403 55 91 141 255 
-6.94819 6.07788 -0.174028 66 65 134 255 
-6.27647 5.50206 -0.236059 57 86 140 255 
-6.2929 5.4891 -0.30328 53 95 141 255 
-6.27586 5.48406 -0.379918 52 97 141 255 
-6.2661 5.48315 -0.45823 50 100 142 255 
-6.27101 5.4992 -0.537905 55 91 141 255 
-6.28183 5.48138 -0.604923 50 101 142 255 
-6.23626 5.4533 -0.678181 61 77 138 255 
-5.57176 4.88072 -0.676711 59 81 139 255 
-5.55661 4.87273 -0.745487 54 92 141 255 
-5.56961 4.86504 -0.805989 53 94 141 255 
-5.56913 4.87164 -0.877063 53 94 141 255 
-5.60247 4.90936 -0.954255 50 101 142 255 
-5.554 4.87386 -1.01746 49 104 142 255 
-5.57922 4.87858 -1.08252 46 111 142 255 
-5.58294 4.88716 -1.15395 45 112 142 255 
-5.43033 4.76018 -1.1916 59 82 139 255 
-5.12869 4.50064 -1.19333 60 80 139 255 
-4.92231 4.31022 -1.20081 48 106 142 255 
-4.54235 3.98046 -1.16523 58 84 140 255 
-4.48738 3.9336 -1.21083 52 96 141 255 
-4.2798 3.75438 -1.21324 52 96 141 255 
-4.12952 3.61983 -1.21843 58 84 140 255 
-3.93631 3.45182 -1.21254 59 81 139 255 
-3.78652 3.32157 -1.21763 63 71 136 255 
-3.63324 3.18495 -1.21899 64 69 136 255 
-3.50625 3.0789 -1.2198 68 59 132 255 
-3.38298 2.97077 -1.22154 67 61 132 255 
-3.2512 2.85299 -1.2191 70 51 127 255 
-3.1473 2.75704 -1.2259 66 65 134 255 
-18.2807 16.1216 7.32183 72 28 110 255 
-19.028 16.7516 7.33161 72 27 109 255 
-0 0 0 68 2 86 255 
-24.1797 21.2725 8.64744 71 14 97 255 
-23.6291 20.8164 8.17335 71 14 97 255 
-23.921 21.0667 7.93552 71 17 100 255 
-23.5086 20.7105 7.48124 70 11 94 255 
-23.8481 21.0177 7.28041 70 11 94 255 
-23.9181 21.0635 7.03057 70 8 92 255 
-24.3626 21.4632 6.82444 71 16 99 255 
-23.9259 21.1003 6.39181 71 13 96 255 
-23.3495 20.6071 5.94074 70 11 94 255 
-23.7432 20.9095 5.77237 71 19 101 255 
-24.0422 21.1883 5.52962 72 22 104 255 
-24.4977 21.6198 5.31536 71 14 97 255 
-18.271 16.1535 3.74057 72 37 118 255 
-18.3489 16.1647 3.54997 71 42 122 255 
-18.3232 16.1539 3.30702 71 42 122 255 
-11.1424 9.84377 1.87033 59 82 139 255 
-10.8909 9.6355 1.69537 70 52 128 255 
-10.6683 9.39835 1.54202 69 56 130 255 
-10.4353 9.20957 1.37694 65 66 135 255 
-4.45786 3.9397 0.532004 47 108 142 255 
-4.40866 3.90457 0.47176 44 114 142 255 
-4.39097 3.86965 0.422612 33 142 141 255 
-4.35292 3.84297 0.364302 55 91 141 255 
-4.32214 3.82379 0.307486 44 114 142 255 
-4.29456 3.80618 0.251551 47 107 142 255 
-4.27304 3.76836 0.204928 46 111 142 255 
-4.25148 3.75605 0.150534 47 107 142 255 
-6.91836 6.12281 0.158035 71 42 122 255 
-4.4042 3.9061 0.0462359 71 45 123 255 
-6.93952 6.12206 -0.00161513 60 79 138 255 
-6.91247 6.11126 -0.0885715 71 44 122 255 
-4.42355 3.91764 -0.111394 63 72 137 255 
-4.42589 3.92809 -0.167362 55 90 140 255 
-6.26734 5.53489 -0.303679 58 83 139 255 
-6.24434 5.52445 -0.380055 57 86 140 255 
-6.23383 5.52282 -0.458339 68 59 132 255 
-4.45735 3.9574 -0.384411 66 65 134 255 
-6.23687 5.50992 -0.603837 63 72 137 255 
-4.49978 3.98382 -0.491991 70 52 128 255 
-4.55078 4.03599 -0.555707 63 72 137 255 
-4.5378 4.02883 -0.612106 59 81 139 255 
-4.72646 4.17996 -0.687674 70 52 128 255 
-4.54594 4.0261 -0.719801 58 84 140 255 
-5.27842 4.68296 -0.903938 69 53 129 255 
-5.43808 4.83153 -1.00164 67 61 132 255 
-5.54844 4.91207 -1.08238 46 109 142 255 
-5.55063 4.91935 -1.15349 47 107 142 255 
-5.37667 4.7718 -1.18623 64 70 136 255 
-4.97064 4.41622 -1.16284 65 68 135 255 
-4.53514 4.02063 -1.11236 60 79 138 255 
-4.50683 3.99848 -1.16239 62 73 137 255 
-4.4551 3.95391 -1.20864 51 99 141 255 
-4.24572 3.77083 -1.21011 53 94 141 255 
-4.08751 3.6276 -1.21258 65 68 135 255 
-3.91579 3.47655 -1.21277 60 79 138 255 
-3.76824 3.34667 -1.21833 61 77 138 255 
-3.63393 3.22521 -1.22584 65 68 135 255 
-3.48729 3.10035 -1.2198 66 64 134 255 
-3.34305 2.97224 -1.21369 68 58 131 255 
-3.23723 2.87608 -1.22045 66 65 134 255 
-3.14253 2.78712 -1.23068 63 72 137 255 
-17.8636 15.9497 7.19381 72 36 117 255 
-17.9058 15.9598 6.93683 72 36 117 255 
-17.9368 15.9759 6.69294 72 35 116 255 
-17.933 15.9732 6.44837 72 35 116 255 
-17.8868 15.9536 6.22083 72 41 121 255 
-17.9079 15.9673 5.97314 72 38 119 255 
-17.9429 16.0038 5.74117 71 44 122 255 
-17.9532 16.0192 5.51071 71 44 122 255 
-17.9318 15.9882 5.29969 71 45 123 255 
-17.9403 16.0017 5.05282 71 45 123 255 
-17.9287 16.008 4.81581 72 37 118 255 
-17.9055 15.9991 4.58054 72 33 115 255 
-17.9157 15.9738 4.37935 72 35 116 255 
-17.9397 16.0068 4.14858 72 33 115 255 
-17.934 16.024 3.91246 72 35 116 255 
-17.9359 16.0543 3.69206 71 45 123 255 
-18.0729 16.1196 3.51563 71 46 124 255 
-18.0463 16.1076 3.27482 70 48 126 255 
-11.1047 9.93246 1.8742 57 86 140 255 
-10.8642 9.7313 1.70047 67 62 133 255 
-10.6178 9.47025 1.5431 69 56 130 255 
-10.3749 9.27011 1.37645 66 65 134 255 
-4.42915 3.96299 0.53147 31 152 139 255 
-4.39723 3.94286 0.473117 31 150 139 255 
-4.37385 3.90249 0.42326 34 139 141 255 
-4.36945 3.90553 0.367683 55 90 140 255 
-4.33207 3.88022 0.30988 58 83 139 255 
-4.27856 3.83913 0.251989 57 86 140 255 
-4.24089 3.78652 0.204497 39 127 142 255 
-4.23654 3.7894 0.150826 36 135 142 255 
-4.32276 3.87324 0.0992852 47 108 142 255 
-4.36676 3.92103 0.0460945 36 134 142 255 
-4.4078 3.93693 -0.00103149 40 125 142 255 
-4.40565 3.94342 -0.0567599 34 140 141 255 
-4.40241 3.94738 -0.11147 32 147 140 255 
-4.39724 3.95117 -0.167192 33 145 140 255 
-4.42146 3.95329 -0.21541 37 132 142 255 
-4.40363 3.94438 -0.26949 46 111 142 255 
-4.38916 3.93688 -0.324481 60 80 139 255 
-4.39216 3.94798 -0.380871 57 86 140 255 
-4.45446 3.98419 -0.433628 58 84 140 255 
-4.45744 3.99539 -0.490033 57 85 140 255 
-4.47258 4.01593 -0.549156 56 89 140 255 
-4.4797 4.02667 -0.60759 55 90 140 255 
-4.48224 4.01326 -0.655712 56 88 140 255 
-4.49971 4.0347 -0.716387 53 95 141 255 
-4.4851 4.02859 -0.772299 63 71 136 255 
-4.48767 4.03667 -0.831129 60 79 138 255 
-4.51388 4.04584 -0.885384 58 84 140 255 
-4.52379 4.05914 -0.945259 60 79 138 255 
-4.50989 4.05228 -1.00046 61 78 138 255 
-4.4784 4.02833 -1.05345 60 79 138 255 
-4.49135 4.03129 -1.10767 57 86 140 255 
-4.48732 4.03065 -1.16372 69 55 129 255 
-4.43075 3.98117 -1.20864 51 98 141 255 
-4.22977 3.80335 -1.21219 55 91 141 255 
-4.06227 3.65 -1.21172 62 76 138 255 
-3.89583 3.50182 -1.21322 61 78 138 255 
-3.75487 3.37623 -1.22068 65 68 135 255 
-3.61335 3.2468 -1.2256 66 63 133 255 
-3.44879 3.10422 -1.21297 65 66 135 255 
-3.32117 2.98946 -1.21238 67 61 132 255 
-3.24028 2.91455 -1.22832 61 77 138 255 
-3.10823 2.79096 -1.22393 63 71 136 255 
-17.6233 15.9305 7.13627 72 38 119 255 
-17.6456 15.9232 6.87376 72 40 120 255 
-17.6875 15.9495 6.6363 71 44 122 255 
-17.7228 15.982 6.40792 71 42 122 255 
-17.6464 15.9347 6.17109 71 45 123 255 
-17.7023 15.98 5.93715 71 44 122 255 
-17.705 15.9878 5.69634 72 41 121 255 
-17.7229 16.0101 5.47007 72 40 120 255 
-17.6993 15.9768 5.25984 71 46 124 255 
-17.7204 16.002 5.01847 69 55 129 255 
-17.7378 16.0342 4.79086 70 48 126 255 
-17.6977 16.0098 4.55243 71 45 123 255 
-17.7742 16.0445 4.36876 70 51 127 255 
-17.7088 15.9971 4.1178 71 44 122 255 
-17.7365 16.0443 3.89078 69 53 129 255 
-17.6979 16.038 3.66325 70 50 126 255 
-17.7437 16.0226 3.47067 70 50 126 255 
-17.7743 16.0619 3.2433 68 59 132 255 
-11.0538 10.0097 1.87595 56 89 140 255 
-10.8226 9.81446 1.70336 68 58 131 255 
-10.5595 9.53522 1.5431 70 52 128 255 
-10.351 9.36364 1.38088 66 63 133 255 
-4.38703 3.97405 0.529332 32 147 140 255 
-4.38403 3.97981 0.474315 37 172 130 255 
-4.38017 3.95667 0.426213 41 122 142 255 
-4.40682 3.98785 0.37288 42 118 142 255 
-4.40213 3.99192 0.316637 56 89 140 255 
-4.35623 3.95735 0.257989 40 125 142 255 
-4.21535 3.81046 0.204389 46 111 142 255 
-4.22359 3.82472 0.151198 39 128 142 255 
-4.32113 3.91984 0.0997983 31 151 139 255 
-4.3293 3.93564 0.0459532 31 148 140 255 
-4.35612 3.93908 -0.00102503 35 136 142 255 
-4.35618 3.94755 -0.0564335 35 136 142 255 
-4.35367 3.95214 -0.110848 33 143 141 255 
-4.35073 3.95789 -0.166344 33 143 141 255 
-4.37934 3.96425 -0.214539 34 141 141 255 
-4.37194 3.96462 -0.269035 34 139 141 255 
-4.35975 3.95904 -0.324096 54 93 141 255 
-4.33243 3.94262 -0.377782 57 86 140 255 
-4.36561 3.95321 -0.427332 56 88 140 255 
-4.3332 3.93224 -0.479018 58 83 139 255 
-4.31669 3.92407 -0.532962 55 91 141 255 
-4.32834 3.9389 -0.590328 60 79 138 255 
-4.46858 4.0507 -0.657337 55 91 141 255 
-4.4587 4.04754 -0.713798 52 97 141 255 
-4.46764 4.0627 -0.773569 55 90 140 255 
-4.46062 4.06212 -0.83072 58 84 140 255 
-4.47945 4.06482 -0.883505 53 94 141 255 
-4.48637 4.07552 -0.942647 58 84 140 255 
-4.4667 4.06328 -0.996393 58 83 139 255 
-4.45724 4.05904 -1.05431 61 78 138 255 
-4.46071 4.05349 -1.10622 53 94 141 255 
-4.46468 4.06009 -1.16429 68 57 131 255 
-4.41494 4.01619 -1.21103 51 99 141 255 
-4.20563 3.82857 -1.21198 52 96 141 255 
-4.04702 3.68143 -1.21388 61 78 138 255 
-3.85698 3.50992 -1.2078 63 71 136 255 
-3.73336 3.39855 -1.22045 66 65 134 255 
-3.56826 3.24607 -1.21704 68 59 132 255 
-3.43969 3.13444 -1.21652 63 72 137 255 
-3.33129 3.03579 -1.22285 62 76 138 255 
-3.20098 2.91494 -1.22018 63 72 137 255 
-3.06904 2.78997 -1.21521 65 66 135 255 
-17.3733 15.8993 7.07442 72 36 117 255 
-17.4221 15.9165 6.82459 71 42 122 255 
-17.4541 15.9344 6.58531 70 48 126 255 
-17.4661 15.9459 6.35035 72 38 119 255 
-17.4297 15.9342 6.12938 72 38 119 255 
-17.4556 15.9528 5.88714 72 41 121 255 
-17.4393 15.9432 5.64222 71 45 123 255 
-17.4409 15.9508 5.41315 72 40 120 255 
-17.469 15.9646 5.22042 70 52 128 255 
-17.4421 15.946 4.96725 71 47 125 255 
-17.4676 15.9859 4.7443 70 52 128 255 
-17.4673 15.9973 4.51833 71 42 122 255 
-17.5048 15.9973 4.32658 71 45 123 255 
-17.5099 16.0136 4.09433 69 53 129 255 
-17.5103 16.0362 3.86268 69 53 129 255 
-17.4811 16.038 3.63869 70 48 126 255 
-17.5166 16.0136 3.44538 69 55 129 255 
-17.5109 16.0202 3.21311 69 55 129 255 
-11.0002 10.0847 1.87732 57 86 140 255 
-10.7578 9.87665 1.70267 69 55 129 255 
-10.5294 9.62599 1.5473 68 58 131 255 
-10.3022 9.43504 1.38206 67 62 133 255 
-4.36697 4.00493 0.529866 38 130 142 255 
-4.36907 4.01541 0.475353 31 153 138 255 
-4.38525 4.01039 0.429093 39 126 142 255 
-4.38742 4.01953 0.373319 38 130 142 255 
-4.39226 4.03236 0.317701 37 133 142 255 
-4.25318 3.91164 0.253303 33 144 141 255 
-4.21475 3.85717 0.205503 43 117 142 255 
-4.2052 3.85529 0.151383 42 120 142 255 
-4.30215 3.95101 0.099918 30 157 137 255 
-4.30139 3.95874 0.0459139 31 153 138 255 
-4.32523 3.95966 -0.00102346 31 154 138 255 
-4.31787 3.96136 -0.0562511 31 150 139 255 
-4.30873 3.95983 -0.11032 31 153 138 255 
-4.31681 3.97571 -0.165976 31 154 138 255 
-4.33873 3.97619 -0.213741 31 159 136 255 
-4.33429 3.97921 -0.268215 31 156 137 255 
-4.31847 3.97017 -0.322832 54 92 141 255 
-4.29494 3.95696 -0.376624 52 97 141 255 
-4.29937 3.9415 -0.423207 52 96 141 255 
-4.29505 3.94595 -0.477468 51 98 141 255 
-4.28521 3.94373 -0.532052 48 106 142 255 
-4.28433 3.94718 -0.587618 60 80 139 255 
-4.33305 3.97655 -0.640977 61 77 138 255 
-4.39137 4.03585 -0.706971 56 88 140 255 
-4.43168 4.07996 -0.771663 56 89 140 255 
-4.44071 4.09412 -0.831675 60 79 138 255 
-4.43839 4.0775 -0.880326 53 94 141 255 
-4.45255 4.09495 -0.940803 58 84 140 255 
-4.44459 4.09328 -0.997045 60 79 138 255 
-4.4518 4.10434 -1.05896 60 79 138 255 
-4.43503 4.08011 -1.10604 63 72 137 255 
-4.44113 4.08874 -1.16467 61 78 138 255 
-4.38301 4.03657 -1.20904 50 100 142 255 
-4.17559 3.84834 -1.21011 54 93 141 255 
-4.01861 3.7009 -1.21215 62 74 137 255 
-3.85257 3.54936 -1.21322 63 72 137 255 
-3.69814 3.40822 -1.21575 66 65 134 255 
-3.54542 3.26528 -1.21606 64 70 136 255 
-3.41897 3.15418 -1.21601 59 81 139 255 
-3.30906 3.0529 -1.22154 61 78 138 255 
-3.17384 2.92604 -1.21666 61 78 138 255 
-3.04621 2.80355 -1.21296 67 61 132 255 
-17.1342 15.8748 7.01659 72 41 121 255 
-17.1795 15.8894 6.76764 72 41 121 255 
-17.2039 15.9006 6.5276 72 40 120 255 
-17.2438 15.938 6.30496 71 44 122 255 
-17.208 15.9265 6.08567 71 44 122 255 
-17.2349 15.9462 5.84559 71 44 122 255 
-17.2055 15.9244 5.5981 70 50 126 255 
-17.1968 15.9224 5.3676 72 38 119 255 
-17.2238 15.9355 5.17626 71 45 123 255 
-17.2541 15.9696 4.94154 69 53 129 255 
-17.2059 15.9415 4.69971 69 53 129 255 
-17.2024 15.9499 4.47504 71 46 124 255 
-17.2677 15.9761 4.29212 69 55 129 255 
-17.2595 15.9802 4.05863 70 48 126 255 
-17.2336 15.9782 3.82318 69 55 129 255 
-17.2325 16.0057 3.60731 69 56 130 255 
-17.2756 15.989 3.41722 66 63 133 255 
-17.2647 15.9906 3.18588 67 62 133 255 
-10.9629 10.175 1.88157 59 82 139 255 
-10.6999 9.94518 1.70313 68 57 131 255 
-10.4884 9.7073 1.55 69 56 130 255 
-10.2565 9.50958 1.38373 66 64 134 255 
-4.34012 4.02961 0.529599 37 131 142 255 
-4.35238 4.04961 0.476231 33 144 141 255 
-4.35324 4.03045 0.428373 43 116 142 255 
