ply
format ascii 1.0
comment VTK generated PLY File
obj_info vtkPolyData points and polygons: vtk4.0
element vertex 1160
property float x
property float y
property float z
property uchar red
property uchar green
property uchar blue
property uchar alpha
element face 0
property list uchar int vertex_indices
end_header
9.56847 -3.60369 2.14907 49 104 142 255 
9.56771 -3.60903 2.04888 47 107 142 255 
9.58095 -3.61804 1.95364 49 104 142 255 
9.57617 -3.60453 1.86687 33 143 141 255 
9.61701 -3.62389 1.77332 31 150 139 255 
9.60506 -3.62695 1.67025 30 155 138 255 
9.61469 -3.64035 1.57685 31 154 138 255 
9.63079 -3.62701 1.49398 31 156 137 255 
9.62483 -3.62875 1.39257 31 153 138 255 
9.6162 -3.63691 1.29332 31 148 140 255 
9.62139 -3.64672 1.19961 31 153 138 255 
9.6229 -3.62404 1.11524 39 127 142 255 
9.62723 -3.63542 1.01809 38 130 142 255 
9.60998 -3.63647 0.918827 31 152 139 255 
9.61831 -3.65131 0.824142 34 139 141 255 
9.63956 -3.63224 0.743819 34 141 141 255 
9.63967 -3.64204 0.646514 31 150 139 255 
9.63088 -3.65015 0.548781 31 152 139 255 
9.63578 -3.66178 0.451864 30 155 138 255 
9.65528 -3.642 0.371179 31 161 135 255 
9.62683 -3.64103 0.273111 31 149 139 255 
9.6481 -3.6586 0.176507 48 106 142 255 
6.55826 -2.49488 0.0551108 55 90 140 255 
6.54912 -2.47165 -0.00122173 51 98 141 255 
6.55928 -2.48345 -0.0673285 47 107 142 255 
6.41326 -2.43449 -0.129319 31 162 135 255 
6.29248 -2.39628 -0.190431 41 123 142 255 
6.27055 -2.37027 -0.243466 40 125 142 255 
6.2941 -2.38555 -0.306831 38 129 142 255 
6.28947 -2.38876 -0.370254 43 117 142 255 
6.29644 -2.39905 -0.434546 39 128 142 255 
6.28114 -2.37552 -0.487253 40 124 142 255 
6.28159 -2.38332 -0.550002 42 118 142 255 
6.26882 -2.38467 -0.612752 48 105 142 255 
6.29347 -2.39792 -0.679348 45 113 142 255 
6.29839 -2.38581 -0.734047 39 126 142 255 
6.30201 -2.39233 -0.79902 41 123 142 255 
6.27964 -2.39004 -0.860736 46 109 142 255 
6.29878 -2.40246 -0.928251 42 119 142 255 
6.28365 -2.38398 -0.98164 54 92 141 255 
6.28561 -2.38861 -1.04576 57 86 140 255 
6.24423 -2.37781 -1.10255 64 69 136 255 
5.99716 -2.28741 -1.12253 56 88 140 255 
5.74329 -2.18355 -1.1277 51 99 141 255 
5.50235 -2.09426 -1.13587 59 82 139 255 
5.25069 -1.99947 -1.14003 57 86 140 255 
5.02362 -1.91509 -1.14571 58 84 140 255 
4.82998 -1.83921 -1.14673 55 91 141 255 
4.64836 -1.77108 -1.15207 54 92 141 255 
4.50128 -1.71589 -1.16452 59 81 139 255 
4.30595 -1.63978 -1.16248 61 78 138 255 
4.1505 -1.58461 -1.16138 61 77 138 255 
4.00141 -1.52778 -1.1621 61 77 138 255 
3.86075 -1.47249 -1.16457 61 77 138 255 
3.72503 -1.41707 -1.1677 66 65 134 255 
8.36607 -3.21448 2.69225 50 102 142 255 
8.53868 -3.2724 2.64455 65 68 135 255 
12.9484 -4.95708 3.8633 68 57 131 255 
14.3716 -5.50226 4.13208 71 46 124 255 
14.209 -5.45099 3.95001 71 45 123 255 
12.5942 -4.82916 3.35801 72 28 110 255 
12.6665 -4.85929 3.23952 72 22 104 255 
14.7605 -5.66591 3.62112 71 46 124 255 
9.55196 -3.66249 2.25671 49 103 142 255 
9.56262 -3.66864 2.15277 49 103 142 255 
9.59572 -3.68701 2.05968 47 108 142 255 
9.56315 -3.67852 1.95457 66 65 134 255 
9.58418 -3.67485 1.87279 36 135 142 255 
9.60931 -3.68848 1.77604 30 157 137 255 
9.59275 -3.68971 1.67202 31 161 136 255 
9.59401 -3.69999 1.57716 30 157 137 255 
9.61851 -3.68993 1.49556 32 164 134 255 
9.61071 -3.69094 1.39378 30 157 137 255 
9.60759 -3.70119 1.29519 31 156 137 255 
9.60903 -3.70963 1.20089 31 152 139 255 
9.63111 -3.69477 1.1188 30 157 137 255 
9.61403 -3.69799 1.01907 31 152 139 255 
9.61351 -3.7054 0.921321 34 140 141 255 
9.61803 -3.71888 0.826058 32 146 140 255 
9.62827 -3.6956 0.744684 31 161 136 255 
9.6367 -3.70864 0.647829 31 161 135 255 
9.6288 -3.71708 0.549952 31 152 139 255 
9.63363 -3.72877 0.452827 32 146 140 255 
9.64674 -3.70655 0.371718 33 145 140 255 
9.63136 -3.71045 0.27388 40 124 142 255 
9.63573 -3.72169 0.176695 33 144 141 255 
9.65527 -3.74102 0.0813271 34 140 141 255 
6.54596 -2.51645 -0.001224 44 114 142 255 
6.54485 -2.52401 -0.0673381 45 113 142 255 
6.41032 -2.47849 -0.129564 48 105 142 255 
6.26927 -2.4316 -0.190176 44 115 142 255 
6.27361 -2.41552 -0.244156 42 119 142 255 
6.27654 -2.42305 -0.306694 40 124 142 255 
6.27935 -2.42911 -0.370529 41 123 142 255 
6.30114 -2.44522 -0.435898 36 134 142 255 
6.29065 -2.42334 -0.489134 36 134 142 255 
6.26964 -2.4229 -0.550247 43 117 142 255 
6.28007 -2.43317 -0.615299 48 106 142 255 
6.28606 -2.43937 -0.680151 44 114 142 255 
6.30311 -2.43192 -0.736322 43 116 142 255 
6.28258 -2.42916 -0.798432 44 113 142 255 
6.27226 -2.4314 -0.861752 44 114 142 255 
6.28669 -2.44213 -0.92866 45 113 142 255 
6.26429 -2.42071 -0.980918 62 73 137 255 
6.28097 -2.43106 -1.04745 53 95 141 255 
6.2516 -2.42464 -1.10645 59 82 139 255 
5.97842 -2.32239 -1.12167 58 84 140 255 
5.73712 -2.22159 -1.12915 50 101 142 255 
5.48574 -2.12656 -1.13511 56 88 140 255 
5.24106 -2.03271 -1.14063 57 86 140 255 
4.9981 -1.94057 -1.14258 58 83 139 255 
4.82953 -1.87305 -1.14933 53 95 141 255 
4.63196 -1.79745 -1.15072 54 92 141 255 
4.47979 -1.73926 -1.1617 61 77 138 255 
4.29672 -1.66652 -1.16273 62 73 137 255 
4.12988 -1.60584 -1.15834 62 76 138 255 
3.99286 -1.55265 -1.16236 59 81 139 255 
3.85254 -1.4965 -1.16484 62 73 137 255 
3.72073 -1.44163 -1.1691 64 69 136 255 
8.3774 -3.27797 2.70232 72 38 119 255 
8.50234 -3.31844 2.63955 60 80 139 255 
8.41048 -3.27912 2.51532 69 55 129 255 
14.3763 -5.60543 4.14323 72 31 112 255 
16.1831 -6.32249 4.50948 72 41 121 255 
14.6198 -5.70901 3.90737 71 42 122 255 
15.2692 -5.9655 3.91446 72 27 109 255 
15.5308 -6.07116 3.81914 72 28 110 255 
9.53841 -3.72459 2.25886 70 52 128 255 
9.57184 -3.73972 2.15997 49 103 142 255 
9.59575 -3.75475 2.06459 48 105 142 255 
9.61997 -3.7683 1.97088 50 102 142 255 
9.57795 -3.74003 1.87602 40 124 142 255 
9.59659 -3.75132 1.77791 31 148 140 255 
9.59199 -3.75714 1.67587 32 146 140 255 
9.59505 -3.76818 1.5811 32 147 140 255 
9.6086 -3.75393 1.49757 31 154 138 255 
9.59803 -3.75381 1.39526 31 149 139 255 
9.59855 -3.76551 1.29706 34 141 141 255 
9.59718 -3.77288 1.20228 35 136 142 255 
9.63512 -3.76429 1.12193 31 152 139 255 
9.6032 -3.76163 1.02035 41 123 142 255 
9.61006 -3.77196 0.923191 35 137 142 255 
9.621 -3.78805 0.828294 38 130 142 255 
9.637 -3.76696 0.747132 32 146 140 255 
9.63328 -3.77535 0.649144 32 146 140 255 
9.62625 -3.78413 0.551122 38 129 142 255 
9.6431 -3.80063 0.45436 39 126 142 255 
9.64801 -3.77514 0.372653 34 139 141 255 
9.64099 -3.78225 0.274808 44 114 142 255 
9.6276 -3.7866 0.176969 51 98 141 255 
9.66376 -3.81267 0.0815942 40 125 142 255 
9.64801 -3.77708 -0.00180834 37 132 142 255 
6.47712 -2.54365 -0.0668006 61 77 138 255 
9.68087 -3.81145 -0.196137 46 109 142 255 
6.2533 -2.46965 -0.190148 46 110 142 255 
6.27635 -2.4609 -0.244845 40 125 142 255 
6.25691 -2.45969 -0.306466 41 122 142 255 
6.27733 -2.47271 -0.371298 42 118 142 255 
6.29159 -2.48604 -0.436284 40 124 142 255 
6.28866 -2.46699 -0.490147 38 130 142 255 
6.26764 -2.46643 -0.551389 40 125 142 255 
6.2678 -2.47275 -0.615572 39 126 142 255 
6.27653 -2.48009 -0.680754 41 122 142 255 
6.29362 -2.47273 -0.736972 37 131 142 255 
6.27402 -2.47021 -0.799256 35 137 142 255 
6.26829 -2.47421 -0.863277 38 130 142 255 
6.27158 -2.48066 -0.92866 38 130 142 255 
6.26681 -2.46598 -0.983664 56 89 140 255 
6.27146 -2.47173 -1.04838 55 91 141 255 
6.23569 -2.4626 -1.10629 60 79 138 255 
5.96955 -2.3612 -1.1227 57 86 140 255 
5.72155 -2.25603 -1.12879 53 94 141 255 
5.47533 -2.16127 -1.13568 56 89 140 255 
5.22849 -2.06483 -1.14063 57 86 140 255 
4.99974 -1.97659 -1.14571 58 84 140 255 
4.83792 -1.91054 -1.1541 50 102 142 255 
4.62175 -1.8262 -1.15094 53 94 141 255 
4.45006 -1.75921 -1.15677 65 68 135 255 
4.29092 -1.69464 -1.16395 62 73 137 255 
4.14244 -1.64006 -1.16467 62 76 138 255 
3.97966 -1.5757 -1.16131 61 77 138 255 
3.83075 -1.51516 -1.16105 65 68 135 255 
3.70378 -1.46126 -1.16657 66 65 134 255 
8.27973 -3.29847 2.67729 71 47 125 255 
12.6964 -5.04536 3.95112 70 52 128 255 
12.6878 -5.0367 3.80372 61 78 138 255 
14.5104 -5.76053 4.19198 72 26 108 255 
16.4138 -6.52899 4.58485 72 35 116 255 
14.7089 -5.84808 3.9407 72 40 120 255 
15.0108 -5.971 3.85756 72 26 108 255 
14.6238 -5.82031 3.60482 72 22 104 255 
9.5925 -3.81371 2.27717 50 102 142 255 
9.61145 -3.82334 2.17416 47 107 142 255 
9.59621 -3.82299 2.0697 48 105 142 255 
9.60671 -3.83126 1.97294 49 103 142 255 
9.59321 -3.81399 1.88356 53 94 141 255 
9.60635 -3.82325 1.78403 39 126 142 255 
9.62102 -3.83677 1.68502 38 130 142 255 
9.64517 -3.85634 1.59323 36 135 142 255 
9.61481 -3.82452 1.50216 38 129 142 255 
9.63374 -3.83609 1.40384 39 126 142 255 
9.61028 -3.83832 1.30181 38 130 142 255 
9.62733 -3.8531 1.20899 35 138 141 255 
9.65433 -3.84024 1.12689 37 131 142 255 
9.63448 -3.84223 1.02616 35 136 142 255 
9.63576 -3.85044 0.927912 34 140 141 255 
9.64569 -3.8663 0.832446 33 145 140 255 
9.64428 -3.83819 0.749509 36 134 142 255 
9.64886 -3.84992 0.651773 31 149 139 255 
9.66033 -3.86613 0.554421 31 148 140 255 
9.67616 -3.88243 0.457032 35 137 142 255 
9.69615 -3.86275 0.37542 33 144 141 255 
9.66494 -3.86025 0.276161 34 139 141 255 
9.66916 -3.87162 0.178166 35 137 142 255 
9.67359 -3.88531 0.0818769 37 133 142 255 
9.68038 -3.85842 -0.00181881 33 145 140 255 
9.68605 -3.8726 -0.100138 35 138 141 255 
9.69442 -3.88566 -0.196891 35 137 142 255 
6.26307 -2.51804 -0.190911 45 113 142 255 
6.27412 -2.50455 -0.245353 40 124 142 255 
6.25654 -2.50397 -0.307195 40 125 142 255 
6.26667 -2.51304 -0.371573 41 123 142 255 
6.26048 -2.51827 -0.43519 37 131 142 255 
6.2734 -2.50553 -0.490147 40 124 142 255 
6.25423 -2.50558 -0.551553 46 110 142 255 
6.25528 -2.51228 -0.615845 47 107 142 255 
6.26581 -2.52041 -0.681255 51 99 141 255 
6.27925 -2.51167 -0.73708 41 122 142 255 
6.27257 -2.5142 -0.801021 46 111 142 255 
6.25944 -2.51521 -0.864166 44 113 142 255 
6.25257 -2.51762 -0.928115 41 121 142 255 
6.258 -2.50697 -0.984675 54 92 141 255 
6.25159 -2.50832 -1.04761 51 98 141 255 
6.23511 -2.5067 -1.10889 63 71 136 255 
5.9449 -2.39374 -1.12081 57 85 140 255 
5.71034 -2.2922 -1.12933 52 96 141 255 
5.46469 -2.19592 -1.13625 52 97 141 255 
5.2039 -2.09212 -1.13805 54 92 141 255 
5.00748 -2.01527 -1.15029 58 83 139 255 
4.81614 -1.93618 -1.15172 55 91 141 255 
4.6222 -1.85925 -1.15388 54 93 141 255 
4.42836 -1.78213 -1.15395 65 68 135 255 
4.29214 -1.72564 -1.16713 62 74 137 255 
4.1296 -1.66436 -1.16391 58 84 140 255 
3.97887 -1.6037 -1.16393 62 73 137 255 
3.84192 -1.5469 -1.16729 62 74 137 255 
3.70543 -1.48825 -1.16995 62 73 137 255 
8.22472 -3.33518 2.66607 58 84 140 255 
12.8433 -5.19521 4.00669 66 65 134 255 
12.7219 -5.1408 3.82331 66 63 133 255 
14.4962 -5.85814 4.19821 69 53 129 255 
16.046 -6.49699 4.49316 72 40 120 255 
16.2082 -6.55964 4.35309 70 51 127 255 
14.8468 -6.01152 3.82481 71 42 122 255 
14.5011 -5.87479 3.58339 70 48 126 255 
9.58703 -3.87982 2.28148 49 104 142 255 
9.6114 -3.89179 2.17951 46 109 142 255 
9.60256 -3.89396 2.07618 49 103 142 255 
9.60395 -3.89863 1.97725 50 101 142 255 
9.659 -3.90895 1.90115 53 94 141 255 
9.65122 -3.90987 1.79679 31 153 138 255 
9.65582 -3.91949 1.6953 30 157 137 255 
9.64513 -3.92514 1.59717 31 151 139 255 
9.6517 -3.90795 1.51165 30 157 137 255 
9.63941 -3.90705 1.40813 31 152 139 255 
9.63159 -3.91552 1.30792 31 150 139 255 
9.6587 -3.93458 1.21594 31 154 138 255 
9.66099 -3.91172 1.13045 37 131 142 255 
9.64576 -3.9155 1.0299 31 152 139 255 
9.64332 -3.92225 0.93094 31 156 137 255 
9.65409 -3.93859 0.835241 31 152 139 255 
9.6677 -3.91639 0.753182 31 152 139 255 
9.65372 -3.9207 0.653714 31 160 136 255 
9.64753 -3.92985 0.55506 31 154 138 255 
9.6614 -3.9455 0.45747 31 149 139 255 
9.67968 -3.92517 0.375708 31 154 138 255 
9.67441 -3.93303 0.277116 31 151 139 255 
9.66189 -3.93767 0.178474 33 144 141 255 
9.66252 -3.94989 0.0819869 31 161 135 255 
9.67599 -3.92564 -0.00182247 31 153 138 255 
9.68248 -3.94025 -0.10035 33 145 140 255 
9.68613 -3.95149 -0.197211 33 142 141 255 
6.25398 -2.55907 -0.191109 45 113 142 255 
6.26142 -2.54413 -0.245462 39 127 142 255 
6.24198 -2.54269 -0.30724 39 127 142 255 
6.26408 -2.55673 -0.372342 39 127 142 255 
6.23567 -2.55285 -0.434546 41 122 142 255 
6.25237 -2.54172 -0.489713 41 121 142 255 
6.24151 -2.54504 -0.551797 39 128 142 255 
6.25081 -2.55513 -0.616937 43 117 142 255 
6.25943 -2.56258 -0.682259 44 113 142 255 
6.25452 -2.54641 -0.735997 39 128 142 255 
6.26438 -2.55564 -0.801963 39 128 142 255 
6.25123 -2.55658 -0.865183 40 124 142 255 
6.25075 -2.56157 -0.930161 46 110 142 255 
6.27182 -2.55727 -0.9893 50 100 142 255 
6.24797 -2.55149 -1.04961 54 92 141 255 
6.24426 -2.555 -1.11329 62 74 137 255 
5.94469 -2.43614 -1.12356 57 86 140 255 
5.69344 -2.32607 -1.12879 56 89 140 255 
5.45566 -2.23127 -1.1372 51 99 141 255 
5.19097 -2.12402 -1.13805 54 92 141 255 
5.00045 -2.04818 -1.15154 58 84 140 255 
4.79604 -1.96237 -1.14977 54 92 141 255 
4.62603 -1.89385 -1.15771 53 95 141 255 
4.41824 -1.80963 -1.15418 66 65 134 255 
4.28147 -1.75194 -1.16713 63 72 137 255 
4.10857 -1.68526 -1.16087 63 72 137 255 
3.96092 -1.62479 -1.16158 63 72 137 255 
3.82968 -1.56935 -1.16647 63 72 137 255 
3.68291 -1.50552 -1.16573 64 69 136 255 
14.1445 -5.83699 4.5965 71 19 101 255 
12.6557 -5.20992 3.95807 69 55 129 255 
12.6794 -5.21437 3.82009 66 65 134 255 
16.5796 -6.81869 4.81359 72 36 117 255 
14.4871 -5.96953 4.06683 71 42 122 255 
16.1901 -6.6682 4.35913 69 53 129 255 
14.5506 -5.99578 3.75792 67 61 132 255 
14.5017 -5.97889 3.59254 72 29 111 255 
9.62083 -3.96237 2.29527 47 107 142 255 
9.62443 -3.96598 2.18794 46 111 142 255 
9.60658 -3.96441 2.08227 49 103 142 255 
9.60436 -3.96761 1.98231 52 97 141 255 
9.64029 -3.97039 1.90223 59 82 139 255 
9.64526 -3.97653 1.80019 31 151 139 255 
9.63524 -3.98017 1.69594 31 156 137 255 
9.63913 -3.99181 1.6002 31 150 139 255 
9.64584 -3.97464 1.51452 31 158 137 255 
9.63907 -3.97594 1.41162 31 159 136 255 
9.62297 -3.981 1.31005 31 149 139 255 
9.64722 -3.9991 1.21756 31 153 138 255 
9.64784 -3.97547 1.13174 33 142 141 255 
9.63075 -3.97841 1.03088 31 153 138 255 
9.63564 -3.98821 0.932543 31 151 139 255 
9.64723 -4.00501 0.836758 32 146 140 255 
9.65455 -3.9802 0.754046 30 157 137 255 
9.64332 -3.98558 0.654654 31 158 137 255 
9.65183 -4.00083 0.556709 32 147 140 255 
9.64531 -4.00816 0.457864 34 140 141 255 
9.65356 -3.98373 0.375636 31 149 139 255 
9.66118 -3.99691 0.277434 32 146 140 255 
9.66803 -4.00952 0.179038 34 139 141 255 
9.64734 -4.01294 0.0820654 44 115 142 255 
9.67482 -3.99448 -0.00182684 32 146 140 255 
9.67198 -4.00533 -0.100494 34 139 141 255 
9.67648 -4.01698 -0.197513 39 128 142 255 
9.64423 -4.01559 -0.295456 59 82 139 255 
6.24384 -2.58174 -0.24539 48 106 142 255 
6.20873 -2.57368 -0.306375 60 79 138 255 
9.65366 -4.00948 -0.575273 65 68 135 255 
9.70476 -4.04278 -0.678013 59 81 139 255 
6.21177 -2.56974 -0.487759 59 82 139 255 
9.69907 -4.02448 -0.859639 65 68 135 255 
9.81548 -4.08272 -0.971214 44 114 142 255 
9.70705 -4.04374 -1.06072 71 47 125 255 
6.21765 -2.57598 -0.733505 70 51 127 255 
8.33512 -3.46023 -1.06975 72 40 120 255 
7.8783 -3.27857 -1.09314 66 65 134 255 
7.37053 -3.07341 -1.09958 68 57 131 255 
6.81626 -2.82817 -1.0779 65 68 135 255 
6.53514 -2.71567 -1.10063 64 70 136 255 
6.23667 -2.59668 -1.11476 65 68 135 255 
5.93872 -2.47636 -1.12529 52 96 141 255 
5.68087 -2.36172 -1.12915 57 86 140 255 
5.45547 -2.27036 -1.14004 50 100 142 255 
5.18688 -2.15959 -1.14003 53 94 141 255 
4.97064 -2.07167 -1.14758 58 83 139 255 
4.7785 -1.98951 -1.14847 56 88 140 255 
4.61253 -1.92145 -1.15726 55 91 141 255 
4.4232 -1.84344 -1.15841 65 66 135 255 
4.27601 -1.78041 -1.1686 63 72 137 255 
4.09458 -1.70895 -1.15986 60 79 138 255 
3.93217 -1.64125 -1.15608 62 74 137 255 
3.83242 -1.59801 -1.17027 61 78 138 255 
3.67537 -1.52882 -1.16629 64 70 136 255 
14.1296 -5.93257 4.6034 72 23 105 255 
12.5606 -5.26113 3.93834 69 55 129 255 
12.7565 -5.3378 3.8531 69 56 130 255 
12.767 -5.34252 3.71612 63 71 136 255 
12.7712 -5.35435 3.59427 69 53 129 255 
16.3225 -6.84018 4.40599 70 48 126 255 
14.771 -6.19289 3.82458 71 47 125 255 
14.7659 -6.19407 3.66733 71 42 122 255 
9.61615 -4.02964 2.30001 49 103 142 255 
9.60533 -4.02723 2.18918 45 112 142 255 
9.59745 -4.02973 2.08561 49 104 142 255 
9.61515 -4.04131 1.98961 49 103 142 255 
9.60486 -4.0249 1.90007 59 81 139 255 
9.64613 -4.04631 1.80495 35 136 142 255 
9.62975 -4.04725 1.69932 33 143 141 255 
9.63359 -4.05894 1.60338 37 131 142 255 
9.63952 -4.04141 1.51739 31 149 139 255 
9.64556 -4.04805 1.41618 32 146 140 255 
9.63402 -4.05498 1.31491 36 134 142 255 
9.62617 -4.05976 1.21803 39 128 142 255 
9.64527 -4.04382 1.13433 34 141 141 255 
9.64836 -4.05517 1.03541 34 141 141 255 
9.63669 -4.05808 0.935037 38 130 142 255 
9.64727 -4.0746 0.838914 40 124 142 255 
9.67317 -4.0575 0.757431 34 140 141 255 
9.64904 -4.05744 0.65672 34 141 141 255 
9.65654 -4.07239 0.558412 40 124 142 255 
9.65642 -4.08244 0.459572 42 120 142 255 
9.66119 -4.05643 0.376894 38 130 142 255 
9.66043 -4.06619 0.278124 43 117 142 255 
9.66719 -4.07887 0.179483 44 113 142 255 
9.67779 -4.09545 0.0825366 43 116 142 255 
9.66857 -4.06151 -0.00183033 44 114 142 255 
9.685 -4.08052 -0.100887 43 117 142 255 
9.69402 -4.09418 -0.19838 42 120 142 255 
9.69396 -4.10627 -0.297746 43 117 142 255 
9.74206 -4.09838 -0.383855 41 122 142 255 
9.74393 -4.10935 -0.482058 39 126 142 255 
9.74476 -4.11761 -0.582197 41 122 142 255 
9.76063 -4.13652 -0.683676 38 130 142 255 
9.77737 -4.11523 -0.769704 37 131 142 255 
9.81008 -4.14128 -0.871714 41 123 142 255 
9.80492 -4.14908 -0.972669 37 132 142 255 
9.74527 -4.13001 -1.06765 70 51 127 255 
9.13862 -3.85201 -1.08086 68 57 131 255 
8.33385 -3.51981 -1.07234 70 52 128 255 
7.86626 -3.33033 -1.09428 65 68 135 255 
7.38619 -3.13328 -1.10476 67 62 133 255 
6.94828 -2.93304 -1.1016 62 74 137 255 
6.58934 -2.78572 -1.11261 62 76 138 255 
6.21789 -2.63374 -1.11427 61 78 138 255 
5.9352 -2.51776 -1.12753 56 88 140 255 
5.66718 -2.39692 -1.12933 57 86 140 255 
5.44143 -2.30379 -1.14004 52 97 141 255 
5.17083 -2.19023 -1.13944 58 83 139 255 
4.96054 -2.10328 -1.14821 60 79 138 255 
4.79947 -2.03288 -1.15648 52 97 141 255 
4.60514 -1.95162 -1.15839 58 84 140 255 
4.42254 -1.8751 -1.16123 61 77 138 255 
4.265 -1.80662 -1.1686 63 71 136 255 
4.09916 -1.74047 -1.16416 61 78 138 255 
3.94068 -1.67327 -1.16158 63 71 136 255 
3.83495 -1.62676 -1.17407 66 65 134 255 
3.67123 -1.55359 -1.16798 64 69 136 255 
14.388 -6.14517 4.69978 72 33 115 255 
12.4733 -5.31476 3.92112 70 52 128 255 
12.6703 -5.39334 3.837 65 66 135 255 
12.7384 -5.42264 3.71742 62 73 137 255 
16.4205 -7.00312 4.63334 72 41 121 255 
16.257 -6.93031 4.39971 68 59 132 255 
16.1258 -6.87752 4.1862 71 44 122 255 
16.786 -7.16295 4.17991 72 24 106 255 
9.61999 -4.10082 2.3069 47 108 142 255 
9.67226 -4.12525 2.21016 48 106 142 255 
9.62664 -4.11165 2.0974 49 103 142 255 
9.66514 -4.13228 2.00517 57 86 140 255 
9.62523 -4.10305 1.90905 51 99 141 255 
9.65012 -4.1178 1.81039 39 126 142 255 
9.66826 -4.13342 1.71056 33 142 141 255 
9.66846 -4.14367 1.61339 31 150 139 255 
9.66279 -4.12105 1.52501 33 143 141 255 
9.65609 -4.12233 1.42142 35 138 141 255 
9.67007 -4.14018 1.32328 33 142 141 255 
9.68688 -4.15556 1.22891 33 143 141 255 
9.68429 -4.13022 1.14188 33 145 140 255 
9.67088 -4.13463 1.04053 33 145 140 255 
9.66471 -4.13988 0.940203 32 146 140 255 
9.67612 -4.15694 0.843626 33 143 141 255 
9.6903 -4.13478 0.760744 32 147 140 255 
9.66618 -4.13462 0.6596 31 152 139 255 
9.67542 -4.15046 0.560966 32 147 140 255 
9.67158 -4.15898 0.461499 35 136 142 255 
9.69493 -4.14075 0.379195 33 142 141 255 
9.70974 -4.15726 0.280273 32 146 140 255 
9.69619 -4.16138 0.180492 35 137 142 255 
9.68187 -4.1674 0.082788 39 126 142 255 
9.70416 -4.14669 -0.00184185 39 126 142 255 
9.71861 -4.16507 -0.101502 36 135 142 255 
9.722 -4.17647 -0.199473 34 139 141 255 
9.72366 -4.18941 -0.299442 38 130 142 255 
9.7397 -4.1679 -0.384762 33 144 141 255 
9.73873 -4.17772 -0.48306 34 139 141 255 
9.74225 -4.18718 -0.583571 35 137 142 255 
9.74973 -4.20265 -0.684706 37 132 142 255 
9.75193 -4.17515 -0.769704 34 139 141 255 
9.80097 -4.20847 -0.873183 43 117 142 255 
9.82136 -4.22728 -0.976854 38 130 142 255 
9.71974 -4.18973 -1.06765 70 50 126 255 
9.16141 -3.92799 -1.08639 68 58 131 255 
8.30754 -3.56892 -1.07176 70 52 128 255 
7.85843 -3.38403 -1.09606 67 61 132 255 
7.37865 -3.18365 -1.10654 67 61 132 255 
6.96289 -2.98968 -1.1068 63 72 137 255 
6.593 -2.83508 -1.11615 63 72 137 255 
6.22789 -2.68317 -1.11899 55 90 140 255 
5.91964 -2.55413 -1.12753 57 86 140 255 
5.66682 -2.43786 -1.13222 57 86 140 255 
5.41998 -2.33403 -1.13852 52 96 141 255 
5.17889 -2.23123 -1.14421 59 82 139 255 
4.95831 -2.13832 -1.15071 58 84 140 255 
4.78242 -2.06036 -1.1554 52 96 141 255 
4.60023 -1.98292 -1.1602 56 88 140 255 
4.41363 -1.90336 -1.16194 62 76 138 255 
4.24849 -1.83045 -1.16713 62 74 137 255 
4.09995 -1.77057 -1.16745 61 77 138 255 
3.94629 -1.70431 -1.16629 62 73 137 255 
3.82931 -1.65216 -1.17542 64 69 136 255 
3.67837 -1.5833 -1.17332 64 70 136 255 
14.0636 -6.10895 4.60599 70 10 93 255 
11.0337 -4.78156 3.47772 72 23 105 255 
12.3877 -5.36305 3.76131 61 78 138 255 
12.603 -5.45657 3.6876 71 16 99 255 
16.6196 -7.2089 4.70192 71 47 125 255 
16.2712 -7.05463 4.41517 68 57 131 255 
16.5856 -7.19425 4.31697 72 36 117 255 
16.8634 -7.31859 4.21027 70 48 126 255 
9.60629 -4.16482 2.3097 57 86 140 255 
9.6333 -4.17868 2.20707 48 106 142 255 
9.62911 -4.18275 2.10349 48 106 142 255 
9.636 -4.18994 2.00442 50 101 142 255 
9.63236 -4.17612 1.91551 53 95 141 255 
9.63552 -4.18164 1.81243 46 111 142 255 
9.67259 -4.20565 1.71585 31 156 137 255 
9.66098 -4.21081 1.61642 31 149 139 255 
9.67727 -4.19759 1.53133 31 158 137 255 
9.66242 -4.19532 1.42611 31 153 138 255 
9.67269 -4.21171 1.32714 30 157 137 255 
9.68214 -4.22405 1.23158 31 150 139 255 
9.67518 -4.19669 1.14382 39 126 142 255 
9.65719 -4.19905 1.04181 39 126 142 255 
9.65465 -4.20586 0.941717 46 111 142 255 
9.66688 -4.22341 0.845063 46 111 142 255 
9.67023 -4.19654 0.761176 39 128 142 255 
9.65252 -4.19903 0.660414 42 120 142 255 
9.67174 -4.21934 0.562243 47 107 142 255 
9.66601 -4.22705 0.462462 48 105 142 255 
9.69318 -4.21052 0.380129 43 117 142 255 
9.68404 -4.21676 0.280273 45 112 142 255 
9.69614 -4.23199 0.180971 45 112 142 255 
9.64512 -4.22192 0.0826937 59 82 139 255 
9.67762 -4.20576 -0.00184167 52 97 141 255 
9.71395 -4.23382 -0.101722 37 132 142 255 
9.70718 -4.24085 -0.199699 44 115 142 255 
9.71059 -4.25461 -0.299838 49 104 142 255 
9.72952 -4.23437 -0.385379 32 146 140 255 
9.7239 -4.24219 -0.483607 34 140 141 255 
9.73741 -4.25608 -0.584835 37 132 142 255 
9.73747 -4.26841 -0.685672 38 130 142 255 
9.75996 -4.24964 -0.772382 32 146 140 255 
9.79871 -4.2789 -0.875304 42 120 142 255 
9.82443 -4.30024 -0.979766 39 126 142 255 
9.69385 -4.24929 -1.06765 70 52 128 255 
9.1262 -3.97936 -1.08509 68 58 131 255 
8.30823 -3.62977 -1.0747 70 51 127 255 
7.85205 -3.43855 -1.09809 63 72 137 255 
7.37259 -3.23483 -1.10858 68 58 131 255 
6.95348 -3.0363 -1.10825 61 78 138 255 
6.56009 -2.86875 -1.11353 62 74 137 255 
6.22577 -2.72766 -1.12159 54 92 141 255 
5.90386 -2.5904 -1.12753 58 84 140 255 
5.64815 -2.47101 -1.13149 53 94 141 255 
5.42714 -2.37669 -1.14307 49 104 142 255 
5.18396 -2.27122 -1.14839 59 82 139 255 
4.95316 -2.17224 -1.15258 59 81 139 255 
4.75627 -2.08379 -1.15215 55 91 141 255 
4.60493 -2.01854 -1.16448 54 93 141 255 
4.4081 -1.93313 -1.16358 57 86 140 255 
4.2212 -1.84948 -1.16273 66 64 134 255 
4.07572 -1.78986 -1.16366 62 74 137 255 
3.95608 -1.73742 -1.17231 59 81 139 255 
3.81029 -1.67176 -1.17271 61 77 138 255 
3.68705 -1.61392 -1.17922 63 72 137 255 
10.7695 -4.75682 3.53663 72 33 115 255 
10.9787 -4.83794 3.46967 66 64 134 255 
12.4074 -5.46225 3.77741 60 79 138 255 
12.8592 -5.66145 3.77266 69 5 89 255 
16.6964 -7.36425 4.73634 72 40 120 255 
14.2466 -6.28099 3.8762 70 52 128 255 
13.0909 -5.77406 3.4165 64 69 136 255 
16.5988 -7.32511 4.15535 71 46 124 255 
16.5252 -7.28528 3.98392 70 48 126 255 
9.6612 -4.2614 2.21941 54 92 141 255 
9.65977 -4.26671 2.11587 49 104 142 255 
9.66761 -4.27441 2.01641 49 103 142 255 
15.1984 -6.70035 3.03049 72 36 117 255 
9.64304 -4.2554 1.81872 37 132 142 255 
9.66465 -4.2729 1.71907 31 148 140 255 
9.65845 -4.28043 1.62036 31 149 139 255 
9.66129 -4.26128 1.53291 31 153 138 255 
9.65735 -4.26373 1.4292 32 147 140 255 
9.65936 -4.27661 1.32889 31 149 139 255 
9.66603 -4.28781 1.23285 32 146 140 255 
9.69018 -4.27403 1.14867 38 130 142 255 
9.64944 -4.26628 1.04378 35 136 142 255 
9.66326 -4.28035 0.945102 35 136 142 255 
9.66082 -4.29155 0.84682 35 137 142 255 
9.67624 -4.26989 0.763697 35 137 142 255 
9.67678 -4.28038 0.663858 32 146 140 255 
9.69222 -4.29925 0.564956 32 146 140 255 
9.66454 -4.29724 0.463644 48 105 142 255 
9.69276 -4.28122 0.381136 35 138 141 255 
9.67627 -4.2842 0.280803 35 136 142 255 
9.70654 -4.30763 0.181655 34 140 141 255 
9.57884 -4.26313 0.0823482 70 52 128 255 
9.69553 -4.28446 -0.00185005 45 113 142 255 
9.70333 -4.30023 -0.101886 35 137 142 255 
9.71387 -4.31494 -0.200378 40 125 142 255 
9.70713 -4.32428 -0.300544 43 116 142 255 
9.72529 -4.30369 -0.38625 46 110 142 255 
9.72052 -4.31191 -0.484745 41 123 142 255 
9.74487 -4.33075 -0.586868 44 114 142 255 
9.75302 -4.34676 -0.688632 47 108 142 255 
9.75742 -4.31994 -0.774264 42 120 142 255 
9.82055 -4.36038 -0.879628 39 128 142 255 
9.8297 -4.37461 -0.98295 40 125 142 255 
9.75575 -4.34798 -1.07738 70 50 126 255 
9.08889 -4.02965 -1.08357 70 51 127 255 
8.29669 -3.68551 -1.07611 70 52 128 255 
7.83353 -3.48787 -1.09847 65 68 135 255 
7.36074 -3.28364 -1.10981 67 61 132 255 
6.95009 -3.08574 -1.1107 61 78 138 255 
6.55591 -2.91497 -1.11584 62 73 137 255 
6.21613 -2.76902 -1.1229 54 92 141 255 
5.87975 -2.62297 -1.12598 56 89 140 255 
5.64097 -2.50922 -1.13312 54 92 141 255 
5.40259 -2.40556 -1.14099 49 104 142 255 
5.17977 -2.30737 -1.15057 58 83 139 255 
4.94599 -2.20538 -1.15404 62 73 137 255 
4.7434 -2.11293 -1.15215 54 92 141 255 
4.57733 -2.04002 -1.16065 53 95 141 255 
4.4219 -1.97162 -1.1704 62 76 138 255 
4.22748 -1.88324 -1.16762 64 69 136 255 
4.07526 -1.81957 -1.16669 64 69 136 255 
3.93301 -1.75615 -1.16865 62 73 137 255 
3.81051 -1.69981 -1.17597 62 76 138 255 
3.67971 -1.63768 -1.18007 63 71 136 255 
8.63195 -3.87614 2.84243 66 65 134 255 
8.65802 -3.87892 2.74373 68 58 131 255 
12.2945 -5.50286 3.75325 64 70 136 255 
13.1733 -5.89649 3.87535 72 29 111 255 
13.1632 -5.9026 3.74425 70 52 128 255 
13.6871 -6.13491 3.73415 70 48 126 255 
13.0961 -5.87258 3.42719 65 66 135 255 
16.5348 -7.41844 4.15067 72 41 121 255 
16.735 -7.50077 4.04553 69 55 129 255 
9.65898 -4.33141 2.22497 50 101 142 255 
9.63877 -4.32831 2.11705 46 110 142 255 
9.63851 -4.33244 2.01585 51 99 141 255 
9.69889 -4.34712 1.9392 59 81 139 255 
9.6599 -4.33385 1.82688 35 136 142 255 
9.66436 -4.34386 1.72372 38 130 142 255 
9.65814 -4.35138 1.62476 42 120 142 255 
9.65573 -4.3298 1.53621 34 141 141 255 
9.65722 -4.33468 1.43309 38 130 142 255 
9.6637 -4.34964 1.33314 41 122 142 255 
9.68662 -4.36828 1.23887 42 119 142 255 
9.70097 -4.35008 1.15309 39 126 142 255 
9.69025 -4.3556 1.05107 38 129 142 255 
9.69948 -4.36778 0.951248 41 122 142 255 
9.68972 -4.37577 0.851691 40 125 142 255 
9.69536 -4.3496 0.767298 40 125 142 255 
9.69584 -4.36014 0.666989 39 128 142 255 
9.70662 -4.37711 0.567351 40 124 142 255 
9.72448 -4.39555 0.467805 56 89 140 255 
9.72009 -4.36476 0.383257 40 124 142 255 
9.70632 -4.36893 0.282448 42 120 142 255 
9.70454 -4.37821 0.182117 40 125 142 255 
9.55614 -4.32347 0.0823796 72 38 119 255 
9.70008 -4.35781 -0.00185598 50 100 142 255 
9.73055 -4.38392 -0.102452 39 127 142 255 
9.74189 -4.39915 -0.201509 37 131 142 255 
9.75326 -4.41675 -0.302806 38 129 142 255 
9.73697 -4.3805 -0.387774 39 126 142 255 
9.75216 -4.39775 -0.487659 45 113 142 255 
9.75816 -4.40855 -0.589286 51 98 141 255 
9.75889 -4.42135 -0.690949 39 127 142 255 
9.78712 -4.40511 -0.77875 35 137 142 255 
9.82723 -4.43573 -0.882647 41 122 142 255 
9.8426 -4.4529 -0.986953 38 129 142 255 
9.72888 -4.40775 -1.07738 70 50 126 255 
9.00689 -4.0596 -1.07675 66 64 134 255 
8.29112 -3.74412 -1.07835 69 56 130 255 
7.80836 -3.53424 -1.09797 65 68 135 255 
7.3567 -3.33611 -1.11226 67 61 132 255 
6.9653 -3.1438 -1.1162 61 77 138 255 
6.57302 -2.97102 -1.12183 60 80 139 255 
6.19992 -2.80752 -1.12306 55 90 140 255 
5.87252 -2.66306 -1.1277 59 82 139 255 
5.62816 -2.545 -1.13366 54 92 141 255 
5.37699 -2.4338 -1.13871 51 99 141 255 
5.18515 -2.348 -1.15495 56 88 140 255 
4.94484 -2.24134 -1.15696 58 83 139 255 
4.73035 -2.142 -1.15215 51 98 141 255 
4.56562 -2.06847 -1.16087 50 101 142 255 
4.42477 -2.00554 -1.17439 56 89 140 255 
4.22468 -1.91314 -1.17007 64 70 136 255 
4.07371 -1.84894 -1.16947 59 81 139 255 
3.93447 -1.78583 -1.17231 60 79 138 255 
3.7965 -1.72157 -1.17488 62 76 138 255 
3.66872 -1.65983 -1.17979 67 62 133 255 
8.64024 -3.94374 2.85307 68 58 131 255 
10.47 -4.76805 3.32714 66 63 133 255 
12.3763 -5.63085 3.78868 70 51 127 255 
12.3536 -5.62083 3.64429 71 45 123 255 
13.1144 -5.97763 3.74074 69 53 129 255 
13.1777 -6.00393 3.60515 66 64 134 255 
14.5511 -6.63258 3.81854 72 35 116 255 
16.45 -7.50196 4.14084 68 58 131 255 
16.7082 -7.61222 4.05027 71 42 122 255 
9.65092 -4.39912 2.22929 47 107 142 255 
16.7854 -7.66162 3.69698 72 27 109 255 
9.60281 -4.38742 2.01397 69 55 129 255 
9.66129 -4.40166 1.93705 51 99 141 255 
9.67437 -4.41185 1.8347 32 146 140 255 
9.69319 -4.42851 1.73368 33 143 141 255 
9.68878 -4.4369 1.63446 33 145 140 255 
9.68751 -4.41564 1.54555 33 143 141 255 
9.70708 -4.42881 1.44449 33 144 141 255 
9.71081 -4.4427 1.34337 33 145 140 255 
9.68943 -4.44129 1.24269 33 144 141 255 
9.70576 -4.42396 1.15686 49 104 142 255 
9.73033 -4.44558 1.05835 30 157 137 255 
9.71597 -4.44711 0.955523 32 146 140 255 
9.6944 -4.4497 0.854485 33 144 141 255 
9.71658 -4.43094 0.771115 31 148 140 255 
9.71611 -4.44113 0.670245 31 156 137 255 
9.71771 -4.45406 0.569585 31 151 139 255 
9.73454 -4.47223 0.4696 42 118 142 255 
9.73222 -4.44217 0.384802 33 144 141 255 
9.72296 -4.44836 0.283721 36 135 142 255 
9.73111 -4.46226 0.183126 34 140 141 255 
9.66208 -4.44302 0.0835262 72 35 116 255 
9.71955 -4.43843 -0.00186488 52 96 141 255 
9.74529 -4.4627 -0.102893 31 148 140 255 
9.74742 -4.47386 -0.202187 34 140 141 255 
9.75594 -4.49031 -0.303739 32 146 140 255 
9.76444 -4.4651 -0.389952 32 146 140 255 
9.77403 -4.47998 -0.490118 32 146 140 255 
9.75451 -4.47918 -0.590714 44 115 142 255 
9.7488 -4.48908 -0.692172 43 117 142 255 
9.79527 -4.48127 -0.781573 33 143 141 255 
9.827 -4.50841 -0.885095 41 122 142 255 
9.84494 -4.52694 -0.989956 40 125 142 255 
9.50735 -4.37789 -1.05581 69 55 129 255 
9.07129 -4.15578 -1.08747 70 48 126 255 
8.27792 -3.79948 -1.07964 68 58 131 255 
7.79284 -3.58498 -1.09885 68 58 131 255 
7.35048 -3.38782 -1.11445 66 64 134 255 
6.94138 -3.18441 -1.11547 61 77 138 255 
6.55287 -3.01047 -1.12153 62 76 138 255 
6.19333 -2.85046 -1.12501 54 92 141 255 
5.88022 -2.71018 -1.13235 58 84 140 255 
5.62406 -2.58483 -1.13601 54 93 141 255 
5.35393 -2.46306 -1.13701 51 98 141 255 
5.16798 -2.37855 -1.15435 54 93 141 255 
4.93011 -2.27123 -1.15675 56 89 140 255 
4.72864 -2.17629 -1.15496 55 91 141 255 
4.55107 -2.09563 -1.16042 51 99 141 255 
4.40267 -2.02818 -1.17181 58 84 140 255 
4.21286 -1.93903 -1.17007 64 70 136 255 
4.06668 -1.87593 -1.17074 60 79 138 255 
3.91292 -1.80509 -1.16917 62 73 137 255 
3.76139 -1.73355 -1.16729 63 71 136 255 
3.65672 -1.68151 -1.17922 62 73 137 255 
8.66714 -4.02046 2.87004 64 70 136 255 
8.64115 -3.9994 2.75373 52 97 141 255 
15.4595 -7.14842 4.74585 72 40 120 255 
12.3592 -5.71518 3.65622 72 29 111 255 
13.0537 -6.047 3.73395 72 38 119 255 
13.0429 -6.03942 3.57833 70 51 127 255 
14.6813 -6.80106 3.8636 72 22 104 255 
10.0467 -4.65642 2.53612 66 63 133 255 
9.59423 -4.44239 2.33232 70 52 128 255 
9.66015 -4.47512 2.23772 63 72 137 255 
16.722 -7.75704 3.69344 66 64 134 255 
16.8858 -7.84052 3.55144 72 32 113 255 
9.69034 -4.48689 1.94835 50 102 142 255 
9.68646 -4.48936 1.84219 33 144 141 255 
9.69001 -4.49912 1.73801 31 160 136 255 
9.69273 -4.51086 1.63977 31 148 140 255 
9.69705 -4.49206 1.55144 31 156 137 255 
9.71119 -4.50288 1.44919 32 163 134 255 
9.70047 -4.51015 1.34574 30 155 138 255 
9.69171 -4.5145 1.24651 31 149 139 255 
9.69737 -4.4922 1.15913 51 98 141 255 
9.70557 -4.50645 1.05865 31 161 136 255 
9.69121 -4.50791 0.95579 31 151 139 255 
9.68137 -4.51584 0.855763 31 148 140 255 
9.71184 -4.50096 0.772915 30 155 138 255 
9.70678 -4.50907 0.671498 31 159 136 255 
9.68929 -4.51319 0.569532 35 137 142 255 
9.69425 -4.52596 0.468987 46 110 142 255 
9.72563 -4.51147 0.385629 31 153 138 255 
9.7254 -4.52185 0.284596 33 145 140 255 
9.70627 -4.52315 0.183177 35 138 141 255 
9.70168 -4.53355 0.0841074 72 36 117 255 
9.7139 -4.50809 -0.00186907 53 94 141 255 
9.74492 -4.53506 -0.103181 33 143 141 255 
9.74697 -4.54626 -0.202753 37 132 142 255 
9.75899 -4.56448 -0.3047 38 129 142 255 
9.75589 -4.53378 -0.390714 33 144 141 255 
9.7527 -4.54282 -0.490437 35 137 142 255 
9.74494 -4.54739 -0.591813 39 127 142 255 
9.73915 -4.55727 -0.693459 58 84 140 255 
9.78026 -4.54717 -0.782586 35 137 142 255 
9.84793 -4.59137 -0.889501 42 120 142 255 
9.88194 -4.61762 -0.996506 43 116 142 255 
9.71101 -4.5441 -1.0815 71 46 124 255 
9.06094 -4.2185 -1.08931 63 71 136 255 
8.24185 -3.84432 -1.07799 70 52 128 255 
7.77878 -3.63651 -1.1 67 61 132 255 
7.34212 -3.43874 -1.11636 67 62 133 255 
6.92261 -3.22736 -1.11562 61 78 138 255 
6.53696 -3.05187 -1.12199 59 82 139 255 
6.1793 -2.89008 -1.12566 55 90 140 255 
5.85813 -2.7437 -1.13132 56 89 140 255 
5.61255 -2.62137 -1.13691 54 93 141 255 
5.32537 -2.48962 -1.13417 53 95 141 255 
5.1453 -2.40648 -1.15256 53 94 141 255 
4.92228 -2.30434 -1.15821 53 94 141 255 
4.72316 -2.20898 -1.15691 55 91 141 255 
4.53018 -2.1198 -1.15839 48 105 142 255 
4.39103 -2.05557 -1.17204 54 92 141 255 
4.20967 -1.96895 -1.17251 61 77 138 255 
4.05948 -1.9029 -1.172 62 73 137 255 
3.92274 -1.8389 -1.17545 63 72 137 255 
3.76899 -1.76517 -1.17298 62 74 137 255 
3.65416 -1.70757 -1.18175 64 70 136 255 
8.62411 -4.06499 2.864 52 97 141 255 
8.63905 -4.06298 2.76095 54 92 141 255 
8.64969 -4.0642 2.66295 63 72 137 255 
13.1526 -6.18028 3.90206 72 32 113 255 
12.5575 -5.91098 3.60231 72 38 119 255 
10.079 -4.74236 2.77313 70 50 126 255 
10.1608 -4.7829 2.68164 50 101 142 255 
31.5731 -14.8695 7.99302 70 11 94 255 
15.8855 -7.47411 3.87277 71 44 122 255 
9.66881 -4.5514 2.24615 52 97 141 255 
9.73042 -4.58652 2.15536 57 86 140 255 
9.73392 -4.59253 2.05314 64 69 136 255 
9.70179 -4.5647 1.95625 50 101 142 255 
9.68637 -4.56173 1.84746 32 146 140 255 
9.68275 -4.56818 1.74171 31 148 140 255 
9.68632 -4.58039 1.64341 33 144 141 255 
9.70512 -4.56833 1.55719 31 154 138 255 
9.7022 -4.57125 1.452 32 147 140 255 
9.68607 -4.57595 1.34761 32 146 140 255 
9.69704 -4.5896 1.2508 34 139 141 255 
9.69931 -4.56559 1.16269 46 111 142 255 
9.69754 -4.57526 1.06081 31 149 139 255 
9.68948 -4.57963 0.958373 33 142 141 255 
9.69582 -4.59523 0.859516 38 130 142 255 
9.70299 -4.56939 0.774428 33 144 141 255 
9.7033 -4.58005 0.673188 42 119 142 255 
9.70835 -4.59477 0.572299 43 117 142 255 
9.71233 -4.6072 0.471221 52 97 141 255 
9.74296 -4.59237 0.387426 33 145 140 255 
9.72729 -4.59553 0.285472 38 130 142 255 
9.72442 -4.60445 0.18405 42 120 142 255 
9.72336 -4.61658 0.0845394 69 55 129 255 
9.71862 -4.58296 -0.00187536 50 100 142 255 
9.75669 -4.61358 -0.103604 39 126 142 255 
9.75955 -4.62525 -0.203601 42 118 142 255 
9.77324 -4.64444 -0.306029 45 112 142 255 
9.7541 -4.60593 -0.391767 42 120 142 255 
9.7752 -4.62651 -0.492987 44 113 142 255 
9.76828 -4.63148 -0.594946 46 110 142 255 
9.79302 -4.65593 -0.699316 44 114 142 255 
9.77742 -4.61902 -0.784612 56 88 140 255 
9.8556 -4.66877 -0.892764 42 118 142 255 
9.87231 -4.68714 -0.998417 45 112 142 255 
9.67755 -4.60104 -1.0809 69 55 129 255 
9.07083 -4.29102 -1.09365 67 62 133 255 
8.26656 -3.91778 -1.08435 69 53 129 255 
7.76707 -3.68928 -1.10152 67 61 132 255 
7.32625 -3.48628 -1.11718 65 68 135 255 
6.91788 -3.27698 -1.11808 61 78 138 255 
6.52525 -3.09531 -1.12322 61 78 138 255 
6.1659 -2.93006 -1.12648 54 92 141 255 
5.86787 -2.79229 -1.13648 54 93 141 255 
5.5777 -2.6469 -1.13312 55 90 140 255 
5.33395 -2.53363 -1.13928 55 91 141 255 
5.12512 -2.43548 -1.15137 50 100 142 255 
4.91423 -2.33744 -1.15967 55 90 140 255 
4.72891 -2.24714 -1.16168 50 100 142 255 
4.53381 -2.1555 -1.16268 51 99 141 255 
4.3915 -2.08873 -1.17557 53 94 141 255 
4.19138 -1.99183 -1.1708 62 76 138 255 
4.04685 -1.92735 -1.17175 60 79 138 255 
3.92968 -1.87164 -1.18095 62 76 138 255 
3.77286 -1.7953 -1.17759 65 66 135 255 
3.64361 -1.72996 -1.18175 65 66 135 255 
8.5921 -4.11452 2.8617 57 86 140 255 
8.66076 -4.13827 2.77595 50 100 142 255 
13.1381 -6.27187 4.05656 69 55 129 255 
12.1252 -5.7886 3.60773 66 63 133 255 
12.0922 -5.78288 3.47896 69 55 129 255 
9.92019 -4.74218 2.73738 70 48 126 255 
9.81015 -4.69157 2.59664 66 64 134 255 
9.52274 -4.55638 2.4178 65 66 135 255 
15.8525 -7.57776 3.876 71 44 122 255 
9.67425 -4.62669 2.25397 50 101 142 255 
9.68883 -4.63979 2.15241 50 102 142 255 
9.6967 -4.64792 2.05126 54 92 141 255 
9.71088 -4.64196 1.96379 53 95 141 255 
9.69909 -4.64064 1.85528 33 145 140 255 
9.70972 -4.65396 1.75166 40 124 142 255 
9.71416 -4.66671 1.65296 39 128 142 255 
9.71441 -4.64573 1.56322 42 118 142 255 
9.70078 -4.64353 1.45603 41 122 142 255 
9.72847 -4.66921 1.35747 39 127 142 255 
9.73763 -4.68216 1.25972 38 129 142 255 
9.72313 -4.6499 1.16894 47 108 142 255 
9.733 -4.66522 1.0678 40 125 142 255 
9.74111 -4.67737 0.9663 38 129 142 255 
9.75006 -4.69442 0.866862 36 135 142 255 
9.71076 -4.64606 0.777309 54 92 141 255 
9.73261 -4.66712 0.677196 37 132 142 255 
9.75017 -4.688 0.576449 38 130 142 255 
9.74687 -4.69706 0.474286 44 115 142 255 
9.76237 -4.67494 0.389332 40 124 142 255 
9.77552 -4.69189 0.287726 37 132 142 255 
9.79329 -4.71084 0.185897 34 140 141 255 
9.70566 -4.68137 0.0846336 72 36 117 255 
9.72729 -4.66022 -0.00188251 50 101 142 255 
9.77056 -4.69371 -0.104055 34 139 141 255 
9.77242 -4.705 -0.204468 38 130 142 255 
9.79587 -4.72909 -0.30764 37 132 142 255 
9.78152 -4.69249 -0.394017 34 139 141 255 
9.78985 -4.70718 -0.495173 38 130 142 255 
9.79636 -4.71863 -0.598407 40 124 142 255 
9.81189 -4.73894 -0.702726 37 131 142 255 
9.80554 -4.70612 -0.789171 57 85 140 255 
9.86628 -4.74818 -0.896354 41 123 142 255 
9.86221 -4.75671 -1.00033 49 103 142 255 
9.64914 -4.66033 -1.0809 71 44 122 255 
9.0721 -4.35994 -1.09701 66 63 133 255 
8.2549 -3.97446 -1.086 70 50 126 255 
7.77377 -3.75109 -1.10572 68 58 131 255 
7.32166 -3.53936 -1.11977 63 71 136 255 
6.90745 -3.32408 -1.11967 62 73 137 255 
6.51949 -3.14173 -1.12552 59 82 139 255 
6.16114 -2.97427 -1.12892 57 85 140 255 
5.86659 -2.83596 -1.13959 55 91 141 255 
5.58616 -2.69303 -1.13817 56 88 140 255 
5.32714 -2.57057 -1.14118 52 96 141 255 
5.10479 -2.46432 -1.15018 53 95 141 255 
4.90155 -2.3684 -1.16009 56 88 140 255 
4.73614 -2.2863 -1.16688 50 102 142 255 
4.52839 -2.18709 -1.16471 53 95 141 255 
4.37685 -2.11479 -1.1751 57 86 140 255 
4.1686 -2.01245 -1.16787 61 77 138 255 
4.04801 -1.95847 -1.17554 59 81 139 255 
3.87903 -1.87681 -1.16917 62 73 137 255 
3.75657 -1.8159 -1.17597 65 66 135 255 
3.63898 -1.7552 -1.18372 68 57 131 255 
8.65368 -4.20948 2.89076 52 96 141 255 
8.68447 -4.21525 2.79179 48 105 142 255 
13.1601 -6.38179 4.07535 72 31 112 255 
12.1868 -5.91009 3.63677 70 51 127 255 
12.0722 -5.86458 3.48348 68 57 131 255 
9.69363 -4.70716 2.68278 60 79 138 255 
9.71381 -4.71895 2.57875 60 79 138 255 
9.51652 -4.62538 2.42338 63 72 137 255 
15.8154 -7.67958 3.87837 68 57 131 255 
9.70026 -4.71247 2.26672 45 113 142 255 
9.69633 -4.71673 2.16047 46 110 142 255 
9.69007 -4.71808 2.05595 58 83 139 255 
9.71407 -4.71693 1.97025 62 73 137 255 
9.71297 -4.72074 1.86344 37 133 142 255 
9.72003 -4.73246 1.75873 33 145 140 255 
9.72621 -4.74616 1.65993 32 146 140 255 
9.74625 -4.73465 1.57299 31 153 138 255 
9.72023 -4.72637 1.46327 33 144 141 255 
9.7362 -4.74664 1.36259 31 149 139 255 
9.73995 -4.75708 1.26377 32 147 140 255 
9.72661 -4.72511 1.17282 48 105 142 255 
9.72566 -4.73531 1.07017 36 135 142 255 
9.74446 -4.75277 0.969507 31 152 139 255 
9.76495 -4.77561 0.870775 33 145 140 255 
9.7619 -4.74436 0.783718 31 151 139 255 
9.73609 -4.74248 0.67945 31 158 137 255 
9.74815 -4.76089 0.578045 31 149 139 255 
9.75466 -4.77479 0.476082 42 119 142 255 
9.77125 -4.75311 0.390841 32 147 140 255 
9.77081 -4.76362 0.288443 32 146 140 255 
9.77768 -4.77742 0.186153 31 151 139 255 
9.6992 -4.75183 0.08483 72 40 120 255 
9.72639 -4.73338 -0.00188792 52 97 141 255 
9.77393 -4.76936 -0.104401 31 148 140 255 
9.77032 -4.77805 -0.205033 35 138 141 255 
9.77923 -4.79527 -0.308036 37 131 142 255 
9.78129 -4.76643 -0.395179 33 144 141 255 
9.78502 -4.779 -0.496403 33 145 140 255 
9.78605 -4.78786 -0.599561 37 133 142 255 
9.79876 -4.80696 -0.703885 39 128 142 255 
9.80248 -4.77887 -0.79127 55 90 140 255 
9.88084 -4.83007 -0.900352 40 125 142 255 
9.89454 -4.84736 -1.00661 50 102 142 255 
9.63108 -4.72471 -1.0821 71 44 122 255 
9.03357 -4.40986 -1.0956 70 52 128 255 
8.24998 -4.03464 -1.08859 70 51 127 255 
7.74259 -3.79479 -1.10457 69 56 130 255 
7.30159 -3.58509 -1.12004 65 66 135 255 
6.88959 -3.36771 -1.1201 62 73 137 255 
6.50541 -3.18428 -1.12644 61 78 138 255 
6.15252 -3.0168 -1.13071 57 86 140 255 
5.84643 -2.8706 -1.13907 60 80 139 255 
5.58896 -2.73677 -1.14214 52 96 141 255 
5.32273 -2.60883 -1.14364 51 99 141 255 
5.09573 -2.49862 -1.15157 48 105 142 255 
4.90976 -2.40964 -1.16551 56 88 140 255 
4.71325 -2.31102 -1.16471 54 92 141 255 
4.52801 -2.22127 -1.16809 49 103 142 255 
4.34372 -2.13176 -1.16969 62 76 138 255 
4.17184 -2.04567 -1.17227 62 76 138 255 
4.03939 -1.98498 -1.17655 61 77 138 255 
3.8787 -1.90611 -1.17257 63 72 137 255 
3.75314 -1.84273 -1.17841 64 70 136 255 
3.63245 -1.77961 -1.18513 67 62 133 255 
8.66117 -4.27904 2.90198 56 88 140 255 
8.67826 -4.27822 2.79818 49 104 142 255 
8.68058 -4.27551 2.69623 63 71 136 255 
12.6926 -6.25191 3.79911 72 41 121 255 
12.3311 -6.08416 3.5689 71 47 125 255 
9.61234 -4.7408 2.66829 62 74 137 255 
9.70299 -4.7875 2.58363 58 84 140 255 
9.49058 -4.68498 2.42405 47 107 142 255 
15.7697 -7.77734 3.8788 72 20 103 255 
9.69134 -4.78186 2.27145 47 107 142 255 
9.69973 -4.79221 2.16773 47 107 142 255 
9.69792 -4.79574 2.06382 59 81 139 255 
9.71318 -4.79037 1.97599 50 102 142 255 
9.74745 -4.81166 1.87568 48 106 142 255 
9.71027 -4.80163 1.76226 31 153 138 255 
9.71727 -4.81585 1.66342 31 156 137 255 
9.73299 -4.80224 1.57558 30 157 137 255 
9.73014 -4.80523 1.46918 30 157 137 255 
9.71579 -4.81069 1.36384 31 153 138 255 
9.72482 -4.82381 1.26562 31 149 139 255 
9.71972 -4.7957 1.17552 49 104 142 255 
9.71962 -4.80636 1.07273 34 139 141 255 
9.73386 -4.82175 0.971377 32 147 140 255 
9.7435 -4.83943 0.871494 46 109 142 255 
9.74603 -4.81079 0.784799 31 149 139 255 
9.72291 -4.8101 0.680577 31 153 138 255 
9.74827 -4.83525 0.579801 41 123 142 255 
9.74218 -4.843 0.476914 43 116 142 255 
9.76072 -4.82227 0.391596 32 147 140 255 
9.75931 -4.83235 0.288973 34 140 141 255 
9.76878 -4.84755 0.186547 36 135 142 255 
9.7567 -4.85447 0.0855918 57 86 140 255 
9.76439 -4.82621 -0.00190101 50 102 142 255 
9.77046 -4.84212 -0.104679 34 140 141 255 
9.7829 -4.85881 -0.205919 37 131 142 255 
9.77378 -4.86722 -0.308799 39 127 142 255 
9.79216 -4.8463 -0.396812 34 139 141 255 
9.77251 -4.84738 -0.497268 38 130 142 255 
9.7699 -4.85448 -0.600386 39 126 142 255 
9.79498 -4.8799 -0.705751 42 120 142 255 
9.79532 -4.84999 -0.793079 57 85 140 255 
9.89297 -4.91144 -0.904187 39 127 142 255 
9.88601 -4.91863 -1.00879 53 94 141 255 
9.63308 -4.79924 -1.08561 71 46 124 255 
9.00901 -4.46653 -1.09592 66 65 134 255 
8.25264 -4.09888 -1.09224 70 51 127 255 
7.71561 -3.84046 -1.10406 68 58 131 255 
7.27413 -3.62717 -1.11922 64 69 136 255 
6.86702 -3.40904 -1.11981 63 71 136 255 
6.47071 -3.21666 -1.12383 59 81 139 255 
6.15774 -3.06637 -1.13511 58 83 139 255 
5.8384 -2.91126 -1.14096 56 89 140 255 
5.57383 -2.77189 -1.14251 51 98 141 255 
5.32332 -2.64975 -1.14724 52 97 141 255 
5.08995 -2.53464 -1.15376 49 104 142 255 
4.90713 -2.44582 -1.16842 56 89 140 255 
4.69287 -2.33685 -1.1632 52 96 141 255 
4.51168 -2.24771 -1.16742 55 91 141 255 
4.33491 -2.16054 -1.17087 60 79 138 255 
4.16182 -2.07253 -1.173 64 70 136 255 
4.02627 -2.00929 -1.1763 62 76 138 255 
3.89197 -1.94237 -1.18017 63 72 137 255 
3.74176 -1.86573 -1.17841 64 70 136 255 
3.61459 -1.79845 -1.18288 65 66 135 255 
8.57055 -4.2999 2.8804 58 83 139 255 
8.73946 -4.37526 2.82652 47 107 142 255 
8.83941 -4.42134 2.75394 49 103 142 255 
8.88374 -4.44373 2.66716 63 72 137 255 
9.25089 -4.63517 2.68559 64 70 136 255 
10.0872 -5.05216 2.80865 69 56 130 255 
9.53691 -4.77854 2.54716 55 91 141 255 
9.4878 -4.75623 2.43075 44 113 142 255 
30.3808 -15.2157 7.49544 70 10 93 255 
9.61807 -4.81932 2.26117 72 31 112 255 
9.69994 -4.86659 2.17441 47 107 142 255 
9.69465 -4.86838 2.06944 52 96 141 255 
9.72319 -4.8697 1.98407 49 103 142 255 
9.81024 -4.91775 1.89354 45 112 142 255 
9.70621 -4.87397 1.76692 37 133 142 255 
9.73081 -4.89716 1.67085 35 137 142 255 
9.72811 -4.87429 1.5796 33 143 141 255 
9.74211 -4.88572 1.47548 34 141 141 255 
9.71356 -4.88403 1.36771 37 131 142 255 
9.711 -4.89143 1.26771 39 127 142 255 
9.70967 -4.86505 1.17789 54 92 141 255 
9.73974 -4.89092 1.07824 33 145 140 255 
9.71921 -4.889 0.972891 42 120 142 255 
9.7332 -4.909 0.87325 62 74 137 255 
9.74664 -4.88569 0.787247 47 108 142 255 
9.73691 -4.89162 0.683645 48 105 142 255 
9.75498 -4.91339 0.581983 44 113 142 255 
9.76489 -4.92925 0.479498 46 111 142 255 
9.76399 -4.89865 0.392926 41 122 142 255 
9.76788 -4.91145 0.290114 43 117 142 255 
9.76921 -4.9227 0.187128 44 115 142 255 
9.73119 -4.9165 0.0856311 68 59 132 255 
9.76052 -4.89904 -0.00190607 52 97 141 255 
9.76558 -4.91457 -0.104948 39 126 142 255 
9.77969 -4.93226 -0.206485 46 110 142 255 
9.7366 -4.92349 -0.308573 65 66 135 255 
9.78724 -4.91886 -0.397828 40 124 142 255 
9.75062 -4.9113 -0.497678 54 93 141 255 
9.74528 -4.91704 -0.600715 67 61 132 255 
9.7417 -4.9282 -0.704078 72 29 111 255 
9.77161 -4.91314 -0.793586 60 79 138 255 
9.90626 -4.99403 -0.908185 38 129 142 255 
9.97475 -5.03937 -1.02098 58 83 139 255 
9.67447 -4.89419 -1.09364 70 48 126 255 
9.02406 -4.54318 -1.10112 60 80 139 255 
8.24595 -4.15883 -1.09471 69 53 129 255 
7.68747 -3.88549 -1.10343 68 59 132 255 
7.27295 -3.68248 -1.12249 66 64 134 255 
6.84686 -3.45155 -1.11995 62 73 137 255 
6.45703 -3.25941 -1.12491 59 82 139 255 
6.15289 -3.11122 -1.13771 58 84 140 255 
5.8134 -2.94347 -1.13959 55 90 140 255 
5.55759 -2.80648 -1.14269 51 98 141 255 
5.29908 -2.67838 -1.14553 51 99 141 255 
5.07955 -2.56848 -1.15495 50 100 142 255 
4.87109 -2.46529 -1.16342 57 85 140 255 
4.6767 -2.36472 -1.16276 54 93 141 255 
4.4978 -2.27535 -1.16742 54 93 141 255 
4.33458 -2.19368 -1.17439 61 78 138 255 
4.16027 -2.10372 -1.17618 61 77 138 255 
4.01128 -2.03265 -1.17554 61 78 138 255 
3.88601 -1.96927 -1.182 63 72 137 255 
3.74312 -1.89517 -1.18248 64 70 136 255 
3.60862 -1.82319 -1.18457 65 68 135 255 
8.57046 -4.36588 2.88932 56 89 140 255 
8.75184 -4.44882 2.8393 51 99 141 255 
8.77432 -4.4563 2.74213 54 92 141 255 
8.86664 -4.5034 2.67027 57 86 140 255 
9.12047 -4.64006 2.65595 52 96 141 255 
9.06301 -4.60899 2.53131 62 76 138 255 
9.98507 -5.07999 2.67514 67 61 132 255 
9.3568 -4.76262 2.40463 56 88 140 255 
29.9631 -15.2372 7.4153 71 13 96 255 
9.70869 -4.93948 2.28956 66 64 134 255 
9.70834 -4.9456 2.18306 49 104 142 255 
9.6891 -4.94027 2.07469 57 85 140 255 
9.72206 -4.94398 1.99 50 101 142 255 
9.76671 -4.97114 1.89099 56 89 140 255 
9.76141 -4.97692 1.78249 34 139 141 255 
9.75515 -4.98466 1.68025 35 138 141 255 
9.77211 -4.97158 1.59167 37 132 142 255 
