ply
format ascii 1.0
comment VTK generated PLY File
obj_info vtkPolyData points and polygons: vtk4.0
element vertex 1235
property float x
property float y
property float z
property uchar red
property uchar green
property uchar blue
property uchar alpha
element face 0
property list uchar int vertex_indices
end_header
5.62188 27.4209 2.50308 69 5 89 255 
0 0 0 68 2 86 255 
0 0 0 68 2 86 255 
0 0 0 68 2 86 255 
0 0 0 68 1 84 255 
0 0 0 69 4 87 255 
7.02167 34.4326 1.26401 70 10 93 255 
3.84511 18.7705 0.508422 72 28 110 255 
3.63422 17.6634 0.308477 72 33 115 255 
2.85246 13.7896 0.110599 67 62 133 255 
2.78537 13.6466 -0.00243089 65 68 135 255 
2.7354 13.3296 -0.130625 62 76 138 255 
2.52615 12.2561 -0.235907 59 81 139 255 
2.40005 11.5822 -0.334526 65 66 135 255 
2.32221 11.3472 -0.420658 63 72 137 255 
2.15559 10.4856 -0.487978 58 84 140 255 
2.17047 10.5212 -0.591209 56 89 140 255 
2.08576 10.0566 -0.662374 61 78 138 255 
2.04323 9.97512 -0.738803 56 89 140 255 
2.03407 9.87699 -0.825534 53 95 141 255 
2.03932 9.85937 -0.91981 51 98 141 255 
1.94881 9.39634 -0.967989 65 68 135 255 
1.79495 8.73975 -0.972409 64 70 136 255 
1.69381 8.21751 -0.994538 63 71 136 255 
1.5996 7.72668 -1.0108 63 72 137 255 
1.51905 7.31141 -1.02824 64 69 136 255 
1.41876 6.8898 -1.02746 54 92 141 255 
1.35097 6.54267 -1.039 53 95 141 255 
1.28721 6.21225 -1.04686 55 91 141 255 
1.23433 5.94103 -1.0612 59 81 139 255 
1.16583 5.64158 -1.0573 57 86 140 255 
1.11594 5.39018 -1.06199 50 100 142 255 
1.06699 5.14945 -1.06705 57 85 140 255 
1.02673 4.94613 -1.07651 63 71 136 255 
0.990936 4.78264 -1.0837 58 84 140 255 
0.948236 4.57211 -1.08145 58 84 140 255 
0.91543 4.41025 -1.08886 61 78 138 255 
0.877868 4.23643 -1.09154 61 78 138 255 
0.859419 4.12978 -1.1027 56 89 140 255 
0.831625 3.99582 -1.10737 57 86 140 255 
0.799175 3.8468 -1.10733 58 84 140 255 
0.76961 3.72052 -1.11315 61 78 138 255 
2.01495 9.58023 2.94082 72 35 116 255 
2.00023 9.55091 2.82207 65 66 135 255 
2.00374 9.58477 2.72844 55 90 140 255 
2.01503 9.63784 2.64382 48 105 142 255 
2.02381 9.6474 2.55847 52 96 141 255 
2.03495 9.70825 2.46946 62 74 137 255 
2.83414 13.5098 3.29619 62 74 137 255 
2.9144 13.8791 3.24807 71 45 123 255 
2.86561 13.6721 3.08154 64 69 136 255 
2.83596 13.5179 2.90313 60 79 138 255 
2.94671 14.0099 2.86851 72 31 112 255 
2.93936 13.9496 2.71947 72 41 121 255 
5.23569 24.9799 4.65666 72 22 104 255 
5.03276 23.9684 4.22594 71 19 101 255 
5.22651 24.8061 4.12409 72 28 110 255 
5.3842 25.4424 3.98875 72 23 105 255 
4.92629 23.4833 3.48331 72 20 103 255 
4.8632 23.1408 3.20131 72 23 105 255 
5.1469 24.365 3.1327 71 17 100 255 
4.81074 22.6936 2.7046 72 28 110 255 
5.66616 27.0102 2.99325 72 26 108 255 
5.71043 27.1017 2.7401 71 17 100 255 
5.7787 27.3323 2.49818 72 23 105 255 
0 0 0 68 1 84 255 
0 0 0 68 2 86 255 
0 0 0 68 2 86 255 
0 0 0 68 1 84 255 
0 0 0 69 4 87 255 
8.45007 40.1764 1.47674 70 7 90 255 
3.96104 18.7504 0.508528 72 32 113 255 
3.74585 17.6564 0.30875 72 33 115 255 
2.93055 13.7416 0.110355 69 56 130 255 
3.28165 15.5893 -0.00278048 72 23 105 255 
2.86869 13.5562 -0.133016 69 56 130 255 
2.60629 12.2639 -0.236359 59 82 139 255 
2.48319 11.624 -0.336165 66 64 134 255 
2.40913 11.4149 -0.423706 66 65 134 255 
2.23936 10.564 -0.492259 60 80 139 255 
2.20673 10.3749 -0.583736 56 88 140 255 
2.14408 10.028 -0.661344 58 84 140 255 
2.08853 9.88726 -0.733231 53 95 141 255 
2.09526 9.86725 -0.825779 51 99 141 255 
2.10331 9.86323 -0.921356 52 96 141 255 
2.00705 9.38712 -0.96829 66 64 134 255 
1.85039 8.73732 -0.973384 63 72 137 255 
1.74399 8.20599 -0.99442 64 69 136 255 
1.64015 7.68471 -1.00661 63 71 136 255 
1.55704 7.26998 -1.02374 64 69 136 255 
1.46389 6.89451 -1.02948 57 86 140 255 
1.38656 6.51299 -1.03562 55 91 141 255 
1.32015 6.18011 -1.04279 55 90 140 255 
1.26478 5.90541 -1.05621 59 81 139 255 
1.20227 5.64298 -1.05893 57 85 140 255 
1.14899 5.38324 -1.06199 47 108 142 255 
1.09754 5.13802 -1.06606 58 84 140 255 
1.05747 4.94165 -1.07693 63 72 137 255 
1.01394 4.74687 -1.07699 61 78 138 255 
0.972402 4.5481 -1.07716 61 78 138 255 
0.939626 4.39125 -1.08557 62 74 137 255 
0.907289 4.24708 -1.0957 56 89 140 255 
0.887989 4.13956 -1.10675 58 83 139 255 
0.851269 3.96799 -1.10109 58 83 139 255 
0.822562 3.84088 -1.10706 59 82 139 255 
0.792024 3.71385 -1.11259 61 78 138 255 
2.44981 11.303 3.4742 70 50 126 255 
5.09044 23.5842 6.97767 71 17 100 255 
2.06779 9.59678 2.73542 60 79 138 255 
2.08451 9.67344 2.65704 55 91 141 255 
2.07868 9.61493 2.5532 62 76 138 255 
2.08895 9.66997 2.46294 63 71 136 255 
2.91719 13.4931 3.29643 61 78 138 255 
3.02219 13.9658 3.27262 64 70 136 255 
2.91461 13.4929 3.04514 67 61 132 255 
2.9902 13.8303 2.9741 66 63 133 255 
3.07 14.1641 2.90387 61 78 138 255 
2.99009 13.771 2.68817 63 71 136 255 
2.91585 13.4987 2.51967 69 56 130 255 
5.16848 23.8851 4.21676 72 22 104 255 
5.26051 24.2296 4.03353 72 24 106 255 
5.70214 26.1516 4.10534 71 19 101 255 
4.88773 22.6082 3.35789 72 23 105 255 
5.03698 23.2577 3.2217 72 29 111 255 
4.94834 22.7343 2.92688 72 37 118 255 
4.98932 22.8441 2.72614 72 36 117 255 
5.86771 27.1411 3.01168 72 23 105 255 
5.86331 27.0049 2.7339 71 14 97 255 
0 0 0 68 2 86 255 
5.98594 27.3387 2.2419 71 16 99 255 
0 0 0 69 4 87 255 
0 0 0 68 2 86 255 
0 0 0 68 2 86 255 
0 0 0 69 4 87 255 
8.79804 40.5926 1.49399 70 8 92 255 
4.07155 18.7053 0.507971 72 32 113 255 
3.84344 17.5842 0.307895 72 33 115 255 
3.63018 16.5244 0.13288 72 35 116 255 
3.38106 15.5865 -0.00278363 72 32 113 255 
3.20616 14.7048 -0.144477 72 28 110 255 
2.67807 12.232 -0.236058 61 78 138 255 
2.5637 11.6505 -0.337381 60 79 138 255 
2.501 11.5004 -0.427445 63 71 136 255 
2.30926 10.5735 -0.493352 53 94 141 255 
2.26479 10.3358 -0.582307 55 91 141 255 
2.24979 10.2155 -0.674602 60 80 139 255 
2.1464 9.86159 -0.73229 56 89 140 255 
2.15725 9.86102 -0.82635 49 104 142 255 
2.16913 9.87446 -0.923631 56 89 140 255 
2.05819 9.34548 -0.965279 65 68 135 255 
1.89846 8.70055 -0.970567 64 70 136 255 
1.79346 8.19126 -0.993949 65 68 135 255 
1.68535 7.66578 -1.00546 63 72 137 255 
1.59863 7.24675 -1.02183 66 65 134 255 
1.50151 6.86414 -1.0263 58 84 140 255 
1.42671 6.50533 -1.03577 56 89 140 255 
1.35698 6.16708 -1.04198 57 86 140 255 
1.30121 5.8985 -1.05638 59 82 139 255 
1.23877 5.64414 -1.06055 56 89 140 255 
1.18179 5.37513 -1.0618 47 107 142 255 
1.12147 5.09673 -1.0589 59 81 139 255 
1.0903 4.94653 -1.07943 63 71 136 255 
1.04053 4.72912 -1.07439 58 83 139 255 
1.00322 4.55537 -1.08032 59 81 139 255 
0.970318 4.40248 -1.0898 62 76 138 255 
0.932707 4.23859 -1.09497 61 78 138 255 
0.909615 4.11703 -1.1022 57 85 140 255 
0.87435 3.95704 -1.09952 60 80 139 255 
0.848187 3.84516 -1.10978 60 80 139 255 
0.813149 3.70142 -1.11034 61 77 138 255 
3.30494 14.8089 4.55795 71 44 122 255 
3.33038 14.9833 4.43897 71 45 123 255 
5.36741 24.1888 6.90391 71 14 97 255 
2.14885 9.6831 2.66327 61 77 138 255 
2.13995 9.61239 2.55596 70 48 126 255 
2.99679 13.4714 3.4358 72 37 118 255 
2.97287 13.3535 3.2667 67 62 133 255 
3.02047 13.555 3.18064 69 53 129 255 
3.02003 13.5768 3.06819 71 42 122 255 
3.08691 13.8651 2.98562 68 58 131 255 
3.16069 14.1622 2.90741 59 81 139 255 
3.05503 13.6652 2.67112 63 72 137 255 
2.9841 13.4152 2.50746 70 52 128 255 
3.06457 13.7535 2.43137 66 64 134 255 
3.05036 13.6454 2.27464 72 26 108 255 
5.78455 25.7689 4.05076 70 11 94 255 
5.09797 22.8995 3.40573 72 28 110 255 
5.05643 22.6741 3.14509 72 37 118 255 
5.08167 22.6764 2.92339 70 48 126 255 
5.04855 22.4535 2.68318 72 36 117 255 
6.13977 27.5791 3.06441 72 23 105 255 
0 0 0 69 4 87 255 
0 0 0 69 4 87 255 
0 0 0 68 2 86 255 
0 0 0 68 2 86 255 
0 0 0 68 2 86 255 
0 0 0 68 2 86 255 
0 0 0 68 2 86 255 
9.27681 41.5679 1.53195 70 10 93 255 
4.18384 18.6692 0.507679 72 32 113 255 
3.95083 17.5584 0.307861 72 35 116 255 
3.73062 16.4979 0.132849 72 37 118 255 
3.47685 15.5664 -0.0027838 72 36 117 255 
3.2972 14.6888 -0.144515 72 28 110 255 
2.74143 12.1637 -0.235059 62 74 137 255 
2.68615 11.8597 -0.343911 66 65 134 255 
2.613 11.6702 -0.434341 62 73 137 255 
2.39995 10.6742 -0.498725 58 83 139 255 
2.3497 10.4171 -0.587692 57 86 140 255 
2.31618 10.218 -0.675696 57 86 140 255 
2.22148 9.91344 -0.737139 56 89 140 255 
2.21553 9.83788 -0.825534 50 102 142 255 
2.23034 9.86388 -0.923904 59 81 139 255 
2.11263 9.32006 -0.963974 66 65 134 255 
1.95312 8.69456 -0.971217 68 58 131 255 
1.84369 8.1801 -0.993949 62 76 138 255 
1.73564 7.66981 -1.00737 65 66 135 255 
1.63999 7.22328 -1.01992 68 59 132 255 
1.53686 6.82487 -1.02182 60 80 139 255 
1.46834 6.50416 -1.037 54 93 141 255 
1.39502 6.1596 -1.04214 58 83 139 255 
1.33868 5.89617 -1.05741 56 88 140 255 
1.26947 5.61916 -1.0573 57 86 140 255 
1.21258 5.3582 -1.05991 51 99 141 255 
1.1564 5.106 -1.06228 61 78 138 255 
1.11803 4.9283 -1.07693 63 72 137 255 
1.06608 4.70741 -1.07092 57 86 140 255 
1.03417 4.56243 -1.08348 60 80 139 255 
0.997098 4.3955 -1.08957 60 79 138 255 
0.963623 4.25454 -1.10059 61 77 138 255 
0.933573 4.10571 -1.10068 58 83 139 255 
0.898186 3.94972 -1.09899 58 84 140 255 
0.869846 3.83144 -1.10733 60 80 139 255 
0.835422 3.69449 -1.10977 62 73 137 255 
3.40046 14.8089 4.56428 72 33 115 255 
3.42889 14.9917 4.44758 69 53 129 255 
5.73703 25.1246 7.18092 71 14 97 255 
3.11344 13.6337 3.75502 71 47 125 255 
3.09603 13.5155 3.59879 72 35 116 255 
3.07571 13.4367 3.43169 72 24 106 255 
3.0365 13.2553 3.24719 72 40 120 255 
3.09139 13.483 3.16814 63 71 136 255 
3.15775 13.796 3.12204 67 61 132 255 
3.10222 13.5416 2.92 69 53 129 255 
3.17578 13.83 2.84316 72 23 105 255 
3.12561 13.5887 2.65988 64 70 136 255 
5.79601 25.3223 4.73959 71 19 101 255 
3.15309 13.7527 2.4346 70 48 126 255 
3.14067 13.6553 2.27946 68 59 132 255 
5.28712 22.8947 3.60397 72 20 103 255 
5.22048 22.7896 3.39409 72 40 120 255 
5.20987 22.7054 3.15381 72 31 112 255 
5.1953 22.5346 2.90916 72 40 120 255 
5.19518 22.4609 2.68781 72 32 113 255 
6.21764 27.1427 3.02009 72 22 104 255 
11.0921 48.2252 4.89559 69 4 87 255 
11.025 47.7829 4.38518 69 5 89 255 
0 0 0 68 2 86 255 
0 0 0 68 2 86 255 
0 0 0 68 2 86 255 
0 0 0 68 2 86 255 
0 0 0 68 2 86 255 
9.70883 42.2816 1.56042 71 14 97 255 
4.29989 18.65 0.507865 72 26 108 255 
4.05939 17.5377 0.307929 72 29 111 255 
3.83223 16.4767 0.132864 72 32 113 255 
3.5714 15.5409 -0.0027831 72 38 119 255 
3.38052 14.6391 -0.144227 72 35 116 255 
3.23149 13.9388 -0.26974 72 36 117 255 
3.08022 13.2225 -0.383971 72 35 116 255 
2.52686 10.9693 -0.408825 67 61 132 255 
2.44852 10.5862 -0.49531 55 90 140 255 
2.40545 10.3675 -0.585714 57 86 140 255 
2.35096 10.0841 -0.66778 60 80 139 255 
2.28876 9.92781 -0.739238 57 86 140 255 
2.27765 9.83187 -0.826187 54 93 141 255 
2.28901 9.84224 -0.923176 53 94 141 255 
2.17543 9.33115 -0.966483 64 70 136 255 
2.00441 8.67369 -0.970242 67 62 133 255 
1.89385 8.16863 -0.993949 61 78 138 255 
1.78132 7.65322 -1.00661 61 77 138 255 
1.69059 7.24009 -1.02374 64 70 136 255 
1.57648 6.80567 -1.02037 61 78 138 255 
1.50889 6.49792 -1.03746 57 86 140 255 
1.4301 6.13939 -1.04019 58 84 140 255 
1.37304 5.88017 -1.05603 59 81 139 255 
1.30905 5.6333 -1.06145 53 95 141 255 
1.253 5.38317 -1.06635 52 96 141 255 
1.19015 5.10931 -1.06447 59 82 139 255 
1.14625 4.91277 -1.07505 62 74 137 255 
1.09561 4.70364 -1.07157 62 74 137 255 
1.05816 4.53892 -1.07942 58 84 140 255 
1.02493 4.39308 -1.09051 57 86 140 255 
0.985971 4.2325 -1.09643 62 76 138 255 
0.958747 4.0999 -1.10068 54 93 141 255 
0.922184 3.94319 -1.09873 58 83 139 255 
0.894871 3.83259 -1.10923 58 83 139 255 
0.858293 3.69023 -1.11006 63 72 137 255 
3.54121 14.9993 4.62959 70 50 126 255 
5.51665 23.4566 6.96878 72 24 106 255 
5.55704 23.6663 6.77373 71 13 96 255 
6.47753 27.584 7.60807 70 7 90 255 
3.2568 13.8269 3.68697 62 73 137 255 
3.183 13.5234 3.45875 71 14 97 255 
3.19895 13.5811 3.33173 72 22 104 255 
3.26398 13.8452 3.25789 71 45 123 255 
3.26203 13.86 3.141 65 66 135 255 
3.27433 13.9005 3.00166 72 23 105 255 
3.27207 13.8589 2.85318 67 61 132 255 
3.3041 13.9717 2.73877 70 51 127 255 
5.96615 25.3495 4.75143 71 13 96 255 
3.22814 13.6937 2.42763 63 71 136 255 
5.53389 23.4025 3.91213 72 29 111 255 
5.43001 22.8724 3.60564 72 35 116 255 
5.36226 22.7658 3.39539 72 35 116 255 
5.36228 22.729 3.16159 71 45 123 255 
5.33233 22.4975 2.90853 72 26 108 255 
5.28075 22.2092 2.66152 71 17 100 255 
0 0 0 69 4 87 255 
11.4137 48.2657 4.90672 70 7 90 255 
11.3693 47.9305 4.40504 69 5 89 255 
10.6954 44.8773 3.69566 69 5 89 255 
0 0 0 68 2 86 255 
0 0 0 68 2 86 255 
0 0 0 68 2 86 255 
0 0 0 69 4 87 255 
10.1196 42.8631 1.58414 71 17 100 255 
4.41793 18.6388 0.508289 72 28 110 255 
4.1653 17.5056 0.30781 72 29 111 255 
3.93326 16.4529 0.132864 72 31 112 255 
3.65842 15.4837 -0.00277682 72 31 112 255 
3.47189 14.6248 -0.144295 72 37 118 255 
3.31441 13.908 -0.269533 72 36 117 255 
3.16409 13.2151 -0.38431 72 37 118 255 
2.98194 12.5912 -0.469946 71 46 124 255 
2.59985 10.9345 -0.512341 64 70 136 255 
2.46601 10.3399 -0.585 57 85 140 255 
2.47697 10.3373 -0.685543 57 85 140 255 
2.39288 10.096 -0.752843 59 82 139 255 
2.34625 9.85261 -0.829124 51 98 141 255 
2.34774 9.82123 -0.922539 57 85 140 255 
2.22847 9.30021 -0.964677 68 59 132 255 
2.05921 8.668 -0.971 65 66 135 255 
1.93818 8.13271 -0.991007 64 70 136 255 
1.82778 7.64021 -1.00635 62 76 138 255 
1.73198 7.21706 -1.02196 62 73 137 255 
1.61958 6.80164 -1.02124 61 78 138 255 
1.54873 6.48854 -1.03746 59 81 139 255 
1.47165 6.14681 -1.04296 55 90 140 255 
1.40588 5.85823 -1.05362 59 81 139 255 
1.33536 5.59073 -1.05495 57 86 140 255 
1.27916 5.34673 -1.06066 57 85 140 255 
1.22011 5.09619 -1.06328 59 81 139 255 
1.17158 4.88568 -1.07067 61 78 138 255 
1.13104 4.72436 -1.07785 59 81 139 255 
1.0869 4.53613 -1.08032 58 83 139 255 
1.0496 4.37726 -1.08816 55 90 140 255 
1.00989 4.21788 -1.09423 58 83 139 255 
0.982529 4.0883 -1.09916 56 88 140 255 
0.951549 3.95904 -1.10475 58 84 140 255 
0.920617 3.83638 -1.11195 57 85 140 255 
0.880697 3.68396 -1.10977 61 77 138 255 
3.63408 14.981 4.63074 72 24 106 255 
5.64761 23.369 6.95294 72 24 106 255 
5.70418 23.6401 6.77615 71 17 100 255 
3.19148 13.2255 3.65311 72 29 111 255 
3.35751 13.8726 3.70456 65 68 135 255 
3.2666 13.5064 3.45947 71 44 122 255 
3.3456 13.823 3.39606 71 47 125 255 
3.30802 13.6562 3.21815 68 58 131 255 
3.40003 14.059 3.19076 62 76 138 255 
5.81758 24.0356 5.19783 72 22 104 255 
3.28954 13.5604 2.79582 66 64 134 255 
3.3399 13.746 2.69848 63 71 136 255 
3.28279 13.5741 2.54803 72 35 116 255 
3.30932 13.6622 2.42559 61 77 138 255 
2.22724 9.1673 1.53473 50 100 142 255 
5.49062 22.5121 3.5541 72 36 117 255 
5.46251 22.57 3.37111 72 32 113 255 
5.50911 22.7265 3.16589 72 36 117 255 
5.52403 22.6851 2.93712 72 24 106 255 
5.19561 21.2703 2.55278 72 35 116 255 
5.06921 20.9449 2.33723 72 26 108 255 
11.5111 47.3776 4.82353 70 7 90 255 
11.5898 47.5589 4.37734 70 10 93 255 
11.0557 45.1584 3.72433 70 10 93 255 
4.95529 20.4586 1.51998 63 71 136 255 
4.97234 20.4498 1.32039 58 84 140 255 
4.9745 20.3666 1.11709 67 61 132 255 
4.9901 20.352 0.918574 71 42 122 255 
4.95375 20.4212 0.755837 68 59 132 255 
4.53765 18.6337 0.508899 72 31 112 255 
4.27264 17.4798 0.30781 72 31 112 255 
4.03438 16.4294 0.132872 72 32 113 255 
3.76751 15.5192 -0.00278729 72 37 118 255 
3.56512 14.6178 -0.144439 72 36 117 255 
3.39873 13.8835 -0.269457 72 36 117 255 
3.24464 13.1934 -0.384254 72 36 117 255 
3.06198 12.5843 -0.470382 71 44 122 255 
2.91768 11.9451 -0.560519 70 48 126 255 
2.5534 10.4225 -0.59055 72 41 121 255 
2.52438 10.257 -0.681231 55 90 140 255 
2.45478 10.0812 -0.752843 51 98 141 255 
2.4256 9.91548 -0.835651 54 93 141 255 
2.40653 9.80084 -0.921993 61 78 138 255 
2.28549 9.28636 -0.964677 69 55 129 255 
2.10788 8.63686 -0.968942 66 64 134 255 
1.9819 8.09558 -0.987946 63 72 137 255 
1.8725 7.62019 -1.00521 61 78 138 255 
1.77006 7.18129 -1.01842 63 72 137 255 
1.66364 6.80119 -1.02269 62 74 137 255 
1.58758 6.47507 -1.03685 58 83 139 255 
1.50557 6.12234 -1.04035 60 80 139 255 
1.44274 5.85332 -1.05431 57 85 140 255 
1.37292 5.5958 -1.05748 58 84 140 255 
1.31053 5.33306 -1.05953 58 84 140 255 
1.25042 5.0848 -1.06248 59 81 139 255 
1.19803 4.86415 -1.06755 63 72 137 255 
1.15604 4.70121 -1.07417 60 79 138 255 
1.11635 4.536 -1.0819 57 85 140 255 
1.07226 4.35375 -1.08393 56 89 140 255 
1.03274 4.19936 -1.09105 60 80 139 255 
1.00319 4.06435 -1.09436 55 90 140 255 
0.977443 3.95969 -1.10659 60 80 139 255 
0.936999 3.80169 -1.10354 62 74 137 255 
0.896419 3.65053 -1.10134 63 71 136 255 
3.12617 12.5506 3.88532 72 33 115 255 
5.83393 23.5074 7.00462 71 19 101 255 
5.84982 23.6075 6.77695 71 19 101 255 
3.24097 13.0781 3.61784 71 17 100 255 
3.35969 13.5182 3.61538 71 45 123 255 
3.38029 13.6104 3.49136 64 70 136 255 
3.42074 13.7636 3.38654 72 37 118 255 
3.48516 14.0112 3.30678 71 46 124 255 
3.64016 14.6576 3.33164 70 50 126 255 
5.80019 23.3366 5.05426 72 20 103 255 
3.3971 13.6379 2.81605 68 58 131 255 
3.38947 13.5861 2.67112 64 70 136 255 
3.36886 13.5652 2.55018 68 59 132 255 
2.31344 9.30097 1.65378 69 56 130 255 
2.30949 9.25785 1.55223 54 93 141 255 
5.61064 22.4061 3.54273 72 27 109 255 
5.56986 22.4112 3.35243 72 36 117 255 
5.53548 22.2384 3.10256 71 14 97 255 
5.32933 21.3157 2.764 72 28 110 255 
5.34607 21.318 2.56239 72 33 115 255 
6.55146 26.3608 2.94602 70 7 90 255 
11.8003 47.3013 4.82303 70 10 93 255 
11.6919 46.7293 4.30751 70 8 92 255 
11.3304 45.0811 3.72361 70 8 92 255 
0 0 0 68 2 86 255 
0 0 0 68 2 86 255 
4.82564 19.244 1.05712 71 17 100 255 
4.78665 19.017 0.859628 72 29 111 255 
10.7376 43.1081 1.59795 70 7 90 255 
4.64269 18.5687 0.507891 72 32 113 255 
4.37251 17.4241 0.307297 72 32 113 255 
4.1246 16.3626 0.132535 72 31 112 255 
3.85395 15.4609 -0.00278101 72 36 117 255 
3.65742 14.6064 -0.144544 72 33 115 255 
3.47947 13.8449 -0.269118 72 29 111 255 
3.32137 13.1568 -0.383773 72 35 116 255 
3.14253 12.5788 -0.47089 71 42 122 255 
3.0106 12.0054 -0.564208 70 48 126 255 
2.8852 11.4718 -0.650995 71 46 124 255 
2.588 10.2442 -0.681424 69 53 129 255 
2.51756 10.0698 -0.753132 55 90 140 255 
2.49951 9.95261 -0.840057 52 97 141 255 
2.46589 9.78299 -0.92172 64 70 136 255 
2.3434 9.27602 -0.965078 69 56 130 255 
2.16107 8.62472 -0.96905 67 62 133 255 
2.02718 8.06594 -0.985827 62 73 137 255 
1.9197 7.61048 -1.00546 62 76 138 255 
1.81774 7.1847 -1.02046 63 71 136 255 
1.70751 6.79949 -1.02399 62 74 137 255 
1.62462 6.45467 -1.03516 58 84 140 255 
1.53924 6.09768 -1.03775 57 86 140 255 
1.48032 5.85104 -1.05552 58 84 140 255 
1.40915 5.5949 -1.05893 55 90 140 255 
1.34395 5.32778 -1.0601 61 77 138 255 
1.28376 5.08559 -1.06427 61 78 138 255 
1.23097 4.86903 -1.07026 60 80 139 255 
1.18463 4.69309 -1.07395 61 78 138 255 
1.14272 4.5234 -1.08055 57 86 140 255 
1.098 4.34332 -1.08299 54 93 141 255 
1.05944 4.19671 -1.09203 56 88 140 255 
1.02478 4.04499 -1.09082 57 85 140 255 
1.00125 3.95175 -1.10606 61 78 138 255 
0.956767 3.78187 -1.09947 61 78 138 255 
0.916925 3.63752 -1.09909 62 73 137 255 
3.22114 12.6017 3.90718 71 17 100 255 
3.35808 13.1845 3.93473 66 63 133 255 
3.31994 13.0543 3.75325 71 16 99 255 
3.29973 12.9738 3.5945 71 16 99 255 
3.46339 13.579 3.63723 69 55 129 255 
3.48483 13.6722 3.51262 65 68 135 255 
3.50176 13.7291 3.38329 69 56 130 255 
3.5132 13.7629 3.2532 71 47 125 255 
3.59545 14.107 3.21144 71 44 122 255 
3.75458 14.7198 3.19295 72 40 120 255 
3.58926 14.0415 2.90387 72 41 121 255 
3.46838 13.5479 2.66775 72 41 121 255 
6.50171 25.5099 4.80313 70 10 93 255 
2.35486 9.22549 1.6429 67 62 133 255 
2.36356 9.23298 1.55047 50 100 142 255 
5.7458 22.3626 3.54136 71 19 101 255 
5.43554 21.3112 3.19282 72 31 112 255 
5.95633 23.3177 3.25819 72 22 104 255 
5.36263 20.903 2.7147 72 29 111 255 
6.02874 23.4299 2.82064 72 26 108 255 
5.90718 23.1604 2.59235 71 14 97 255 
12.0366 47.0178 4.80157 70 7 90 255 
11.9856 46.6847 4.3101 70 11 94 255 
11.6929 45.3447 3.75124 70 8 92 255 
4.87075 19.0829 1.4221 66 65 134 255 
4.87963 19.0472 1.2336 70 48 126 255 
4.89661 19.0313 1.04707 72 29 111 255 
12.525 48.5018 2.19586 69 5 89 255 
4.87011 19.0527 0.707346 71 42 122 255 
4.75802 18.5456 0.50805 72 32 113 255 
4.48059 17.4018 0.307382 72 31 112 255 
4.22267 16.3283 0.132464 72 29 111 255 
3.94701 15.4302 -0.00277979 72 29 111 255 
3.74324 14.5691 -0.1444 72 32 113 255 
3.56335 13.8195 -0.269043 72 38 119 255 
3.40379 13.143 -0.383971 72 31 112 255 
3.21246 12.5313 -0.469837 72 40 120 255 
3.08371 11.9848 -0.564117 71 44 122 255 
2.95329 11.4452 -0.6505 71 45 123 255 
2.84483 10.9768 -0.731302 70 51 127 255 
2.70471 10.543 -0.78975 70 50 126 255 
2.58067 10.0153 -0.846666 70 50 126 255 
2.51914 9.74165 -0.919264 66 64 134 255 
2.40078 9.26339 -0.965279 69 55 129 255 
2.20974 8.59493 -0.967208 64 69 136 255 
2.08556 8.08796 -0.990065 62 73 137 255 
1.96636 7.59855 -1.00546 62 76 138 255 
1.8593 7.16382 -1.0191 62 73 137 255 
1.75315 6.80422 -1.0263 60 80 139 255 
1.66494 6.44745 -1.03562 57 86 140 255 
1.57564 6.0843 -1.0371 58 84 140 255 
1.5152 5.83803 -1.05483 60 80 139 255 
1.4442 5.58901 -1.05947 50 100 142 255 
1.37564 5.31563 -1.05934 61 77 138 255 
1.31248 5.06813 -1.06228 59 81 139 255 
1.26475 4.87654 -1.07359 61 78 138 255 
1.21585 4.69518 -1.07612 61 78 138 255 
1.16899 4.51064 -1.07919 58 83 139 255 
1.12512 4.33838 -1.08346 60 79 138 255 
1.0859 4.19294 -1.09276 57 85 140 255 
1.05445 4.05735 -1.09588 60 80 139 255 
1.02353 3.93806 -1.10397 62 76 138 255 
0.979712 3.775 -1.0992 59 81 139 255 
0.942831 3.64576 -1.10331 63 72 137 255 
3.28917 12.5464 3.89625 72 32 113 255 
3.436 13.1525 3.9314 70 50 126 255 
3.41603 13.0952 3.77097 67 61 132 255 
3.37562 12.9393 3.59061 72 22 104 255 
3.53831 13.5256 3.62869 62 76 138 255 
3.5181 13.4572 3.46285 67 62 133 255 
3.58003 13.6848 3.37772 69 56 130 255 
3.64499 13.9221 3.29606 69 56 130 255 
3.83087 14.6544 3.34134 70 48 126 255 
6.05121 23.1301 5.02526 72 28 110 255 
3.76163 14.3483 2.97204 69 56 130 255 
6.04048 23.0063 4.53744 72 35 116 255 
2.41344 9.23223 1.74104 72 29 111 255 
2.39945 9.16511 1.63474 65 66 135 255 
2.40162 9.14766 1.53858 47 107 142 255 
2.40288 9.11946 1.44647 58 83 139 255 
5.56294 21.265 3.19095 72 27 109 255 
5.56963 21.259 2.97525 72 38 119 255 
5.49432 20.8831 2.71645 72 28 110 255 
5.52998 20.9579 2.52707 71 19 101 255 
5.40255 20.6519 2.31524 71 42 122 255 
6.95604 26.4943 2.70997 72 22 104 255 
0 0 0 68 2 86 255 
12.4897 47.2341 3.91382 70 7 90 255 
0 0 0 68 2 86 255 
0 0 0 68 2 86 255 
5.09557 19.3128 1.06425 70 8 92 255 
5.10942 19.2958 0.874999 71 14 97 255 
4.94283 18.8543 0.701092 71 19 101 255 
4.89538 18.606 0.510517 72 32 113 255 
4.58932 17.3817 0.307519 72 31 112 255 
4.31996 16.2915 0.132378 72 29 111 255 
4.0406 15.4018 -0.00277909 72 32 113 255 
3.83256 14.5459 -0.1444 72 31 112 255 
3.64629 13.7906 -0.268911 72 35 116 255 
3.4836 13.1189 -0.383886 72 36 117 255 
3.28979 12.5132 -0.46991 71 42 122 255 
3.15209 11.9463 -0.563206 71 42 122 255 
3.03189 11.4587 -0.652314 69 56 130 255 
2.91213 10.9591 -0.731302 70 50 126 255 
2.77518 10.5484 -0.791415 69 53 129 255 
2.66728 10.0946 -0.854743 69 55 129 255 
2.57632 9.71638 -0.918354 72 33 115 255 
2.45527 9.23983 -0.964376 69 53 129 255 
2.25585 8.55622 -0.964391 65 66 135 255 
2.13769 8.08461 -0.991242 60 79 138 255 
2.01244 7.58443 -1.00521 64 70 136 255 
1.90297 7.15132 -1.01896 62 76 138 255 
1.79208 6.78281 -1.02471 63 72 137 255 
1.70472 6.43807 -1.03577 59 82 139 255 
1.61648 6.08787 -1.03938 55 91 141 255 
1.54897 5.82101 -1.05345 59 81 139 255 
1.47544 5.56863 -1.0573 54 92 141 255 
1.40923 5.31088 -1.0601 59 82 139 255 
1.33777 5.03819 -1.05771 58 83 139 255 
1.29716 4.87814 -1.07568 61 78 138 255 
1.24288 4.68103 -1.0746 62 76 138 255 
1.2004 4.51751 -1.08258 57 86 140 255 
1.15196 4.33234 -1.08369 55 91 141 255 
1.11185 4.18714 -1.09301 61 78 138 255 
1.08107 4.05735 -1.09765 56 88 140 255 
1.04544 3.92331 -1.10161 57 85 140 255 
1.00484 3.77636 -1.10137 60 80 139 255 
0.963461 3.63341 -1.10134 62 73 137 255 
3.36684 12.5288 3.89711 72 31 112 255 
3.51888 13.1395 3.9339 72 33 115 255 
3.49482 13.0684 3.76936 72 38 119 255 
7.23977 27.07 7.52405 71 13 96 255 
3.59241 13.3961 3.5998 60 80 139 255 
3.60563 13.4541 3.46768 71 46 124 255 
3.71129 13.8392 3.42138 72 38 119 255 
3.73262 13.908 3.29807 67 62 133 255 
3.79282 14.1533 3.23233 71 46 124 255 
3.87713 14.4571 3.14606 65 66 135 255 
3.83204 14.2596 2.95848 69 56 130 255 
6.20552 23.058 4.55505 72 29 111 255 
6.12698 22.8635 4.31869 72 23 105 255 
2.44593 9.11405 1.62828 71 42 122 255 
2.45667 9.12894 1.53794 62 73 137 255 
2.45106 9.07592 1.44192 65 68 135 255 
5.98143 22.3048 3.35243 72 37 118 255 
5.67092 21.1163 2.96009 72 37 118 255 
5.60892 20.7992 2.70996 72 38 119 255 
5.65692 20.9178 2.52638 72 24 106 255 
5.39011 20.0998 2.25701 72 29 111 255 
7.11382 26.4339 2.7082 72 31 112 255 
12.8401 47.5813 4.40709 70 8 92 255 
12.7785 47.1537 3.91358 70 7 90 255 
0 0 0 68 2 86 255 
0 0 0 68 2 86 255 
5.54946 20.5217 1.13273 70 11 94 255 
5.35462 19.7317 0.896239 72 22 104 255 
5.11729 19.0427 0.709251 72 24 106 255 
5.01336 18.5901 0.510915 72 33 115 255 
4.69928 17.3658 0.307741 72 33 115 255 
4.42875 16.2974 0.132645 72 33 115 255 
4.13996 15.3951 -0.0027824 72 33 115 255 
3.92174 14.5221 -0.1444 72 36 117 255 
3.73398 13.7795 -0.269137 72 36 117 255 
3.55905 13.079 -0.383349 72 33 115 255 
3.37067 12.5083 -0.47049 71 42 122 255 
3.22194 11.9142 -0.562614 71 45 123 255 
3.0977 11.4235 -0.651379 71 46 124 255 
2.97985 10.943 -0.73143 69 53 129 255 
2.84245 10.5408 -0.792138 70 51 127 255 
2.73282 10.0915 -0.855886 67 61 132 255 
2.64947 9.75036 -0.923085 69 55 129 255 
2.50957 9.21595 -0.963472 68 57 131 255 
2.30753 8.53934 -0.964066 64 69 136 255 
2.1844 8.0608 -0.989947 59 82 139 255 
2.06102 7.57959 -1.00622 62 73 137 255 
1.94134 7.11944 -1.0161 62 74 137 255 
1.83056 6.76022 -1.02298 63 72 137 255 
1.73824 6.40555 -1.03224 59 82 139 255 
1.65562 6.0845 -1.04051 56 89 140 255 
1.58103 5.79809 -1.05104 57 86 140 255 
1.50881 5.55662 -1.05676 50 101 142 255 
1.4454 5.3154 -1.06275 56 89 140 255 
1.36891 5.03084 -1.05791 60 80 139 255 
1.3155 4.82762 -1.0663 62 74 137 255 
1.27312 4.67896 -1.0759 57 86 140 255 
1.22912 4.51382 -1.08348 55 91 141 255 
1.17495 4.31206 -1.0804 59 81 139 255 
1.13192 4.15966 -1.08763 58 83 139 255 
1.1062 4.05157 -1.0979 57 85 140 255 
1.06365 3.89541 -1.09559 59 82 139 255 
1.02951 3.7757 -1.10299 59 82 139 255 
0.985486 3.62651 -1.10106 63 71 136 255 
3.52475 12.8025 3.98889 72 37 118 255 
3.60325 13.1316 3.93807 71 47 125 255 
3.56349 13.0049 3.75728 72 24 106 255 
3.64135 13.2881 3.69953 71 44 122 255 
2.57697 9.37914 2.52456 71 45 123 255 
2.58327 9.40799 2.42888 71 44 122 255 
2.54811 9.27392 2.29656 62 74 137 255 
3.85665 14.0258 3.33156 71 47 125 255 
3.89743 14.1948 3.2472 64 69 136 255 
3.97277 14.4585 3.15161 66 64 134 255 
6.22627 22.6143 4.69971 72 24 106 255 
2.54121 9.21669 1.82378 72 20 103 255 
2.51848 9.17251 1.73548 72 24 106 255 
2.50207 9.09982 1.62845 72 29 111 255 
2.51054 9.10608 1.53666 69 53 129 255 
2.51355 9.08548 1.44587 69 56 130 255 
2.49184 9.06931 1.3654 72 35 116 255 
5.79775 21.0716 2.95875 72 32 113 255 
5.7005 20.6343 2.69298 72 29 111 255 
5.75785 20.7841 2.51445 72 37 118 255 
5.49358 19.9944 2.24892 72 29 111 255 
5.59207 20.2825 2.08146 72 37 118 255 
5.62987 20.3648 1.8894 70 8 92 255 
0 0 0 68 2 86 255 
12.7637 46.423 3.47646 69 5 89 255 
0 0 0 69 4 87 255 
5.70727 20.6028 1.13912 71 19 101 255 
5.04321 18.143 0.825468 72 35 116 255 
5.02607 18.2555 0.68107 72 31 112 255 
5.03549 18.2265 0.501764 70 52 128 255 
4.98042 17.9668 0.318927 72 35 116 255 
4.53082 16.2777 0.132707 72 36 117 255 
4.23063 15.3559 -0.00277996 72 33 115 255 
4.01024 14.4958 -0.144381 72 29 111 255 
3.81979 13.7612 -0.269231 72 35 116 255 
3.65507 13.1137 -0.385017 72 35 116 255 
3.44683 12.4854 -0.470418 71 44 122 255 
3.29738 11.9029 -0.563024 70 50 126 255 
3.16934 11.4101 -0.651709 72 41 121 255 
3.04747 10.9264 -0.731559 71 45 123 255 
2.90495 10.5154 -0.79156 69 53 129 255 
2.79922 10.0909 -0.857273 69 56 130 255 
2.71806 9.76558 -0.926087 68 57 131 255 
2.55243 9.1515 -0.958354 66 63 133 255 
2.36121 8.52981 -0.964608 64 69 136 255 
2.23275 8.04342 -0.989476 61 78 138 255 
2.1059 7.56107 -1.00546 63 71 136 255 
1.98498 7.10739 -1.0161 62 74 137 255 
1.87465 6.7584 -1.02442 64 69 136 255 
1.77725 6.39381 -1.03209 56 89 140 255 
1.6908 6.06662 -1.03921 54 92 141 255 
1.61631 5.78733 -1.05087 56 88 140 255 
1.54498 5.55484 -1.0582 53 95 141 255 
1.46956 5.27616 -1.05669 59 81 139 255 
1.40107 5.02706 -1.0589 61 78 138 255 
1.34772 4.82888 -1.06838 61 78 138 255 
1.29656 4.65225 -1.07157 58 84 140 255 
1.24711 4.47147 -1.07513 56 89 140 255 
1.20713 4.32536 -1.08557 57 86 140 255 
1.15534 4.14516 -1.08567 61 77 138 255 
1.12166 4.01116 -1.08879 62 74 137 255 
1.08727 3.88788 -1.09533 60 79 138 255 
1.05473 3.77672 -1.10516 61 77 138 255 
1.00643 3.61577 -1.09965 62 73 137 255 
3.61987 12.8396 4.0073 68 58 131 255 
3.66374 13.038 3.91667 58 83 139 255 
3.66846 13.0728 3.78332 68 57 131 255 
2.64767 9.43443 2.63111 63 71 136 255 
2.65125 9.42278 2.54064 68 59 132 255 
2.64357 9.4013 2.43129 55 91 141 255 
2.63737 9.37327 2.32513 68 58 131 255 
3.93603 13.9784 3.32598 72 24 106 255 
4.0204 14.2984 3.27649 65 66 135 255 
3.98957 14.1786 3.09587 62 74 137 255 
4.14909 14.7164 3.06359 72 35 116 255 
6.35937 22.5244 4.46473 71 17 100 255 
6.3541 22.5982 4.28297 72 23 105 255 
2.56587 9.11275 1.63355 66 65 134 255 
2.58246 9.1475 1.54629 71 46 124 255 
2.56844 9.06703 1.44541 72 26 108 255 
2.56862 9.12911 1.37674 59 81 139 255 
2.59314 9.20343 1.2945 49 103 142 255 
5.91532 20.9112 2.7338 72 27 109 255 
5.9075 20.8267 2.52395 70 51 127 255 
5.65709 20.1058 2.26531 72 41 121 255 
5.80186 20.5505 2.11257 71 45 123 255 
5.81223 20.5331 1.90828 72 27 109 255 
13.6374 47.9829 3.99598 69 4 87 255 
12.9312 45.9281 3.44528 70 8 92 255 
0 0 0 69 4 87 255 
6.09925 21.5041 1.19099 70 7 90 255 
5.04506 17.7274 0.807951 71 19 101 255 
4.89773 17.3721 0.649221 72 29 111 255 
5.08111 17.9616 0.495318 71 46 124 255 
5.06901 17.8599 0.317576 68 59 132 255 
4.63088 16.2505 0.132715 72 28 110 255 
4.3226 15.3219 -0.00277856 72 31 112 255 
4.10047 14.4758 -0.144429 72 37 118 255 
3.9017 13.7288 -0.269061 72 31 112 255 
3.73628 13.0939 -0.385102 72 31 112 255 
3.51929 12.4496 -0.469873 72 40 120 255 
3.36681 11.8699 -0.562432 72 41 121 255 
3.24366 11.4058 -0.652588 71 47 125 255 
3.11336 10.9037 -0.731302 71 47 125 255 
2.96562 10.484 -0.790546 69 53 129 255 
2.86353 10.0822 -0.858007 69 55 129 255 
2.78065 9.7583 -0.926997 66 63 133 255 
2.61127 9.14524 -0.959358 69 55 129 255 
2.40591 8.48838 -0.961574 65 66 135 255 
2.28261 8.03148 -0.989712 58 84 140 255 
2.1498 7.53942 -1.00432 67 61 132 255 
2.02502 7.08269 -1.01432 63 72 137 255 
1.91203 6.73249 -1.02225 62 73 137 255 
1.81212 6.36758 -1.02963 61 78 138 255 
1.72827 6.05708 -1.03938 57 85 140 255 
1.6545 5.78678 -1.05259 59 82 139 255 
1.57957 5.54715 -1.05856 50 100 142 255 
1.50029 5.26138 -1.05555 58 83 139 255 
1.43189 5.01837 -1.0589 59 82 139 255 
1.37491 4.81206 -1.0665 61 77 138 255 
1.3224 4.63482 -1.0694 63 72 137 255 
1.27639 4.47029 -1.07671 54 93 141 255 
1.22991 4.30479 -1.08228 58 84 140 255 
1.18049 4.13706 -1.08543 61 78 138 255 
1.14971 4.0163 -1.09208 61 78 138 255 
1.10818 3.87093 -1.09245 61 78 138 255 
1.07629 3.76463 -1.10354 62 73 137 255 
1.03412 3.62891 -1.10556 63 71 136 255 
3.68982 12.7868 3.99781 70 52 128 255 
3.73358 12.9802 3.90612 71 46 124 255 
3.74914 13.0519 3.78385 68 57 131 255 
2.68818 9.35767 2.61425 71 45 123 255 
2.79768 9.71421 2.62379 68 57 131 255 
2.71114 9.4194 2.44023 62 73 137 255 
2.70695 9.39897 2.33558 72 32 113 255 
2.87201 9.96486 2.37516 72 32 113 255 
4.11859 14.3101 3.2849 72 37 118 255 
4.18754 14.5394 3.1802 61 78 138 255 
4.15965 14.4146 3.00603 72 40 120 255 
6.49719 22.4841 4.46455 72 20 103 255 
4.13606 14.3708 2.72841 69 55 129 255 
2.61191 9.06275 1.62743 61 77 138 255 
5.74533 19.8835 3.367 72 33 115 255 
6.05833 20.8971 3.33715 72 33 115 255 
5.94921 20.657 3.1207 72 35 116 255 
2.65423 9.20353 1.29678 64 69 136 255 
5.96322 20.5971 2.69747 72 33 115 255 
6.01856 20.7329 2.517 72 31 112 255 
5.81447 20.1892 2.27868 72 35 116 255 
5.91265 20.4619 2.10715 72 35 116 255 
5.90735 20.3908 1.8984 71 17 100 255 
0 0 0 69 4 87 255 
13.1109 45.4942 3.4187 71 13 96 255 
0 0 0 69 4 87 255 
5.95131 20.5024 1.13752 71 19 101 255 
5.06239 17.3824 0.79363 72 29 111 255 
4.95297 17.1641 0.642571 70 52 128 255 
5.09309 17.5911 0.485954 72 41 121 255 
5.16901 17.7958 0.316994 69 56 130 255 
5.18514 17.7808 0.14547 68 59 132 255 
4.41265 15.2817 -0.00277612 72 28 110 255 
4.18504 14.4359 -0.144285 72 35 116 255 
3.99731 13.744 -0.269834 72 32 113 255 
3.82076 13.0851 -0.385526 72 31 112 255 
3.59839 12.4374 -0.470236 72 36 117 255 
3.44989 11.8846 -0.564117 71 42 122 255 
3.30884 11.3694 -0.651654 71 42 122 255 
3.1858 10.9035 -0.732589 71 45 123 255 
3.031 10.4694 -0.790836 71 46 124 255 
2.92478 10.0625 -0.857844 68 57 131 255 
2.84243 9.74774 -0.927634 66 64 134 255 
2.66706 9.12809 -0.959257 68 57 131 255 
2.46072 8.48301 -0.962658 64 69 136 255 
2.33101 8.01446 -0.989359 59 81 139 255 
2.19991 7.53942 -1.0061 64 70 136 255 
2.06955 7.07394 -1.01487 61 77 138 255 
1.95165 6.71493 -1.02139 64 69 136 255 
1.85033 6.3535 -1.02917 60 79 138 255 
1.75738 6.0189 -1.03465 56 88 140 255 
1.68721 5.76706 -1.05087 57 85 140 255 
1.61193 5.53169 -1.05748 47 107 142 255 
1.53089 5.24642 -1.05441 60 79 138 255 
1.45634 4.98785 -1.05433 60 79 138 255 
1.40414 4.80259 -1.0663 62 76 138 255 
1.34754 4.61538 -1.0668 61 78 138 255 
1.30517 4.46705 -1.07784 55 91 141 255 
1.25767 4.30183 -1.08346 58 83 139 255 
1.21237 4.15208 -1.0913 59 81 139 255 
1.17297 4.00452 -1.09082 60 80 139 255 
1.12703 3.84738 -1.08773 60 80 139 255 
1.08964 3.7247 -1.09377 60 79 138 255 
1.05234 3.60867 -1.10134 63 72 137 255 
3.76387 12.7492 3.9932 72 22 104 255 
3.82319 12.9912 3.9164 70 52 128 255 
3.83078 13.0342 3.78546 71 47 125 255 
3.88723 13.2253 3.70134 69 53 129 255 
2.81128 9.54088 2.58159 70 48 126 255 
2.96406 10.0654 2.61224 68 58 131 255 
4.22163 14.3271 3.56654 72 35 116 255 
3.02904 10.2724 2.45285 71 44 122 255 
2.71484 9.21952 2.12014 66 64 134 255 
4.31125 14.6307 3.20591 66 64 134 255 
6.62815 22.4508 4.69028 71 19 101 255 
4.20808 14.2344 2.83152 72 37 118 255 
4.21026 14.2979 2.71944 68 59 132 255 
2.66134 9.02576 1.62369 48 105 142 255 
5.77965 19.5516 3.31674 72 38 119 255 
6.02596 20.3184 3.25058 72 24 106 255 
6.12648 20.792 3.1467 72 29 111 255 
2.6669 9.0388 1.27585 71 45 123 255 
5.90944 19.9523 2.61772 71 42 122 255 
6.08204 20.4813 2.49094 72 20 103 255 
5.94414 20.1732 2.28095 71 44 122 255 
6.0364 20.4195 2.10656 72 20 103 255 
13.7493 46.3924 4.32693 69 4 87 255 
13.6587 45.9077 3.83684 70 7 90 255 
13.4927 45.7621 3.44499 70 8 92 255 
0 0 0 69 5 89 255 
5.30128 17.8531 0.992318 70 8 92 255 
5.02691 16.8742 0.771821 72 36 117 255 
4.99679 16.9254 0.634771 70 52 128 255 
5.06835 17.1119 0.473567 70 52 128 255 
5.11579 17.2174 0.307245 69 53 129 255 
5.17152 17.3376 0.142101 71 42 122 255 
4.49981 15.2322 -0.00277211 72 31 112 255 
4.27581 14.4176 -0.144362 72 35 116 255 
4.06845 13.6751 -0.268967 72 31 112 255 
3.89812 13.0519 -0.385243 72 36 117 255 
3.6718 12.4055 -0.469873 72 41 121 255 
3.52928 11.8852 -0.565164 71 46 124 255 
3.38395 11.367 -0.652698 71 44 122 255 
3.2555 10.8933 -0.733232 69 53 129 255 
3.09773 10.4592 -0.791487 70 48 126 255 
2.9859 10.0425 -0.85768 68 57 131 255 
2.89735 9.7139 -0.926087 68 59 132 255 
2.7176 9.09344 -0.95735 69 56 130 255 
2.51188 8.46489 -0.962332 64 70 136 255 
2.36825 7.96003 -0.984415 60 80 139 255 
2.24415 7.51913 -1.00521 63 71 136 255 
2.11093 7.05446 -1.01391 59 81 139 255 
1.99366 6.70568 -1.02182 63 71 136 255 
1.88843 6.33918 -1.02871 60 80 139 255 
1.79795 6.02029 -1.03677 54 93 141 255 
1.72143 5.75283 -1.05018 54 92 141 255 
1.63882 5.49813 -1.05297 49 103 142 255 
1.56109 5.23034 -1.05309 57 85 140 255 
1.49197 4.99573 -1.05791 59 81 139 255 
1.43498 4.79857 -1.06734 61 78 138 255 
1.37918 4.61825 -1.0694 57 85 140 255 
1.33227 4.45802 -1.07761 55 91 141 255 
1.28682 4.30334 -1.08581 58 83 139 255 
1.23977 4.15106 -1.09301 61 77 138 255 
1.20169 4.01115 -1.09461 56 88 140 255 
1.16003 3.87183 -1.09664 59 82 139 255 
1.10917 3.70688 -1.09052 60 80 139 255 
1.07419 3.60123 -1.10106 62 73 137 255 
3.29285 10.9068 3.42242 60 80 139 255 
3.94021 13.0916 3.9539 72 40 120 255 
3.88573 12.9274 3.76131 71 42 122 255 
2.80198 9.3212 2.61348 72 20 103 255 
3.08983 10.2537 2.77955 70 52 128 255 
2.80414 9.31109 2.42091 62 76 138 255 
2.81984 9.35759 2.33372 57 85 140 255 
4.39895 14.5877 3.48962 71 42 122 255 
2.77558 9.21672 2.12337 55 90 140 255 
6.67483 22.1496 4.86235 71 19 101 255 
4.36854 14.4695 3.02842 72 35 116 255 
6.83401 22.6057 4.50502 71 16 99 255 
4.28033 14.2134 2.70831 72 33 115 255 
2.71582 9.00643 1.62318 57 85 140 255 
6.04002 19.9806 3.39574 72 35 116 255 
6.2208 20.5128 3.28772 72 35 116 255 
6.3336 21.0184 3.18678 72 35 116 255 
6.12706 20.3063 2.87154 72 27 109 255 
6.03262 19.9185 2.61809 72 41 121 255 
6.11236 20.13 2.45273 72 23 105 255 
5.99237 19.886 2.25259 70 48 126 255 
6.13019 20.2782 2.09583 71 19 101 255 
8.12929 26.8244 2.50647 72 20 103 255 
13.934 45.8031 3.83516 70 7 90 255 
13.9371 46.2218 3.48597 70 7 90 255 
0 0 0 69 4 87 255 
4.98889 16.431 0.914955 72 32 113 255 
5.00023 16.4159 0.752245 70 51 127 255 
5.01043 16.5959 0.623556 72 36 117 255 
5.33292 17.6076 0.488183 71 45 123 255 
5.3873 17.732 0.317011 72 32 113 255 
5.86704 19.2376 0.157966 72 35 116 255 
4.8338 16.0008 -0.00291732 72 41 121 255 
4.37087 14.4131 -0.144583 72 33 115 255 
4.15287 13.6518 -0.269005 72 33 115 255 
3.96616 12.9885 -0.384084 72 33 115 255 
3.74554 12.3751 -0.469583 72 37 118 255 
3.5946 11.8385 -0.56398 72 40 120 255 
3.45858 11.3623 -0.653632 71 46 124 255 
3.32053 10.8674 -0.732846 70 48 126 255 
3.16185 10.44 -0.791487 68 57 131 255 
3.04399 10.0125 -0.856701 70 48 126 255 
2.96329 9.71689 -0.928089 69 55 129 255 
2.77131 9.06993 -0.956648 69 56 130 255 
2.5629 8.44646 -0.962007 66 65 134 255 
2.41214 7.9292 -0.982414 59 81 139 255 
2.28474 7.48719 -1.00279 63 71 136 255 
2.14838 7.02243 -1.01119 62 74 137 255 
2.0365 6.699 -1.02269 63 71 136 255 
1.93535 6.35394 -1.03301 59 82 139 255 
1.83658 6.01481 -1.03775 54 93 141 255 
1.75757 5.74498 -1.05069 55 91 141 255 
1.6708 5.48233 -1.05189 49 104 142 255 
1.5943 5.22442 -1.05384 58 84 140 255 
1.52001 4.97804 -1.05612 62 73 137 255 
1.46411 4.78874 -1.06713 61 78 138 255 
1.41034 4.61903 -1.07157 55 90 140 255 
1.3596 4.44977 -1.07761 56 89 140 255 
1.3061 4.27213 -1.07993 59 81 139 255 
1.26012 4.12669 -1.08861 62 73 137 255 
1.22259 3.99168 -1.09132 61 78 138 255 
1.18179 3.85818 -1.0948 59 81 139 255 
1.13696 3.71657 -1.0954 60 79 138 255 
1.0985 3.60191 -1.10331 61 78 138 255 
3.16653 10.2605 3.22563 71 45 123 255 
3.02721 9.83898 2.97709 54 93 141 255 
3.95055 12.8564 3.74762 66 63 133 255 
4.01944 13.0796 3.67411 72 27 109 255 
3.01591 9.79057 2.65896 71 46 124 255 
2.8044 9.10915 2.37283 49 104 142 255 
2.87634 9.33733 2.33302 52 96 141 255 
2.90993 9.4399 2.26242 72 31 112 255 
2.83668 9.21445 2.12681 68 59 132 255 
4.62876 15.0257 3.30464 72 36 117 255 
4.43497 14.3703 3.0133 66 64 134 255 
4.4477 14.3928 2.87368 66 63 133 255 
4.36833 14.1897 2.70885 72 23 105 255 
2.76783 8.97924 1.62131 47 107 142 255 
6.17329 19.9781 3.40168 72 33 115 255 
6.27426 20.241 3.25028 72 26 108 255 
6.17839 20.057 3.04671 72 35 116 255 
6.22117 20.1698 2.85759 71 46 124 255 
6.2269 20.1142 2.6488 71 44 122 255 
6.23135 20.0779 2.45099 72 40 120 255 
6.06306 19.6825 2.23372 72 37 118 255 
6.19721 20.0548 2.07663 72 22 104 255 
8.26013 26.6655 2.49631 71 17 100 255 
0 0 0 69 4 87 255 
0 0 0 69 4 87 255 
0 0 0 69 4 87 255 
5.07896 16.3657 0.913039 66 63 133 255 
5.10561 16.4002 0.752946 70 50 126 255 
5.07003 16.4283 0.618416 64 70 136 255 
5.14818 16.6292 0.461922 72 27 109 255 
5.95293 19.17 0.343368 72 32 113 255 
5.09584 16.3487 0.134498 72 28 110 255 
4.95579 16.0482 -0.00293145 70 52 128 255 
4.45094 14.3593 -0.144314 72 29 111 255 
4.24131 13.6413 -0.269307 72 36 117 255 
4.05799 13.0031 -0.385243 72 36 117 255 
3.82465 12.3624 -0.469982 72 38 119 255 
3.66421 11.8066 -0.563525 72 41 121 255 
3.52497 11.3304 -0.653028 72 40 120 255 
3.38626 10.844 -0.732653 71 46 124 255 
3.22467 10.4166 -0.791198 70 51 127 255 
3.11098 10.0117 -0.858252 68 58 131 255 
3.02433 9.70328 -0.928544 68 59 132 255 
2.8195 9.02901 -0.954139 67 62 133 255 
2.61733 8.43912 -0.962983 66 64 134 255 
2.46487 7.92752 -0.984062 58 83 139 255 
2.33418 7.48439 -1.00432 61 78 138 255 
2.18817 6.99872 -1.00969 64 70 136 255 
2.07228 6.66937 -1.02008 65 66 135 255 
1.97136 6.33251 -1.03147 58 83 139 255 
1.87522 6.00908 -1.03872 57 85 140 255 
1.79366 5.73691 -1.05121 54 93 141 255 
1.71084 5.49263 -1.05586 50 100 142 255 
1.62633 5.21454 -1.05384 59 82 139 255 
1.55549 4.98452 -1.0595 57 86 140 255 
1.49696 4.79087 -1.06963 61 78 138 255 
1.44651 4.63546 -1.07742 58 83 139 255 
1.38543 4.43669 -1.07649 54 92 141 255 
1.33345 4.26774 -1.08087 61 78 138 255 
1.286 4.12073 -1.0891 62 76 138 255 
1.24215 3.96841 -1.08702 60 80 139 255 
1.20631 3.85362 -1.09559 60 80 139 255 
1.16434 3.72422 -1.09974 59 82 139 255 
1.11687 3.58319 -1.09965 62 73 137 255 
2.95119 9.35852 2.94772 62 76 138 255 
2.98524 9.4949 2.87847 60 80 139 255 
2.9454 9.3799 2.73945 72 41 121 255 
2.88519 9.18752 2.58573 72 41 121 255 
2.93963 9.33887 2.54114 72 32 113 255 
2.86141 9.09548 2.3738 55 91 141 255 
2.93358 9.3195 2.33302 51 98 141 255 
2.91069 9.24057 2.21888 72 40 120 255 
2.95119 9.38131 2.16947 45 112 142 255 
4.5334 14.4014 3.17341 72 32 113 255 
4.57467 14.5065 3.04768 63 72 137 255 
4.50753 14.2753 2.85569 71 44 122 255 
4.62653 14.7069 2.81295 70 52 128 255 
4.58766 14.5649 2.6349 72 31 112 255 
6.21403 19.681 3.35752 72 38 119 255 
6.37685 20.1343 3.23936 72 29 111 255 
6.15634 19.558 2.9766 72 40 120 255 
6.47022 20.5292 2.91407 71 44 122 255 
6.36547 20.1239 2.65516 71 45 123 255 
6.43549 20.2949 2.48226 72 27 109 255 
6.13177 19.48 2.21496 71 45 123 255 
6.29288 19.9301 2.06768 72 41 121 255 
6.26352 19.7896 1.85618 71 42 122 255 
8.73765 27.505 2.31185 72 20 103 255 
0 0 0 68 2 86 255 
34.243 108.385 7.13131 69 5 89 255 
5.182 16.3428 0.913518 72 27 109 255 
6.43311 20.2262 0.930398 72 23 105 255 
5.16773 16.3874 0.618056 70 51 127 255 
5.8151 18.3834 0.511631 71 44 122 255 
5.89537 18.5813 0.333465 72 28 110 255 
6.48165 20.3542 0.167775 71 19 101 255 
5.08666 16.1205 -0.0029503 68 58 131 255 
4.67724 14.7683 -0.14871 68 59 132 255 
4.32765 13.6236 -0.269476 72 38 119 255 
4.13132 12.9579 -0.384649 72 33 115 255 
3.90886 12.3653 -0.470999 72 40 120 255 
3.74202 11.8011 -0.564344 71 45 123 255 
3.57869 11.2591 -0.650171 72 37 118 255 
3.46092 10.8487 -0.734391 71 46 124 255 
3.28822 10.3957 -0.791125 70 52 128 255 
3.17628 10.0048 -0.859312 66 63 133 255 
3.08351 9.68359 -0.928453 68 59 132 255 
2.8685 8.99164 -0.952031 69 53 129 255 
2.66156 8.39921 -0.960274 66 63 133 255 
2.51467 7.91604 -0.984532 59 82 139 255 
2.38398 7.48222 -1.00597 61 78 138 255 
2.2371 7.00403 -1.01241 60 79 138 255 
2.11645 6.6669 -1.02167 64 70 136 255 
2.01048 6.32124 -1.03163 57 85 140 255 
1.91535 6.0078 -1.04051 53 94 141 255 
1.82793 5.72298 -1.05069 55 91 141 255 
1.74094 5.47078 -1.05369 51 99 141 255 
1.65471 5.19324 -1.05157 60 80 139 255 
1.58873 4.98329 -1.06129 60 80 139 255 
1.52633 4.78159 -1.06963 62 76 138 255 
1.46603 4.59859 -1.07092 56 89 140 255 
1.40907 4.41697 -1.07378 57 86 140 255 
1.35754 4.253 -1.07923 60 80 139 255 
1.31155 4.11368 -1.08934 61 78 138 255 
1.26913 3.969 -1.0893 58 84 140 255 
1.23786 3.87096 -1.10266 57 85 140 255 
1.18424 3.70784 -1.09703 60 79 138 255 
1.14204 3.58633 -1.10275 62 74 137 255 
2.99975 9.31289 2.93909 55 90 140 255 
3.02288 9.41238 2.85902 66 64 134 255 
2.92846 9.12958 2.67154 50 102 142 255 
2.94741 9.18804 2.59091 62 73 137 255 
2.99154 9.30407 2.53662 64 70 136 255 
2.94715 9.17106 2.3982 51 98 141 255 
2.87668 8.94668 2.24407 58 84 140 255 
2.99331 9.30327 2.23831 72 29 111 255 
2.97046 9.24402 2.14189 65 66 135 255 
4.56356 14.1926 3.13351 71 19 101 255 
4.77994 14.8393 3.12371 70 50 126 255 
4.76117 14.7625 2.95894 70 50 126 255 
4.74648 14.771 2.83072 71 42 122 255 
6.52677 20.286 3.67706 72 29 111 255 
6.41405 19.8886 3.39959 71 42 122 255 
6.55716 20.2707 3.26771 72 26 108 255 
6.44617 20.0484 3.0572 72 35 116 255 
6.5502 20.3466 2.89381 72 28 110 255 
6.49736 20.1109 2.65866 71 44 122 255 
6.4335 19.8647 2.43443 72 40 120 255 
6.26397 19.4817 2.21949 71 44 122 255 
6.4236 19.9176 2.07043 71 19 101 255 
8.68539 26.8673 2.52499 72 26 108 255 
8.81797 27.1788 2.28893 71 16 99 255 
0 0 0 68 2 86 255 
0 0 0 68 2 86 255 
6.5322 20.1706 1.1297 70 8 92 255 
5.98549 18.4266 0.849292 72 29 111 255 
5.91744 18.371 0.694226 72 38 119 255 
5.85311 18.1162 0.505186 72 33 115 255 
5.91435 18.2519 0.328197 68 59 132 255 
5.95883 18.3228 0.151329 72 41 121 255 
5.11063 15.8568 -0.00290772 69 53 129 255 
4.79085 14.8107 -0.14943 68 58 131 255 
4.41487 13.6082 -0.269702 72 35 116 255 
4.21044 12.9314 -0.384621 72 37 118 255 
3.98804 12.3516 -0.471398 71 42 122 255 
3.82113 11.7988 -0.565346 71 44 122 255 
3.66405 11.2872 -0.653083 71 47 125 255 
3.53453 10.8491 -0.735871 70 48 126 255 
3.35011 10.3696 -0.790691 71 44 122 255 
3.23238 9.969 -0.857925 68 58 131 255 
3.14503 9.67112 -0.92909 66 65 134 255 
2.93009 8.99373 -0.954139 69 55 129 255 
2.71763 8.39691 -0.961899 67 61 132 255 
2.56381 7.90235 -0.984768 59 82 139 255 
2.42708 7.45896 -1.00483 58 84 140 255 
2.27819 6.98452 -1.0116 60 79 138 255 
2.15671 6.65191 -1.02139 62 74 137 255 
2.05076 6.31348 -1.03239 59 82 139 255 
1.93568 5.94527 -1.03172 56 88 140 255 
1.86149 5.70697 -1.04983 56 89 140 255 
1.77478 5.46093 -1.05387 50 101 142 255 
1.68047 5.16431 -1.04778 58 83 139 255 
1.62079 4.97811 -1.06228 59 82 139 255 
1.54958 4.75354 -1.06546 60 79 138 255 
1.50087 4.60993 -1.07569 59 82 139 255 
1.43705 4.41102 -1.07446 56 88 140 255 
1.38451 4.24736 -1.07993 57 85 140 255 
1.33677 4.10556 -1.08934 57 85 140 255 
1.29346 3.96114 -1.0893 60 80 139 255 
1.26459 3.87247 -1.10528 58 83 139 255 
1.20846 3.70508 -1.09838 62 76 138 255 
1.16759 3.59021 -1.10612 62 73 137 255 
2.96408 9.01228 2.84991 55 90 140 255 
3.04765 9.29324 2.82846 60 79 138 255 
2.99132 9.13249 2.67771 50 101 142 255 
2.98268 9.10553 2.57276 56 89 140 255 
3.05129 9.29381 2.53888 50 101 142 255 
3.01728 9.19522 2.40931 54 93 141 255 
2.99645 9.12663 2.29377 60 79 138 255 
2.61649 7.96416 1.91995 69 53 129 255 
2.59085 7.89601 1.8332 63 71 136 255 
2.84364 8.66094 1.91602 58 84 140 255 
4.80932 14.6225 3.08422 70 52 128 255 
4.72969 14.3626 2.88455 72 41 121 255 
4.86647 14.8313 2.84795 66 64 134 255 
4.90045 14.9166 2.70921 64 69 136 255 
6.66407 20.2379 3.46623 72 41 121 255 
6.66344 20.1756 3.25892 72 33 115 255 
6.57246 20.0188 3.05878 71 47 125 255 
6.82068 20.7495 2.957 72 22 104 255 
6.47767 19.6372 2.60124 71 44 122 255 
6.58084 19.9022 2.44393 72 36 117 255 
6.39641 19.4826 2.22402 70 50 126 255 
8.6339 26.2193 2.73094 72 22 104 255 
8.88474 26.9185 2.53488 72 20 103 255 
8.97485 27.0948 2.28645 72 31 112 255 
10.0739 30.6657 2.3307 72 26 108 255 
0 0 0 68 2 86 255 
6.10568 18.4662 1.03632 70 7 90 255 
6.07266 18.3118 0.845701 71 42 122 255 
5.96011 18.1217 0.686174 72 37 118 255 
5.20255 15.7712 0.440675 72 28 110 255 
5.92699 17.9153 0.322792 72 41 121 255 
5.98575 18.0287 0.149201 72 35 116 255 
5.20283 15.8099 -0.00290493 69 55 129 255 
4.87505 14.7611 -0.149229 68 59 132 255 
4.49702 13.5771 -0.269627 68 57 131 255 
4.29538 12.9224 -0.38513 72 40 120 255 
4.04967 12.2842 -0.469765 71 44 122 255 
3.8922 11.7713 -0.565164 71 45 123 255 
3.73826 11.2797 -0.653962 71 42 122 255 
3.59663 10.8139 -0.73497 71 47 125 255 
3.41742 10.3602 -0.79156 70 51 127 255 
