ply
format ascii 1.0
comment VTK generated PLY File
obj_info vtkPolyData points and polygons: vtk4.0
element vertex 1265
property float x
property float y
property float z
property uchar red
property uchar green
property uchar blue
property uchar alpha
element face 0
property list uchar int vertex_indices
end_header
3.47334 2.30733 -1.09006 64 70 136 255 
3.34586 2.22255 -1.08983 67 61 132 255 
3.23104 2.14794 -1.0935 66 63 133 255 
3.10783 2.06988 -1.09403 68 57 131 255 
13.5728 8.97479 4.88794 70 8 92 255 
13.3196 8.82383 4.62066 72 38 119 255 
13.8858 9.20604 4.64225 70 51 127 255 
14.1086 9.35334 4.54519 71 44 122 255 
13.9266 9.2192 4.33488 72 24 106 255 
13.3657 8.851 3.99095 71 17 100 255 
12.2468 8.10713 3.50708 71 42 122 255 
12.1701 8.05293 3.34228 70 52 128 255 
12.2892 8.13833 3.25151 68 58 131 255 
12.2461 8.10648 3.08682 61 77 138 255 
32.2213 21.3056 7.73972 70 7 90 255 
15.4889 10.2335 3.54132 72 33 115 255 
26.2894 17.4098 5.75298 71 14 97 255 
23.7905 15.7425 4.92242 72 23 105 255 
24.0315 15.8782 4.68576 72 20 103 255 
23.2162 15.3099 4.26543 71 14 97 255 
24.2063 16.0242 4.21428 71 14 97 255 
25.2002 16.669 4.09051 71 19 101 255 
24.9322 16.4546 3.75789 71 19 101 255 
24.687 16.2674 3.44691 71 19 101 255 
24.6482 16.3168 3.20599 71 19 101 255 
24.6536 16.2889 2.92332 71 17 100 255 
23.9501 15.8004 2.56579 72 20 103 255 
24.0656 15.8399 2.30793 72 24 106 255 
24.1731 15.9962 2.09304 72 28 110 255 
24.4617 16.156 1.83923 72 28 110 255 
34.8196 22.9451 2.22189 70 8 92 255 
0 0 0 69 4 87 255 
34.6135 22.8876 1.49259 70 7 90 255 
34.5188 22.781 1.09746 70 7 90 255 
34.4345 22.6827 0.705344 70 8 92 255 
34.4458 22.6378 0.323738 70 7 90 255 
33.4427 22.105 -0.00699668 71 13 96 255 
23.4823 15.4856 -0.270024 72 20 103 255 
19.2208 12.6515 -0.433797 71 19 101 255 
16.2997 10.704 -0.551502 72 23 105 255 
14.5027 9.57518 -0.631168 72 35 116 255 
13.0268 8.58412 -0.711157 72 32 113 255 
11.5802 7.6194 -0.762873 72 38 119 255 
10.644 6.98729 -0.821145 71 46 124 255 
9.82099 6.48167 -0.853796 70 51 127 255 
8.93932 5.88616 -0.876202 72 40 120 255 
8.28049 5.4421 -0.905253 71 42 122 255 
7.68537 5.04507 -0.927342 71 46 124 255 
7.17443 4.72961 -0.936546 69 55 129 255 
6.75288 4.44479 -0.958283 57 86 140 255 
6.41561 4.21486 -0.983353 59 82 139 255 
6.03036 3.95563 -0.993044 57 86 140 255 
5.72381 3.76902 -1.00101 52 97 141 255 
5.45451 3.58747 -1.01534 55 90 140 255 
5.17921 3.40129 -1.02244 55 91 141 255 
4.93455 3.23683 -1.03209 63 71 136 255 
4.72563 3.10702 -1.03799 61 78 138 255 
4.52913 2.97544 -1.04551 62 76 138 255 
4.33507 2.84693 -1.05234 63 72 137 255 
4.13759 2.71509 -1.05462 63 71 136 255 
4.01644 2.63773 -1.06615 62 73 137 255 
3.86601 2.53787 -1.07107 63 71 136 255 
3.71057 2.43495 -1.07288 61 78 138 255 
3.61392 2.37326 -1.09081 62 73 137 255 
3.49957 2.29393 -1.09385 63 72 137 255 
3.35702 2.20039 -1.08904 67 62 133 255 
3.23369 2.12121 -1.08997 68 59 132 255 
3.12528 2.05393 -1.09572 66 64 134 255 
13.6276 8.89134 4.88794 71 46 124 255 
14.1648 9.25913 4.89404 72 27 109 255 
13.2367 8.65922 4.40738 72 40 120 255 
13.899 9.09212 4.45961 70 48 126 255 
13.5931 8.87897 4.21404 72 38 119 255 
13.5002 8.82137 4.01487 70 52 128 255 
12.2271 7.98662 3.48734 72 40 120 255 
12.1988 7.96478 3.3367 70 52 128 255 
12.455 8.13863 3.2821 72 36 117 255 
12.3865 8.09059 3.10965 68 59 132 255 
0 0 0 68 2 86 255 
15.5712 10.1511 3.54582 70 7 90 255 
26.4452 17.2804 5.76375 71 14 97 255 
23.923 15.6199 4.9299 71 19 101 255 
24.4807 15.9601 4.75417 70 10 93 255 
25.023 16.282 4.57895 71 14 97 255 
24.8345 16.2218 4.30623 71 16 99 255 
24.8398 16.2124 4.01579 72 22 104 255 
24.9978 16.2785 3.75265 72 20 103 255 
24.982 16.2429 3.47412 72 20 103 255 
24.9135 16.2734 3.22744 71 16 99 255 
24.7723 16.1498 2.92558 72 22 104 255 
25.1426 16.3666 2.68273 71 19 101 255 
24.1055 15.6551 2.3025 72 22 104 255 
24.3001 15.8667 2.09556 72 22 104 255 
29.5597 19.2636 2.21361 70 7 90 255 
34.9706 22.738 2.22258 70 7 90 255 
59.1893 38.4105 3.09307 69 4 87 255 
58.78 38.351 2.52449 69 4 87 255 
0 0 0 68 2 86 255 
43.7009 28.4037 0.891566 70 7 90 255 
0 0 0 68 2 86 255 
33.4797 21.8355 -0.00697626 70 10 93 255 
23.5702 15.3369 -0.269948 71 16 99 255 
19.3132 12.5432 -0.434136 72 23 105 255 
15.9784 10.3532 -0.538469 72 36 117 255 
14.6081 9.51655 -0.6332 72 28 110 255 
13.0834 8.50675 -0.711384 71 45 123 255 
11.6225 7.54549 -0.762599 69 53 129 255 
10.7026 6.93216 -0.822368 68 57 131 255 
9.85639 6.41857 -0.853434 68 57 131 255 
8.96942 5.8274 -0.87563 72 37 118 255 
8.3647 5.42424 -0.910803 72 40 120 255 
7.72787 5.00539 -0.928747 70 48 126 255 
7.22415 4.69905 -0.939255 68 58 131 255 
6.78586 4.40706 -0.959107 59 82 139 255 
6.43303 4.17002 -0.982082 60 80 139 255 
6.05036 3.91586 -0.992362 58 84 140 255 
5.74516 3.73275 -1.00072 53 95 141 255 
5.46564 3.54694 -1.01334 58 84 140 255 
5.21489 3.37911 -1.02537 56 89 140 255 
4.93117 3.19151 -1.02726 66 65 134 255 
4.71407 3.05816 -1.03131 64 69 136 255 
4.52753 2.93478 -1.04096 60 80 139 255 
4.36151 2.82614 -1.05453 61 77 138 255 
4.15828 2.69231 -1.05567 62 73 137 255 
4.04566 2.62153 -1.06962 62 73 137 255 
3.90113 2.52681 -1.07649 64 70 136 255 
3.73604 2.419 -1.07594 64 69 136 255 
3.62191 2.34683 -1.08885 62 76 138 255 
3.51033 2.27031 -1.09284 63 71 136 255 
3.36154 2.17398 -1.08616 66 63 133 255 
3.28947 2.12904 -1.10435 67 61 132 255 
3.14266 2.03785 -1.0974 68 58 131 255 
13.4041 8.62871 4.78868 72 33 115 255 
13.2429 8.541 4.55732 72 36 117 255 
13.5315 8.73404 4.48764 70 51 127 255 
13.9148 8.981 4.4469 72 41 121 255 
13.5245 8.71622 4.17611 70 48 126 255 
13.5736 8.75099 4.02067 72 40 120 255 
13.3911 8.63014 3.80414 69 5 89 255 
12.2016 7.86022 3.32419 70 8 92 255 
12.5129 8.06734 3.28425 61 77 138 255 
12.2854 7.91742 3.07201 64 69 136 255 
12.4213 7.99594 2.95986 72 31 112 255 
33.7249 21.6922 7.64928 70 7 90 255 
31.1784 20.1014 6.76835 70 7 90 255 
32.1004 20.6794 6.58878 69 5 89 255 
25.0306 16.1006 4.84168 72 22 104 255 
25.2115 16.1852 4.59517 71 17 100 255 
24.9186 16.0594 4.30364 72 24 106 255 
25.0171 16.1101 4.0284 71 19 101 255 
25.4795 16.3705 3.80981 71 16 99 255 
25.0686 16.0812 3.47238 71 13 96 255 
25.058 16.1493 3.23327 71 17 100 255 
25.0508 16.1133 2.94675 71 19 101 255 
25.235 16.2072 2.68193 71 19 101 255 
25.1109 16.0898 2.38906 70 11 94 255 
24.9487 16.0727 2.14295 71 17 100 255 
29.7009 19.097 2.21537 70 8 92 255 
0 0 0 68 2 86 255 
0 0 0 68 1 84 255 
59.3427 38.2011 2.53855 69 4 87 255 
0 0 0 68 2 86 255 
45.7782 29.3559 0.930254 70 7 90 255 
0 0 0 69 4 87 255 
33.6417 21.6481 -0.00698219 70 7 90 255 
23.8902 15.3373 -0.27253 71 13 96 255 
19.4268 12.4482 -0.434965 72 23 105 255 
16.8906 10.7977 -0.566966 72 32 113 255 
14.641 9.41053 -0.632112 72 35 116 255 
13.1345 8.42577 -0.711339 72 33 115 255 
11.7266 7.51119 -0.76639 71 42 122 255 
10.7366 6.86098 -0.821725 71 47 125 255 
9.85028 6.32885 -0.849526 65 68 135 255 
9.05451 5.80399 -0.880444 72 41 121 255 
8.39195 5.36906 -0.910166 71 45 123 255 
7.75006 4.95252 -0.927744 71 44 122 255 
7.25619 4.65678 -0.939688 69 56 130 255 
6.80942 4.3632 -0.958636 58 84 140 255 
6.4585 4.13047 -0.982082 57 85 140 255 
6.08179 3.88346 -0.99359 60 80 139 255 
5.76963 3.6985 -1.00101 55 91 141 255 
5.49229 3.51653 -1.01426 57 85 140 255 
5.22056 3.33748 -1.02244 54 93 141 255 
4.95315 3.16278 -1.02778 64 70 136 255 
4.75014 3.04031 -1.0351 63 71 136 255 
4.53304 2.89901 -1.03812 64 69 136 255 
4.36638 2.7914 -1.05154 61 78 138 255 
4.18626 2.67412 -1.05858 64 70 136 255 
4.06166 2.59666 -1.06962 63 71 136 255 
3.91574 2.5023 -1.07626 65 68 135 255 
3.75 2.39551 -1.0757 61 77 138 255 
3.61745 2.31255 -1.08322 62 73 137 255 
3.50136 2.23416 -1.08576 64 69 136 255 
3.38621 2.16058 -1.08983 65 66 135 255 
3.28544 2.09794 -1.09865 68 58 131 255 
3.16723 2.02629 -1.10162 66 65 134 255 
7.3788 4.68622 2.62579 56 88 140 255 
13.3988 8.52559 4.59288 68 59 132 255 
14.2235 9.05754 4.69861 70 52 128 255 
14.2555 9.07753 4.53792 72 41 121 255 
13.4462 8.54945 4.13566 72 41 121 255 
13.6484 8.68108 4.02695 70 50 126 255 
14.8498 9.44178 4.202 70 10 93 255 
0 0 0 68 1 84 255 
12.5621 7.99042 3.28425 71 45 123 255 
12.3907 7.87812 3.0862 71 46 124 255 
12.5281 7.95637 2.97361 70 50 126 255 
33.7139 21.3938 7.61686 70 8 92 255 
30.9608 19.6933 6.69476 70 11 94 255 
31.1987 19.8287 6.37862 71 13 96 255 
31.8752 20.2278 6.14149 70 8 92 255 
25.6986 16.2762 4.66567 71 14 97 255 
25.091 15.9535 4.31643 70 11 94 255 
25.5229 16.2151 4.09373 71 16 99 255 
25.8619 16.3929 3.85188 71 19 101 255 
25.6327 16.2219 3.53665 71 14 97 255 
25.1944 16.0193 3.23812 71 13 96 255 
25.2232 16.0062 2.95541 72 26 108 255 
25.1842 15.9571 2.66608 72 20 103 255 
25.1923 15.9248 2.38746 72 20 103 255 
25.3263 16.0969 2.16686 72 20 103 255 
25.7149 16.3119 1.91055 71 16 99 255 
0 0 0 68 2 86 255 
53.568 33.8357 2.7774 72 23 105 255 
0 0 0 69 4 87 255 
59.9868 38.0225 1.88459 69 4 87 255 
45.9084 29.0434 0.929262 70 7 90 255 
0 0 0 68 2 86 255 
32.5185 20.6443 -0.00672266 69 5 89 255 
23.8006 15.0743 -0.270447 71 14 97 255 
19.7463 12.4826 -0.440394 72 24 106 255 
16.2869 10.2716 -0.544576 72 23 105 255 
14.6884 9.3141 -0.631676 72 32 113 255 
13.2062 8.35784 -0.712432 72 33 115 255 
11.7598 7.43109 -0.765566 72 38 119 255 
10.7675 6.78806 -0.820888 69 56 130 255 
9.90493 6.27844 -0.850901 66 65 134 255 
9.08238 5.74353 -0.87971 71 44 122 255 
8.42474 5.31747 -0.910166 72 38 119 255 
7.79292 4.91283 -0.929249 72 40 120 255 
7.27959 4.60898 -0.939038 69 53 129 255 
6.83607 4.32133 -0.958636 56 88 140 255 
6.49462 4.09765 -0.983734 59 82 139 255 
6.10969 3.84871 -0.994272 57 86 140 255 
5.80057 3.66831 -1.00245 54 93 141 255 
5.5121 3.48171 -1.01395 59 81 139 255 
5.24762 3.30959 -1.02375 53 94 141 255 
4.98829 3.1423 -1.03105 65 66 135 255 
4.76372 3.00795 -1.03401 61 77 138 255 
4.5632 2.879 -1.04096 64 69 136 255 
4.36933 2.75567 -1.04816 65 66 135 255 
4.19845 2.64577 -1.05754 66 65 134 255 
4.06266 2.56231 -1.06572 63 72 137 255 
3.91207 2.46628 -1.07107 61 77 138 255 
3.74982 2.36313 -1.07147 63 71 136 255 
3.61517 2.27996 -1.07833 66 65 134 255 
3.52647 2.21985 -1.0893 63 72 137 255 
3.40675 2.14439 -1.09219 65 66 135 255 
3.30069 2.07928 -1.09947 68 59 132 255 
3.18285 2.00886 -1.10275 68 58 131 255 
7.41229 4.64391 2.62752 53 94 141 255 
13.3556 8.38346 4.56038 72 41 121 255 
14.4273 9.06336 4.74746 71 44 122 255 
14.194 8.91643 4.50084 71 44 122 255 
13.4607 8.44313 4.12411 72 35 116 255 
13.7359 8.61883 4.0371 72 24 106 255 
14.1749 8.89103 3.99552 70 7 90 255 
0 0 0 68 2 86 255 
0 0 0 68 2 86 255 
34.2392 21.4756 8.49507 70 8 92 255 
33.985 21.2918 8.03539 70 7 90 255 
33.8404 21.184 7.61593 70 7 90 255 
31.0935 19.5108 6.69745 70 8 92 255 
31.3106 19.6312 6.37675 70 8 92 255 
26.5841 16.6422 5.10228 71 13 96 255 
26.5348 16.5786 4.79893 72 22 104 255 
26.7175 16.7584 4.57847 71 17 100 255 
26.1047 16.3608 4.17087 71 14 97 255 
26.407 16.5121 3.9179 71 16 99 255 
25.5405 15.9449 3.51037 72 20 103 255 
25.7647 16.1607 3.29861 71 17 100 255 
25.7663 16.1299 3.00739 71 13 96 255 
25.8493 16.1571 2.72593 71 17 100 255 
25.2988 15.7757 2.38834 72 22 104 255 
25.4837 15.9783 2.1719 72 24 106 255 
26.1123 16.3402 1.93259 71 16 99 255 
29.5927 18.4754 1.85885 70 11 94 255 
53.5991 33.397 2.76833 72 37 118 255 
0 0 0 68 2 86 255 
0 0 0 68 2 86 255 
46.448 28.9872 0.936565 70 7 90 255 
42.0452 26.1776 0.389004 69 5 89 255 
34.1887 21.4114 -0.00704066 70 10 93 255 
23.4347 14.6419 -0.265263 71 13 96 255 
20.0651 12.5125 -0.445784 72 27 109 255 
15.8887 9.88472 -0.529225 72 27 109 255 
14.7401 9.22062 -0.631458 72 31 112 255 
13.181 8.22904 -0.708333 72 31 112 255 
11.8018 7.35668 -0.765346 71 46 124 255 
10.8064 6.72028 -0.820695 70 51 127 255 
9.97541 6.23764 -0.853651 68 59 132 255 
9.12675 5.69349 -0.880607 71 44 122 255 
8.43776 5.25357 -0.908073 71 46 124 255 
7.82715 4.86755 -0.929751 71 45 123 255 
7.32291 4.57371 -0.940988 67 62 133 255 
6.86583 4.28141 -0.959107 57 86 140 255 
6.5247 4.06086 -0.984497 57 86 140 255 
6.14582 3.81899 -0.996318 55 91 141 255 
5.82045 3.63108 -1.00202 54 93 141 255 
5.53336 3.44782 -1.01395 54 92 141 255 
5.27034 3.2789 -1.02423 53 95 141 255 
5.01166 3.11424 -1.03192 65 68 135 255 
4.76706 2.96931 -1.03076 62 74 137 255 
4.57744 2.84887 -1.04021 65 68 135 255 
4.38949 2.73088 -1.04896 64 69 136 255 
4.22457 2.62616 -1.06004 64 69 136 255 
4.07167 2.53321 -1.06399 64 70 136 255 
3.91968 2.4376 -1.06904 61 77 138 255 
3.77498 2.34675 -1.07453 60 79 138 255 
3.65379 2.2731 -1.08567 64 69 136 255 
3.53838 2.19715 -1.08879 63 71 136 255 
3.41083 2.11785 -1.08931 63 72 137 255 
3.30276 2.05239 -1.09594 66 63 133 255 
3.19756 1.99082 -1.10359 67 62 133 255 
7.71519 4.76801 2.72447 53 95 141 255 
7.71086 4.77448 2.62288 63 71 136 255 
14.4384 8.94727 4.73297 70 48 126 255 
14.3741 8.907 4.54052 72 29 111 255 
13.9962 8.65983 4.27183 71 44 122 255 
13.9618 8.64163 4.08783 70 10 93 255 
14.9273 9.23581 4.19155 69 5 89 255 
0 0 0 68 1 84 255 
45.3461 28.0677 11.7644 69 5 89 255 
0 0 0 69 4 87 255 
34.3094 21.203 8.08117 69 5 89 255 
34.2347 21.1395 7.67533 69 5 89 255 
31.1248 19.2652 6.67861 70 8 92 255 
31.2721 19.3407 6.34461 70 10 93 255 
32.8987 20.3154 6.29018 70 7 90 255 
26.7227 16.4688 4.81455 71 16 99 255 
26.6482 16.4879 4.54916 70 11 94 255 
27.1124 16.7615 4.31536 71 13 96 255 
26.7857 16.5211 3.95897 71 14 97 255 
26.3271 16.2124 3.60475 71 16 99 255 
26.3284 16.29 3.35791 72 22 104 255 
25.6793 15.857 2.98583 71 14 97 255 
26.2828 16.2046 2.76111 70 11 94 255 
28.6649 17.6313 2.69585 70 11 94 255 
25.4515 15.7414 2.16088 71 14 97 255 
26.297 16.2321 1.93885 71 17 100 255 
29.7514 18.3217 1.86173 70 8 92 255 
0 0 0 68 1 84 255 
60.4974 37.3876 2.55806 69 4 87 255 
60.8105 37.5065 1.89586 69 5 89 255 
46.7118 28.7551 0.938309 70 8 92 255 
42.3712 26.0212 0.390535 69 5 89 255 
34.7754 21.4829 -0.00713421 70 7 90 255 
24.3804 15.0256 -0.27492 70 8 92 255 
20.1756 12.4101 -0.446538 72 26 108 255 
15.9448 9.78442 -0.529084 72 32 113 255 
14.8177 9.14312 -0.632366 72 35 116 255 
13.2236 8.14329 -0.707923 72 36 117 255 
11.8127 7.26321 -0.763148 72 37 118 255 
10.8619 6.66272 -0.821789 70 52 128 255 
10.0237 6.1826 -0.85452 66 63 133 255 
9.19546 5.65828 -0.883871 71 45 123 255 
8.47238 5.20326 -0.908346 72 40 120 255 
7.85941 4.82099 -0.930052 71 42 122 255 
7.3356 4.5193 -0.939038 66 65 134 255 
6.88858 4.23712 -0.958636 55 91 141 255 
6.54949 4.02075 -0.984497 59 81 139 255 
6.16238 3.77707 -0.995227 55 91 141 255 
5.85189 3.601 -1.00361 52 96 141 255 
5.56451 3.42001 -1.0158 56 89 140 255 
5.27102 3.23463 -1.02049 54 93 141 255 
5.01052 3.07107 -1.02778 64 70 136 255 
4.80111 2.94978 -1.03419 62 73 137 255 
4.59819 2.82278 -1.04096 61 77 138 255 
4.41451 2.70902 -1.05095 63 71 136 255 
4.21392 2.58383 -1.05337 66 65 134 255 
4.09546 2.51329 -1.06615 64 69 136 255 
3.92709 2.40892 -1.06701 66 64 134 255 
3.80091 2.33065 -1.07782 64 69 136 255 
3.65692 2.24405 -1.08249 64 69 136 255 
3.54932 2.17388 -1.08803 65 68 135 255 
3.4073 2.0868 -1.08407 64 69 136 255 
3.33334 2.04315 -1.10191 64 70 136 255 
3.2138 1.97367 -1.105 66 63 133 255 
7.74839 4.72308 2.72591 58 83 139 255 
7.75313 4.73509 2.62732 50 100 142 255 
14.6763 8.97054 4.79283 72 40 120 255 
14.5718 8.90627 4.58564 71 42 122 255 
14.2301 8.68422 4.32684 72 23 105 255 
14.2051 8.6721 4.14339 66 63 133 255 
0 0 0 68 1 84 255 
15.0412 9.17517 4.03525 70 8 92 255 
0 0 0 69 4 87 255 
0 0 0 68 2 86 255 
34.438 20.9916 8.08097 70 10 93 255 
0 0 0 68 2 86 255 
31.2719 19.0918 6.68489 69 5 89 255 
32.8254 20.0239 6.63469 70 7 90 255 
32.5599 19.8312 6.20203 70 8 92 255 
32.8261 19.9534 5.89201 70 10 93 255 
31.6636 19.3234 5.38501 70 11 94 255 
27.2367 16.6083 4.31885 70 8 92 255 
26.756 16.2771 3.93975 71 16 99 255 
26.3845 16.0253 3.59907 70 10 93 255 
26.4923 16.1675 3.36611 71 16 99 255 
26.7629 16.3001 3.10013 70 7 90 255 
25.929 15.7677 2.71373 71 19 101 255 
28.8245 17.4866 2.70072 70 8 92 255 
28.7994 17.5686 2.43592 71 13 96 255 
28.7958 17.5314 2.11512 71 19 101 255 
28.9663 17.594 1.80581 71 16 99 255 
47.7272 28.9314 2.44654 69 5 89 255 
60.8708 37.1041 2.56417 69 5 89 255 
0 0 0 68 2 86 255 
46.8754 28.4607 0.93807 70 7 90 255 
42.377 25.668 0.389129 69 5 89 255 
35.0603 21.3628 -0.00716562 70 7 90 255 
23.0896 14.0353 -0.259389 70 10 93 255 
20.3172 12.326 -0.44799 72 23 105 255 
16.2636 9.84323 -0.53765 71 17 100 255 
14.8462 9.0354 -0.631204 68 57 131 255 
13.2955 8.07548 -0.709107 72 33 115 255 
11.8656 7.19577 -0.763698 72 40 120 255 
10.8983 6.59336 -0.821467 71 44 122 255 
10.0759 6.12979 -0.85575 64 69 136 255 
9.23171 5.60278 -0.884034 71 46 124 255 
8.52204 5.16201 -0.910257 71 45 123 255 
7.9297 4.7974 -0.934869 71 46 124 255 
7.35215 4.46749 -0.93763 60 80 139 255 
6.91955 4.19786 -0.959342 54 93 141 255 
6.57404 3.98049 -0.984497 58 83 139 255 
6.18374 3.73816 -0.994954 56 89 140 255 
5.86711 3.56092 -1.00245 55 90 140 255 
5.59637 3.39247 -1.01779 52 97 141 255 
5.29836 3.20682 -1.02195 52 97 141 255 
5.01663 3.03263 -1.0252 63 72 137 255 
4.80818 2.91364 -1.03185 62 74 137 255 
4.60702 2.78943 -1.03907 62 74 137 255 
4.42938 2.68087 -1.05055 62 76 138 255 
4.24393 2.56653 -1.05692 64 70 136 255 
4.10663 2.48558 -1.06507 63 72 137 255 
3.9418 2.38478 -1.06701 63 71 136 255 
3.79767 2.29672 -1.07288 68 57 131 255 
3.67643 2.22508 -1.0842 64 69 136 255 
3.55679 2.14856 -1.08626 61 77 138 255 
3.43821 2.07683 -1.08983 63 71 136 255 
3.33593 2.01668 -1.09865 63 72 137 255 
3.22175 1.95143 -1.10359 67 62 133 255 
7.78297 4.6789 2.72792 47 107 142 255 
7.80343 4.70032 2.63455 67 62 133 255 
14.2996 8.62021 4.65245 70 48 126 255 
14.8016 8.9224 4.64062 72 31 112 255 
14.3179 8.6177 4.3374 72 27 109 255 
14.1973 8.54823 4.12576 71 44 122 255 
0 0 0 68 1 84 255 
0 0 0 68 1 84 255 
46.3096 27.8839 11.9246 69 5 89 255 
45.8507 27.5959 11.2481 69 5 89 255 
0 0 0 69 4 87 255 
45.4425 27.2957 10.1122 69 4 87 255 
32.6391 19.6527 6.95125 70 8 92 255 
32.674 19.6576 6.5796 70 7 90 255 
33.1286 19.8999 6.28697 70 10 93 255 
33.2014 19.9036 5.93734 69 5 89 255 
32.3573 19.4753 5.48256 70 10 93 255 
26.6766 16.043 4.21434 71 13 96 255 
26.7176 16.0299 3.91953 71 17 100 255 
33.2625 19.9244 4.52052 70 7 90 255 
32.6677 19.6621 4.13534 70 11 94 255 
32.5387 19.5453 3.75523 70 7 90 255 
25.8203 15.4854 2.69235 70 11 94 255 
29.4376 17.6124 2.74799 70 7 90 255 
32.6756 19.6592 2.75353 70 8 92 255 
28.9576 17.3873 2.11912 71 19 101 255 
29.2433 17.5175 1.81634 71 14 97 255 
47.8627 28.6134 2.44444 69 4 87 255 
47.8233 28.75 2.00708 70 8 92 255 
47.8715 28.7212 1.48136 70 8 92 255 
47.195 28.2599 0.940977 69 5 89 255 
41.7336 24.9295 0.38181 69 5 89 255 
34.4724 20.7157 -0.00701937 69 5 89 255 
25.3675 15.2075 -0.283924 71 13 96 255 
20.534 12.2858 -0.4511 72 32 113 255 
16.1229 9.62337 -0.531034 72 22 104 255 
14.8971 8.94156 -0.631023 72 32 113 255 
13.368 8.00761 -0.710337 72 38 119 255 
11.9301 7.13513 -0.765016 72 37 118 255 
10.9197 6.51512 -0.820051 71 42 122 255 
10.1176 6.07042 -0.856112 60 80 139 255 
9.26079 5.54296 -0.883545 71 42 122 255 
8.57065 5.11984 -0.912077 72 40 120 255 
7.93592 4.73489 -0.93216 71 46 124 255 
7.39392 4.43099 -0.939471 63 72 137 255 
6.96648 4.16807 -0.962285 58 83 139 255 
6.59408 3.93753 -0.983861 62 76 138 255 
6.20826 3.70116 -0.995227 57 85 140 255 
5.89989 3.53146 -1.00433 52 96 141 255 
5.6103 3.35401 -1.01656 52 96 141 255 
5.3281 3.18032 -1.02391 55 90 140 255 
5.04445 3.00734 -1.02709 57 85 140 255 
4.8285 2.8856 -1.03239 61 77 138 255 
4.65355 2.77873 -1.0457 64 69 136 255 
4.43649 2.64812 -1.04836 61 77 138 255 
4.26547 2.54394 -1.05838 65 66 135 255 
4.13186 2.46634 -1.06767 64 70 136 255 
3.96138 2.36354 -1.06836 62 76 138 255 
3.80919 2.27188 -1.07218 68 58 131 255 
3.7075 2.21292 -1.08934 65 66 135 255 
3.56908 2.1262 -1.08601 62 74 137 255 
3.46167 2.06212 -1.09323 67 62 133 255 
3.35569 2.00061 -1.10109 64 69 136 255 
3.23366 1.93162 -1.10359 66 64 134 255 
7.73739 4.5871 2.70203 71 42 122 255 
7.89489 4.68963 2.65566 66 63 133 255 
14.074 8.36691 4.56226 69 55 129 255 
14.6452 8.70606 4.57475 72 31 112 255 
14.125 8.38394 4.26328 72 37 118 255 
14.8094 8.79339 4.28786 72 24 106 255 
0 0 0 68 2 86 255 
0 0 0 68 2 86 255 
0 0 0 69 4 87 255 
0 0 0 69 4 87 255 
0 0 0 69 4 87 255 
0 0 0 69 4 87 255 
32.7472 19.445 6.94874 70 8 92 255 
32.8144 19.4688 6.58368 70 8 92 255 
32.901 19.4895 6.22097 69 5 89 255 
32.9596 19.4847 5.8726 70 7 90 255 
33.3033 19.7674 5.6222 70 8 92 255 
32.5448 19.3012 5.1226 70 7 90 255 
35.9437 21.2665 5.25379 70 8 92 255 
33.3268 19.6861 4.51277 70 7 90 255 
32.7783 19.4557 4.13415 70 11 94 255 
32.3002 19.1332 3.71408 71 14 97 255 
32.721 19.352 3.39946 70 7 90 255 
32.6298 19.2514 3.0349 70 8 92 255 
32.86 19.4965 2.75893 70 8 92 255 
29.2286 17.3069 2.13115 70 10 93 255 
29.2316 17.2677 1.809 71 14 97 255 
0 0 0 68 2 86 255 
61.6877 36.5714 2.57949 69 4 87 255 
61.7727 36.5478 1.90456 69 4 87 255 
47.5259 28.0633 0.944124 70 7 90 255 
42.2365 24.8796 0.385006 69 5 89 255 
35.9452 21.3016 -0.00729251 69 5 89 255 
26.3245 15.5625 -0.293562 70 11 94 255 
20.6761 12.1992 -0.45257 72 23 105 255 
15.8913 9.35339 -0.521507 72 22 104 255 
15.048 8.907 -0.635088 72 31 112 255 
13.3833 7.90562 -0.708561 72 35 116 255 
11.9797 7.06534 -0.765401 72 36 117 255 
10.9448 6.43939 -0.818957 72 40 120 255 
10.1375 5.99806 -0.854664 63 72 137 255 
9.28261 5.47894 -0.882402 71 46 124 255 
8.60962 5.0717 -0.912895 71 42 122 255 
8.02914 4.72395 -0.939687 71 46 124 255 
7.42781 4.38958 -0.940338 57 85 140 255 
6.98508 4.12121 -0.961343 57 86 140 255 
6.60957 3.89197 -0.982591 59 81 139 255 
6.22061 3.65698 -0.99359 57 85 140 255 
5.9223 3.4957 -1.00448 53 95 141 255 
5.61205 3.30848 -1.01318 53 94 141 255 
5.34922 3.14857 -1.02423 53 95 141 255 
5.05346 2.97084 -1.0252 65 66 135 255 
4.85459 2.86091 -1.03419 61 78 138 255 
4.66629 2.74763 -1.04475 64 70 136 255 
4.45941 2.62482 -1.04995 61 77 138 255 
4.28269 2.51872 -1.05879 64 69 136 255 
4.12504 2.42807 -1.06204 65 68 135 255 
3.97077 2.33623 -1.06701 62 76 138 255 
3.83311 2.25438 -1.075 63 71 136 255 
3.69594 2.17537 -1.082 67 61 132 255 
3.56787 2.09593 -1.08171 63 71 136 255 
3.4418 2.02177 -1.08302 69 55 129 255 
3.31065 1.94632 -1.08238 66 63 133 255 
3.24545 1.91175 -1.10359 68 59 132 255 
15.1124 8.8345 5.25849 72 31 112 255 
13.575 7.95139 4.54982 71 45 123 255 
13.5617 7.9501 4.38027 70 50 126 255 
14.3201 8.39429 4.45701 72 36 117 255 
14.2171 8.32107 4.27559 72 40 120 255 
14.8312 8.68373 4.27868 68 59 132 255 
15.1277 8.85392 4.18551 72 33 115 255 
15.1403 8.85738 4.01739 69 5 89 255 
0 0 0 68 2 86 255 
46.7307 27.35 11.3807 69 5 89 255 
0 0 0 69 4 87 255 
34.8076 20.3307 7.68957 70 7 90 255 
33.1215 19.3933 7.00277 70 7 90 255 
32.7231 19.1442 6.54168 71 17 100 255 
35.0527 20.4746 6.60394 70 7 90 255 
33.2604 19.3881 5.9049 70 8 92 255 
32.6442 19.1062 5.49103 69 5 89 255 
33.8406 19.79 5.30734 70 10 93 255 
36.0736 21.0456 5.25379 69 4 87 255 
35.2631 20.5391 4.75781 70 7 90 255 
33.5783 19.653 4.21976 69 5 89 255 
33.4481 19.537 3.83222 70 8 92 255 
32.7229 19.0832 3.38744 70 11 94 255 
32.7758 19.0674 3.03753 69 5 89 255 
33.0091 19.3121 2.76145 70 7 90 255 
36.2164 21.1454 2.63114 70 7 90 255 
0 0 0 69 4 87 255 
0 0 0 69 4 87 255 
0 0 0 69 4 87 255 
61.9354 36.1329 1.9027 69 4 87 255 
48.2986 28.1213 0.956028 70 7 90 255 
0 0 0 68 2 86 255 
36.2946 21.2088 -0.00733684 70 8 92 255 
26.6208 15.518 -0.295798 71 16 99 255 
20.4939 11.9228 -0.446972 72 23 105 255 
17.2392 10.0048 -0.563715 72 28 110 255 
15.1196 8.82457 -0.635814 72 31 112 255 
13.4885 7.85654 -0.711567 72 35 116 255 
12.0357 6.99924 -0.766225 72 41 121 255 
11.0152 6.39014 -0.821274 71 46 124 255 
10.1621 5.92871 -0.853651 62 73 137 255 
9.31863 5.42339 -0.882647 71 42 122 255 
8.65092 5.02478 -0.913987 72 40 120 255 
8.03216 4.65961 -0.936676 71 42 122 255 
7.45632 4.34492 -0.940555 61 77 138 255 
7.00079 4.07278 -0.960049 55 90 140 255 
6.63933 3.85482 -0.98348 60 80 139 255 
6.24036 3.61725 -0.993181 56 88 140 255 
5.94449 3.45979 -1.00462 52 97 141 255 
5.62882 3.272 -1.01257 50 100 142 255 
5.35052 3.10529 -1.02081 53 94 141 255 
5.08268 2.94619 -1.02744 56 88 140 255 
4.87206 2.83107 -1.03419 62 76 138 255 
4.66268 2.70712 -1.04021 63 71 136 255 
4.47204 2.59544 -1.04916 62 76 138 255 
4.28283 2.48356 -1.05504 65 68 135 255 
4.14577 2.40614 -1.06356 65 68 135 255 
3.98165 2.30986 -1.06611 61 78 138 255 
3.85696 2.23667 -1.07782 63 71 136 255 
3.74947 2.17602 -1.09374 65 66 135 255 
3.5882 2.07836 -1.08399 64 70 136 255 
3.4959 2.0248 -1.09611 67 61 132 255 
3.33502 1.93321 -1.08645 66 63 133 255 
3.23803 1.88071 -1.09712 66 63 133 255 
15.2784 8.80617 5.29733 72 24 106 255 
13.6859 7.90398 4.57066 68 59 132 255 
14.0864 8.14199 4.53354 71 45 123 255 
14.3629 8.30144 4.45442 70 50 126 255 
14.3224 8.26513 4.29192 72 37 118 255 
14.9582 8.63526 4.29994 67 61 132 255 
15.1783 8.75899 4.18458 72 28 110 255 
15.196 8.76529 4.01783 72 32 113 255 
0 0 0 68 2 86 255 
0 0 0 69 4 87 255 
45.091 25.9893 10.4279 69 5 89 255 
35.0398 20.179 7.71336 70 7 90 255 
34.6396 19.9978 7.29767 70 8 92 255 
32.8408 18.9435 6.54185 70 7 90 255 
34.543 19.8937 6.48479 70 8 92 255 
33.1697 19.0635 5.8679 70 7 90 255 
33.4508 19.3038 5.60668 70 8 92 255 
33.5785 19.3612 5.2475 71 13 96 255 
35.0358 20.153 5.08454 70 7 90 255 
34.0655 19.5625 4.57993 69 5 89 255 
34.9442 20.1656 4.37579 69 5 89 255 
33.5734 19.3349 3.83291 69 5 89 255 
32.9836 18.9649 3.40231 71 13 96 255 
32.8991 18.8699 3.03817 71 13 96 255 
0 0 0 69 4 87 255 
0 0 0 69 4 87 255 
0 0 0 68 2 86 255 
0 0 0 68 2 86 255 
0 0 0 69 4 87 255 
63.8604 36.7325 1.95488 69 4 87 255 
48.6046 27.9016 0.958679 69 5 89 255 
0 0 0 68 2 86 255 
36.1329 20.818 -0.0072782 69 4 87 255 
26.7199 15.3569 -0.295846 70 10 93 255 
20.6482 11.8436 -0.448744 72 26 108 255 
17.1449 9.80998 -0.558655 72 29 111 255 
15.1865 8.73911 -0.636358 72 26 108 255 
13.5564 7.78507 -0.712614 72 29 111 255 
12.0732 6.92227 -0.765896 72 33 115 255 
11.0516 6.32094 -0.821081 71 47 125 255 
10.1714 5.85083 -0.851408 62 73 137 255 
9.37075 5.37702 -0.884442 71 47 125 255 
8.68331 4.97259 -0.914169 72 40 120 255 
8.07701 4.61963 -0.938583 72 38 119 255 
7.47509 4.29463 -0.93958 62 73 137 255 
7.02565 4.02975 -0.960049 56 88 140 255 
6.66114 3.81303 -0.983226 61 78 138 255 
6.26674 3.58135 -0.993863 58 83 139 255 
5.96132 3.42079 -1.0039 55 91 141 255 
5.64365 3.23445 -1.01165 51 98 141 255 
5.37889 3.07779 -1.02261 54 92 141 255 
5.11434 2.92277 -1.03019 53 94 141 255 
4.88507 2.79868 -1.03329 61 77 138 255 
4.68431 2.68138 -1.04134 62 73 137 255 
4.48363 2.56552 -1.04816 61 78 138 255 
4.30648 2.46209 -1.05713 63 71 136 255 
4.17741 2.39036 -1.06789 64 69 136 255 
3.99575 2.28539 -1.06611 60 79 138 255 
3.85543 2.20428 -1.07359 63 72 137 255 
3.70636 2.1207 -1.07735 67 61 132 255 
3.60593 2.05918 -1.08551 64 69 136 255 
3.48898 1.99231 -1.09009 66 64 134 255 
3.38609 1.93516 -1.0992 67 62 133 255 
3.25867 1.86605 -1.10022 68 58 131 255 
13.7708 7.82509 4.7579 69 53 129 255 
15.3579 8.74434 5.11101 71 19 101 255 
14.5353 8.2829 4.66157 72 28 110 255 
14.406 8.20885 4.45209 68 57 131 255 
14.6639 8.3427 4.37885 70 50 126 255 
14.5217 8.26492 4.15982 72 29 111 255 
15.1396 8.61327 4.15926 71 13 96 255 
15.1241 8.60057 3.98479 72 29 111 255 
0 0 0 68 2 86 255 
0 0 0 69 4 87 255 
45.2837 25.7315 10.4357 69 5 89 255 
34.7897 19.7516 7.63148 70 10 93 255 
34.8027 19.8083 7.30628 70 11 94 255 
34.8744 19.8323 6.92257 70 8 92 255 
34.1692 19.4001 6.39214 70 8 92 255 
33.6687 19.0765 5.93537 70 7 90 255 
34.0727 19.3849 5.69087 70 7 90 255 
33.9568 19.3027 5.28802 70 8 92 255 
33.7951 19.1644 4.88733 70 11 94 255 
25.2585 14.2997 3.38402 71 14 97 255 
0 0 0 69 4 87 255 
33.1384 18.8145 3.77 71 14 97 255 
33.1167 18.772 3.4041 70 7 90 255 
33.2364 18.7932 3.05861 70 10 93 255 
34.2164 19.4588 2.84226 70 7 90 255 
39.1917 22.2423 2.82725 70 7 90 255 
33.6878 19.0724 2.06269 71 13 96 255 
33.7758 19.0827 1.70056 70 7 90 255 
33.7645 19.1862 1.39686 71 13 96 255 
33.7958 19.1643 1.03093 70 11 94 255 
33.814 19.1361 0.664621 70 10 93 255 
33.8147 19.0892 0.304983 70 10 93 255 
33.7644 19.1784 -0.00677729 70 10 93 255 
12.3515 6.99838 -0.136279 72 33 115 255 
12.3959 7.00942 -0.268458 68 59 132 255 
12.4311 7.01191 -0.403647 68 57 131 255 
12.3845 7.02589 -0.517129 72 40 120 255 
12.4686 7.05899 -0.653142 71 47 125 255 
12.1146 6.84757 -0.765841 72 36 117 255 
11.1067 6.26233 -0.822304 71 42 122 255 
10.2358 5.80455 -0.853796 62 74 137 255 
9.39229 5.31304 -0.883382 71 46 124 255 
8.718 4.92167 -0.914624 71 46 124 255 
8.0532 4.54066 -0.932561 72 37 118 255 
7.5359 4.26828 -0.943914 58 83 139 255 
7.0537 3.98852 -0.960519 57 85 140 255 
6.68527 3.77257 -0.983353 57 86 140 255 
6.29981 3.54915 -0.995636 56 88 140 255 
5.99425 3.39097 -1.00592 49 103 142 255 
5.67458 3.20608 -1.01365 51 98 141 255 
5.3951 3.04327 -1.02212 54 92 141 255 
5.13304 2.89182 -1.03036 52 96 141 255 
4.90215 2.76865 -1.03329 63 71 136 255 
4.70923 2.65742 -1.04324 66 65 134 255 
4.50953 2.54374 -1.05055 62 74 137 255 
4.32321 2.43658 -1.05754 63 71 136 255 
4.17414 2.35461 -1.06334 64 70 136 255 
4.0377 2.27662 -1.07355 61 78 138 255 
3.86888 2.18058 -1.07359 62 76 138 255 
3.72437 2.10078 -1.07882 63 71 136 255 
3.62102 2.03844 -1.08626 62 73 137 255 
3.4818 1.95997 -1.08407 67 61 132 255 
3.39287 1.91151 -1.09757 67 61 132 255 
3.28677 1.85546 -1.10584 69 56 130 255 
15.0611 8.43642 5.1857 71 42 122 255 
14.8776 8.35043 4.93404 71 47 125 255 
14.5523 8.17469 4.65084 69 53 129 255 
14.4705 8.12834 4.4565 71 47 125 255 
14.4962 8.12994 4.31378 70 51 127 255 
14.6534 8.22124 4.18301 71 14 97 255 
15.1998 8.52449 4.16135 72 29 111 255 
15.3007 8.5772 4.01739 72 22 104 255 
0 0 0 68 1 84 255 
45.7222 25.6418 11.0183 70 7 90 255 
45.8163 25.6635 10.522 69 5 89 255 
35.1082 19.6486 7.67476 70 8 92 255 
35.0686 19.6757 7.33662 70 8 92 255 
35.7519 20.042 7.0722 70 7 90 255 
34.8138 19.4846 6.49025 70 7 90 255 
33.635 18.7856 5.90899 70 10 93 255 
35.0671 19.6668 5.83669 70 8 92 255 
34.6158 19.3972 5.372 70 7 90 255 
33.712 18.8448 4.8585 70 7 90 255 
25.3241 14.1323 3.38113 71 14 97 255 
33.48 18.7767 4.16326 70 10 93 255 
33.6753 18.847 3.81785 71 14 97 255 
33.2382 18.5724 3.40481 70 11 94 255 
25.2405 14.0684 2.3148 70 8 92 255 
33.4086 18.729 2.76556 70 7 90 255 
0 0 0 68 2 86 255 
0 0 0 68 2 86 255 
0 0 0 68 2 86 255 
0 0 0 68 2 86 255 
66.4441 37.1411 2.01987 69 5 89 255 
49.3808 27.5471 0.967248 70 7 90 255 
0 0 0 69 4 87 255 
36.8908 20.6559 -0.00737925 69 5 89 255 
27.6702 15.4545 -0.304245 71 13 96 255 
21.2112 11.823 -0.457791 72 24 106 255 
17.112 9.51433 -0.553736 72 31 112 255 
15.5385 8.68964 -0.646593 72 26 108 255 
13.6841 7.63662 -0.714344 72 36 117 255 
12.1555 6.77262 -0.765786 72 38 119 255 
11.1397 6.19115 -0.821918 71 46 124 255 
10.2904 5.75234 -0.855388 66 65 134 255 
9.44213 5.26502 -0.885013 71 45 123 255 
8.73324 4.85985 -0.913077 71 46 124 255 
8.08352 4.49261 -0.932862 72 40 120 255 
7.56108 4.22148 -0.943805 62 76 138 255 
7.07891 3.94565 -0.960637 56 88 140 255 
6.71609 3.73582 -0.984497 55 90 140 255 
6.29549 3.496 -0.991544 55 91 141 255 
6.01495 3.35412 -1.00592 55 91 141 255 
5.69328 3.17072 -1.01349 56 88 140 255 
5.41281 3.00963 -1.02195 54 92 141 255 
5.15241 2.86123 -1.03071 52 97 141 255 
4.91217 2.73469 -1.03185 62 73 137 255 
4.71343 2.62179 -1.04058 63 72 137 255 
4.52762 2.51745 -1.05115 63 71 136 255 
4.32953 2.40526 -1.05546 62 74 137 255 
4.18253 2.32563 -1.06182 66 64 134 255 
4.05245 2.25227 -1.07378 59 82 139 255 
3.88134 2.15633 -1.07335 63 71 136 255 
3.76601 2.09391 -1.08714 66 65 134 255 
3.61824 2.00774 -1.08171 65 68 135 255 
3.5081 1.94653 -1.08852 64 70 136 255 
3.38182 1.87804 -1.09024 67 61 132 255 
3.28133 1.82592 -1.10022 66 64 134 255 
15.017 8.29108 5.1529 70 52 128 255 
15.0479 8.32502 4.97349 68 58 131 255 
14.6763 8.1263 4.67446 70 52 128 255 
14.6468 8.10957 4.49539 70 52 128 255 
14.7025 8.12747 4.36026 72 28 110 255 
15.1825 8.39603 4.31927 68 58 131 255 
15.3617 8.49177 4.19131 72 32 113 255 
15.4529 8.53831 4.04351 72 23 105 255 
0 0 0 68 1 84 255 
0 0 0 69 4 87 255 
0 0 0 69 4 87 255 
34.9821 19.2971 7.62117 71 13 96 255 
35.7878 19.7915 7.46154 70 8 92 255 
35.2514 19.4782 6.94943 70 7 90 255 
33.6493 18.5627 6.2518 71 16 99 255 
23.5761 12.9784 4.12777 71 14 97 255 
23.5493 13.018 3.90626 72 22 104 255 
34.2961 18.9425 5.30425 70 7 90 255 
25.3638 13.9746 3.64294 72 28 110 255 
33.6017 18.4822 4.47108 71 13 96 255 
35.748 19.7614 4.43013 70 8 92 255 
35.2271 19.4327 3.98019 70 10 93 255 
33.3629 18.3743 3.40597 69 5 89 255 
25.3063 13.9022 2.31296 71 17 100 255 
0 0 0 68 2 86 255 
40.0805 22.1009 2.87158 70 7 90 255 
0 0 0 68 1 84 255 
0 0 0 69 4 87 255 
67.6885 37.3717 2.78114 70 7 90 255 
0 0 0 68 2 86 255 
49.8056 27.3847 0.972259 69 4 87 255 
0 0 0 68 2 86 255 
12.3728 6.82839 -0.0024665 70 7 90 255 
27.676 15.2357 -0.303276 70 8 92 255 
21.2772 11.6892 -0.457659 72 24 106 255 
17.1929 9.42164 -0.554471 72 29 111 255 
15.7071 8.65782 -0.651384 72 41 121 255 
13.7237 7.54866 -0.71398 72 40 120 255 
12.2485 6.72627 -0.769028 72 40 120 255 
11.1766 6.1222 -0.821853 66 63 133 255 
10.349 5.70208 -0.857342 63 71 136 255 
9.47513 5.20746 -0.885095 72 40 120 255 
8.75765 4.8033 -0.912531 72 36 117 255 
8.13711 4.45727 -0.935873 71 46 124 255 
7.57029 4.1659 -0.941747 64 70 136 255 
7.11082 3.90644 -0.961697 56 88 140 255 
6.75194 3.70169 -0.986403 61 78 138 255 
6.31682 3.45731 -0.991544 55 90 140 255 
6.03194 3.31525 -1.00534 53 95 141 255 
5.72302 3.14143 -1.01534 51 98 141 255 
5.45107 2.98727 -1.0257 53 95 141 255 
5.16814 2.82861 -1.03036 52 96 141 255 
4.94351 2.71254 -1.03492 60 80 139 255 
4.73804 2.59754 -1.04248 63 72 137 255 
4.54298 2.48962 -1.05115 66 65 134 255 
4.33477 2.37348 -1.05317 64 70 136 255 
4.21984 2.31259 -1.06767 64 70 136 255 
4.04569 2.21613 -1.06836 59 81 139 255 
3.90984 2.14088 -1.07758 63 71 136 255 
3.77623 2.06936 -1.0864 64 69 136 255 
3.63813 1.98967 -1.08399 64 70 136 255 
3.51913 1.92451 -1.08826 63 71 136 255 
3.42198 1.87297 -1.09947 66 64 134 255 
3.28153 1.79976 -1.09656 66 63 133 255 
15.044 8.18596 5.14485 69 55 129 255 
15.1114 8.23943 4.97766 68 59 132 255 
14.6963 8.01995 4.66506 68 57 131 255 
15.0396 8.20691 4.60042 68 59 132 255 
15.789 8.60206 4.66675 69 55 129 255 
15.0702 8.21355 4.27288 71 19 101 255 
0 0 0 68 2 86 255 
10.0938 5.49665 2.63234 57 86 140 255 
0 0 0 68 1 84 255 
48.3795 26.3569 11.5798 69 5 89 255 
0 0 0 69 4 87 255 
35.1327 19.1 7.62829 70 7 90 255 
35.7091 19.4628 7.42008 70 8 92 255 
34.5732 18.8275 6.79283 70 10 93 255 
23.6524 12.8592 4.37972 72 27 109 255 
23.677 12.8453 4.13156 72 24 106 255 
34.5176 18.8056 5.70639 70 7 90 255 
25.5043 13.8831 3.93127 70 11 94 255 
25.4516 13.8202 3.64331 72 31 112 255 
33.6053 18.2165 4.4566 71 16 99 255 
35.3029 19.2334 4.36026 70 10 93 255 
37.2088 20.2291 4.18999 69 4 87 255 
35.4788 19.2568 3.60984 70 7 90 255 
25.3087 13.702 2.30546 71 14 97 255 
34.2219 18.6368 2.81374 70 7 90 255 
24.6282 13.3839 1.75858 72 28 110 255 
0 0 0 68 2 86 255 
52.1262 28.1974 2.59789 69 4 87 255 
65.1356 35.4425 2.66727 69 5 89 255 
65.0026 35.2955 1.96273 70 7 90 255 
49.8356 27.0043 0.969591 70 7 90 255 
46.9036 25.3512 0.418754 69 4 87 255 
12.5779 6.84121 -0.00249896 70 7 90 255 
28.0828 15.2358 -0.306703 70 10 93 255 
21.2509 11.5056 -0.455567 71 19 101 255 
17.1967 9.287 -0.552746 72 32 113 255 
15.8916 8.63283 -0.656828 71 44 122 255 
13.7609 7.45955 -0.713525 72 37 118 255 
12.2737 6.64243 -0.768039 71 44 122 255 
11.2192 6.05635 -0.82224 72 41 121 255 
10.3733 5.63276 -0.856474 63 72 137 255 
9.5069 5.14923 -0.885095 71 44 122 255 
8.78609 4.749 -0.91244 71 45 123 255 
8.18269 4.41718 -0.937981 68 57 131 255 
7.58872 4.11558 -0.94088 63 72 137 255 
7.13728 3.86415 -0.96205 55 90 140 255 
6.79721 3.67245 -0.989706 61 78 138 255 
6.35187 3.42601 -0.993727 56 88 140 255 
6.04521 3.2744 -1.00419 53 95 141 255 
5.7335 3.10155 -1.0138 55 91 141 255 
5.46235 2.95001 -1.0244 55 91 141 255 
5.18887 2.79872 -1.03105 52 97 141 255 
4.97737 2.69152 -1.03853 60 80 139 255 
4.75994 2.57168 -1.0438 63 72 137 255 
4.57887 2.47288 -1.05592 64 70 136 255 
4.34753 2.34591 -1.05275 65 66 135 255 
4.22536 2.28201 -1.0655 65 66 135 255 
4.05921 2.19127 -1.06836 61 78 138 255 
3.9152 2.11269 -1.07547 62 76 138 255 
3.78459 2.04385 -1.08518 65 68 135 255 
3.65623 1.97053 -1.08576 60 80 139 255 
3.53427 1.90471 -1.08931 66 64 134 255 
3.43341 1.85194 -1.09947 65 68 135 255 
3.3094 1.78871 -1.10218 66 64 134 255 
15.0467 8.06815 5.12874 72 35 116 255 
14.6911 7.89375 4.82319 71 42 122 255 
14.7444 7.92917 4.66479 69 53 129 255 
14.9494 8.039 4.55763 70 51 127 255 
15.225 8.17399 4.48512 71 42 122 255 
0 0 0 68 2 86 255 
10.0804 5.41193 2.73204 72 36 117 255 
10.1763 5.46088 2.64507 55 90 140 255 
0 0 0 69 4 87 255 
0 0 0 68 2 86 255 
0 0 0 68 2 86 255 
24.2155 12.973 5.24049 70 10 93 255 
26.0389 13.9856 5.39275 70 8 92 255 
25.5396 13.7055 5.00131 72 22 104 255 
23.7657 12.7325 4.38614 72 33 115 255 
25.8431 13.8159 4.49466 70 8 92 255 
34.4039 18.4708 5.66875 71 13 96 255 
25.2223 13.5296 3.87492 72 23 105 255 
25.4975 13.6431 3.63782 71 17 100 255 
25.5248 13.6343 3.37383 70 10 93 255 
35.9791 19.3165 4.42905 70 7 90 255 
26.5569 14.2276 2.98061 71 17 100 255 
26.3004 14.0669 2.66715 72 23 105 255 
25.65 13.684 2.32885 70 7 90 255 
24.954 13.3917 2.04493 71 19 101 255 
24.7327 13.2447 1.76021 72 36 117 255 
25.5923 13.6709 1.54599 71 13 96 255 
0 0 0 68 2 86 255 
65.3466 35.0394 2.66705 70 7 90 255 
65.2435 34.9096 1.9635 70 7 90 255 
50.2455 26.8289 0.974346 69 5 89 255 
47.6938 25.4014 0.424409 69 4 87 255 
37.3318 20.0092 -0.00739252 69 4 87 255 
27.8847 14.9077 -0.303535 70 10 93 255 
21.4614 11.4498 -0.458564 72 22 104 255 
17.1448 9.12355 -0.549269 72 31 112 255 
15.9522 8.5394 -0.657155 71 45 123 255 
13.8029 7.3731 -0.713342 72 35 116 255 
12.3055 6.5623 -0.767489 72 41 121 255 
11.2562 5.9874 -0.82224 72 41 121 255 
10.4376 5.58501 -0.858934 61 77 138 255 
9.55327 5.09877 -0.886482 71 46 124 255 
8.8177 4.6964 -0.912713 70 50 126 255 
8.19559 4.35941 -0.936375 68 58 131 255 
7.61821 4.07128 -0.941422 60 80 139 255 
7.16874 3.82449 -0.963109 56 88 140 255 
6.82224 3.63208 -0.990087 61 77 138 255 
6.40076 3.40184 -0.998092 57 85 140 255 
6.0617 3.23538 -1.00361 52 96 141 255 
5.73934 3.05934 -1.01149 57 86 140 255 
5.47251 2.91227 -1.02293 50 102 142 255 
5.21464 2.77145 -1.03278 51 99 141 255 
4.9773 2.65214 -1.0351 56 88 140 255 
4.76956 2.5392 -1.04248 62 74 137 255 
4.58271 2.43875 -1.05333 62 73 137 255 
4.36703 2.32194 -1.054 68 59 132 255 
4.24876 2.26109 -1.06789 64 69 136 255 
4.0657 2.16266 -1.06656 61 77 138 255 
3.92295 2.08589 -1.07406 62 76 138 255 
3.80134 2.02287 -1.0864 63 72 137 255 
3.67679 1.95259 -1.08829 57 85 140 255 
3.54675 1.88344 -1.08957 63 72 137 255 
3.44386 1.83038 -1.0992 66 64 134 255 
3.30676 1.76116 -1.09768 67 62 133 255 
9.8195 5.18797 3.33611 70 8 92 255 
14.7308 7.79896 4.82041 69 55 129 255 
14.8004 7.84261 4.66721 71 46 124 255 
15.0103 7.95345 4.56126 68 57 131 255 
14.9848 7.92699 4.39995 68 59 132 255 
10.1207 5.35593 2.85068 71 13 96 255 
0 0 0 68 1 84 255 
10.1545 5.36918 2.63078 71 13 96 255 
13.6172 7.20657 3.39864 70 8 92 255 
35.6847 18.8767 8.4852 70 8 92 255 
24.051 12.7068 5.45018 72 26 108 255 
25.3953 13.4051 5.47791 71 17 100 255 
25.3747 13.4289 5.23803 71 19 101 255 
23.6134 12.4859 4.60904 72 24 106 255 
23.6103 12.4634 4.34327 72 36 117 255 
23.9605 12.6211 4.1537 70 11 94 255 
34.8359 18.4283 5.72119 70 11 94 255 
25.5528 13.5056 3.91289 71 14 97 255 
24.079 12.6947 3.42427 71 19 101 255 
33.988 17.8879 4.47791 69 5 89 255 
26.6834 14.1156 3.27402 71 19 101 255 
26.3867 13.9287 2.95187 72 29 111 255 
26.4092 13.9173 2.66946 71 17 100 255 
25.4741 13.39 2.30538 70 11 94 255 
25.2173 13.3344 2.05976 72 23 105 255 
24.8391 13.1062 1.76202 72 28 110 255 
52.0266 27.3826 3.13264 69 5 89 255 
0 0 0 68 2 86 255 
0 0 0 68 2 86 255 
65.8491 34.7156 1.97528 69 4 87 255 
50.4083 26.5196 0.974329 69 4 87 255 
12.2079 6.406 0.108282 63 72 137 255 
12.2462 6.46733 -0.00241711 72 22 104 255 
12.0932 6.37014 -0.131211 71 13 96 255 
21.6339 11.3719 -0.46075 72 24 106 255 
17.15 8.99172 -0.547657 72 27 109 255 
16.0096 8.44416 -0.657373 72 41 121 255 
13.8426 7.28547 -0.713069 72 40 120 255 
12.288 6.45648 -0.763917 71 44 122 255 
11.2874 5.91544 -0.821853 72 37 118 255 
10.4575 5.51342 -0.857776 63 71 136 255 
9.62936 5.06372 -0.890643 70 51 127 255 
8.85428 4.64638 -0.913532 52 96 141 255 
8.23276 4.31459 -0.937579 70 52 128 255 
7.64393 4.02492 -0.94153 60 80 139 255 
7.19031 3.77951 -0.962874 55 91 141 255 
6.83298 3.58416 -0.988436 57 85 140 255 
6.41976 3.36159 -0.997819 56 88 140 255 
6.08144 3.19813 -1.00361 56 89 140 255 
5.75188 3.02085 -1.01042 56 89 140 255 
5.49203 2.87955 -1.02326 51 99 141 255 
5.25162 2.74991 -1.03674 50 100 142 255 
5.00654 2.62841 -1.0378 56 89 140 255 
4.79809 2.51673 -1.04532 59 81 139 255 
4.59585 2.40967 -1.05294 62 76 138 255 
4.40545 2.30781 -1.05984 62 73 137 255 
4.2444 2.22546 -1.06334 65 66 135 255 
4.07544 2.13586 -1.06566 65 68 135 255 
3.93137 2.05953 -1.07288 64 69 136 255 
3.7862 1.9851 -1.07858 64 69 136 255 
3.69728 1.93448 -1.09082 61 78 138 255 
3.57876 1.87238 -1.09585 63 71 136 255 
3.45417 1.80877 -1.09892 63 72 137 255 
3.31495 1.73949 -1.09684 68 58 131 255 
15.4988 8.06729 5.2487 72 20 103 255 
15.0509 7.85059 4.90932 70 51 127 255 
14.8867 7.77171 4.67929 70 52 128 255 
15.4784 8.0802 4.68833 72 29 111 255 
16.0374 8.35829 4.69388 72 35 116 255 
10.1275 5.28027 2.84343 71 19 101 255 
0 0 0 68 1 84 255 
0 0 0 69 4 87 255 
35.6791 18.6029 8.87626 70 8 92 255 
35.2288 18.3598 8.34985 70 10 93 255 
24.1016 12.5449 5.44409 71 17 100 255 
24.3206 12.6476 5.22925 71 16 99 255 
26.0044 13.5586 5.35075 70 8 92 255 
23.7386 12.3663 4.61856 72 38 119 255 
23.928 12.444 4.38758 72 29 111 255 
23.8147 12.3582 4.11519 71 14 97 255 
23.8555 12.4329 3.90526 72 22 104 255 
23.9282 12.4598 3.65235 72 35 116 255 
24.152 12.5444 3.42364 72 27 109 255 
26.7395 13.8641 3.51164 70 10 93 255 
26.5473 13.8358 3.24685 72 28 110 255 
26.477 13.7693 2.95246 72 26 108 255 
26.4684 13.7417 2.66688 70 8 92 255 
25.5611 13.2362 2.30586 72 22 104 255 
25.2394 13.1485 2.05494 72 27 109 255 
24.9642 12.9771 1.76522 72 20 103 255 
53.0127 27.4876 3.1818 69 5 89 255 
0 0 0 68 2 86 255 
0 0 0 68 2 86 255 
0 0 0 69 4 87 255 
50.5834 26.2167 0.974586 70 7 90 255 
12.2283 6.32133 0.108117 55 90 140 255 
12.2155 6.3556 -0.00240332 66 63 133 255 
12.109 6.28384 -0.130961 71 47 125 255 
12.1377 6.28543 -0.257677 72 35 116 255 
12.2296 6.31657 -0.389286 71 42 122 255 
12.1665 6.32199 -0.497966 71 45 123 255 
12.1772 6.31386 -0.625273 70 50 126 255 
12.1705 6.29972 -0.754191 70 48 126 255 
11.3235 5.84607 -0.821853 70 52 128 255 
10.4779 5.44225 -0.856691 67 62 133 255 
9.66556 5.00729 -0.891133 70 52 128 255 
8.89855 4.60019 -0.91517 66 63 133 255 
8.2299 4.24893 -0.934267 70 52 128 255 
7.64289 3.96467 -0.938388 59 81 139 255 
7.21601 3.73669 -0.963227 56 88 140 255 
6.83282 3.53078 -0.985259 57 85 140 255 
6.43146 3.31759 -0.996455 57 86 140 255 
6.12203 3.17168 -1.00708 52 96 141 255 
5.79839 3.00003 -1.01534 53 94 141 255 
5.51047 2.84625 -1.02342 54 92 141 255 
5.24125 2.70364 -1.0314 52 97 141 255 
5.01908 2.59583 -1.03708 54 92 141 255 
4.82217 2.49175 -1.04721 58 83 139 255 
4.60097 2.37648 -1.05075 62 76 138 255 
4.43083 2.28657 -1.06254 62 73 137 255 
4.28226 2.21192 -1.0694 64 70 136 255 
4.09886 2.11618 -1.06836 64 70 136 255 
3.94911 2.03804 -1.07429 63 72 137 255 
3.7897 1.95738 -1.07613 66 65 134 255 
3.71166 1.91309 -1.09158 60 80 139 255 
3.57131 1.84066 -1.09009 61 77 138 255 
3.46521 1.78754 -1.09892 65 68 135 255 
3.33238 1.72265 -1.09909 64 69 136 255 
15.1833 7.78502 5.12557 72 22 104 255 
14.9194 7.6659 4.85097 67 61 132 255 
14.8596 7.64189 4.65593 71 45 123 255 
15.5431 7.99302 4.693 71 44 122 255 
10.0643 5.16697 2.93632 71 13 96 255 
10.3194 5.30005 2.88813 72 41 121 255 
0 0 0 68 1 84 255 
25.8161 13.2475 6.64571 70 7 90 255 
23.4804 12.0599 5.82294 72 27 109 255 
25.9698 13.3324 6.13579 71 16 99 255 
10.464 5.3652 2.35614 57 86 140 255 
10.4062 5.33077 2.2304 70 51 127 255 
25.6855 13.1925 5.26836 72 22 104 255 
24.0174 12.3247 4.65801 72 32 113 255 
27.2666 13.9684 4.98394 71 14 97 255 
23.8619 12.1974 4.11034 72 24 106 255 
23.7289 12.1823 3.87221 72 29 111 255 
23.9619 12.291 3.64591 72 37 118 255 
23.8116 12.1827 3.36473 72 27 109 255 
23.828 12.1696 3.11941 71 19 101 255 
26.5283 13.6195 3.23424 72 24 106 255 
26.5689 13.6107 2.95334 70 8 92 255 
26.1372 13.3668 2.62519 71 16 99 255 
25.759 13.1389 2.3164 72 23 105 255 
25.253 12.9593 2.04954 72 22 104 255 
0 0 0 69 4 87 255 
0 0 0 68 2 86 255 
0 0 0 68 2 86 255 
0 0 0 69 4 87 255 
66.9955 34.276 1.9969 70 7 90 255 
12.4467 6.3544 0.239054 69 55 129 255 
12.2517 6.23847 0.107983 65 68 135 255 
12.2303 6.26822 -0.00239861 63 72 137 255 
12.2007 6.23673 -0.131537 72 35 116 255 
13.1522 6.70876 -0.278335 71 46 124 255 
13.2348 6.7332 -0.419959 72 35 116 255 
13.2005 6.75674 -0.53858 68 57 131 255 
13.2353 6.75973 -0.677459 69 55 129 255 
12.4847 6.36552 -0.771226 71 45 123 255 
11.3671 5.78055 -0.822433 64 69 136 255 
10.5111 5.37786 -0.856691 65 66 135 255 
9.69788 4.94879 -0.891296 69 55 129 255 
8.96566 4.56539 -0.919173 71 42 122 255 
8.27267 4.20692 -0.936174 69 56 130 255 
7.68389 3.92629 -0.940446 59 81 139 255 
7.2565 3.70137 -0.965581 55 91 141 255 
6.8517 3.48744 -0.984878 61 77 138 255 
6.44905 3.27672 -0.996045 60 79 138 255 
6.15284 3.1399 -1.00896 55 90 140 255 
5.82109 2.96664 -1.0161 57 86 140 255 
5.53574 2.81641 -1.02488 50 101 142 255 
5.25687 2.67098 -1.03123 53 95 141 255 
4.98583 2.53998 -1.02697 61 78 138 255 
4.79711 2.44162 -1.0385 63 71 136 255 
4.60324 2.34198 -1.04796 61 78 138 255 
4.43954 2.25668 -1.06129 64 69 136 255 
4.30184 2.1887 -1.07092 62 74 137 255 
4.12218 2.09629 -1.07107 65 68 135 255 
3.96241 2.01421 -1.07453 66 64 134 255 
3.81633 1.94156 -1.08029 65 68 135 255 
3.71815 1.88765 -1.09006 64 70 136 255 
3.58856 1.82177 -1.09192 62 74 137 255 
3.47268 1.7645 -1.09784 66 65 134 255 
3.3446 1.70304 -1.09965 65 68 135 255 
15.0384 7.59457 5.06084 71 47 125 255 
14.9079 7.54471 4.83208 70 50 126 255 
15.0016 7.59889 4.68573 70 48 126 255 
15.2567 7.72774 4.59212 68 59 132 255 
16.2208 8.20235 4.71775 72 24 106 255 
10.1604 5.13983 2.83474 65 68 135 255 
10.1191 5.11683 2.70765 51 99 141 255 
10.2072 5.15893 2.61939 58 84 140 255 
10.2656 5.19322 2.53783 71 16 99 255 
10.3776 5.24747 2.44424 50 101 142 255 
10.5422 5.32388 2.36636 60 79 138 255 
10.5887 5.34248 2.26244 72 38 119 255 
24.1463 12.2153 4.93721 71 13 96 255 
24.1401 12.2011 4.66719 71 16 99 255 
27.3456 13.7977 4.98282 71 19 101 255 
23.8321 11.9983 4.09245 72 27 109 255 
23.5771 11.9222 3.83543 72 40 120 255 
24.4526 12.3538 3.70896 72 22 104 255 
23.9258 12.0565 3.37035 72 32 113 255 
24.1338 12.1397 3.14964 71 14 97 255 
25.9912 13.1429 3.15887 72 22 104 255 
26.2379 13.2385 2.90747 72 20 103 255 
26.0417 13.117 2.60747 70 10 93 255 
25.6904 12.9058 2.30306 72 28 110 255 
25.503 12.8905 2.06336 70 11 94 255 
37.0296 18.6754 2.60196 69 4 87 255 
54.0588 27.1935 3.22432 69 4 87 255 
0 0 0 68 2 86 255 
0 0 0 68 2 86 255 
66.3145 33.4158 1.97045 69 5 89 255 
12.4774 6.27386 0.2389 64 70 136 255 
12.3613 6.19903 0.108612 66 64 134 255 
12.3265 6.22234 -0.00240995 65 68 135 255 
13.1837 6.6375 -0.141693 72 29 111 255 
13.2369 6.64992 -0.279258 70 48 126 255 
13.2579 6.64291 -0.419394 72 32 113 255 
13.2506 6.68012 -0.538943 72 41 121 255 
13.2872 6.68378 -0.678005 71 45 123 255 
12.5333 6.29373 -0.77183 71 44 122 255 
11.4077 5.71338 -0.822819 71 45 123 255 
10.5279 5.30518 -0.855388 69 56 130 255 
9.72717 4.88875 -0.891214 67 61 132 255 
9.03979 4.5335 -0.923904 71 47 125 255 
8.33124 4.17256 -0.939887 68 57 131 255 
7.71494 3.88265 -0.941313 59 81 139 255 
