ply
format ascii 1.0
comment VTK generated PLY File
obj_info vtkPolyData points and polygons: vtk4.0
element vertex 1186
property float x
property float y
property float z
property uchar red
property uchar green
property uchar blue
property uchar alpha
element face 0
property list uchar int vertex_indices
end_header
-5.20882 3.22273 -1.24284 59 82 139 255 
-4.99335 3.09192 -1.25159 61 77 138 255 
-4.78948 2.96322 -1.24962 56 89 140 255 
-4.5693 2.82821 -1.24458 62 76 138 255 
-4.37087 2.70639 -1.24277 64 69 136 255 
-4.22499 2.61411 -1.25349 65 66 135 255 
-4.05727 2.5151 -1.24788 66 64 134 255 
-3.90369 2.42 -1.24616 66 65 134 255 
-3.76964 2.33503 -1.24975 67 61 132 255 
-3.61194 2.23306 -1.24417 68 58 131 255 
-16.8407 10.4892 5.95989 63 72 137 255 
-16.8658 10.4848 5.74332 63 72 137 255 
-16.86 10.4728 5.53043 63 72 137 255 
-16.827 10.4528 5.31901 64 70 136 255 
-16.8252 10.4673 5.14307 62 76 138 255 
-16.8472 10.4773 4.93917 60 79 138 255 
-16.8131 10.4599 4.72829 63 72 137 255 
-16.8459 10.4848 4.54448 65 66 135 255 
-16.8421 10.4738 4.37512 63 72 137 255 
-16.8122 10.4596 4.16176 61 77 138 255 
-16.8086 10.4693 3.9677 61 77 138 255 
-16.7918 10.4674 3.77461 62 74 137 255 
-16.8015 10.4485 3.60988 57 85 140 255 
-16.7954 10.4532 3.4135 57 85 140 255 
-16.78 10.4597 3.2167 56 88 140 255 
-16.7537 10.464 3.02969 60 79 138 255 
-9.99857 6.22033 1.70947 66 65 134 255 
-16.7539 10.4314 2.67191 68 57 131 255 
-9.49292 5.92422 1.40765 72 29 111 255 
-9.77708 6.11125 1.34425 72 40 120 255 
-9.70597 6.0383 1.23978 59 82 139 255 
-9.75317 6.07966 1.13701 65 66 135 255 
-9.91732 6.19148 1.04548 59 81 139 255 
-14.6902 9.19292 1.38821 72 29 111 255 
-13.7715 8.57087 1.17126 72 38 119 255 
-13.0096 8.11272 0.961912 65 68 135 255 
-9.57457 5.98447 0.601616 58 84 140 255 
-9.51098 5.95646 0.491935 56 89 140 255 
-9.41664 5.86514 0.399037 52 96 141 255 
-8.45252 5.27504 0.264384 52 97 141 255 
-7.68925 4.80794 0.155128 51 98 141 255 
-7.67147 4.80815 0.0711092 51 98 141 255 
-7.69201 4.79281 -0.00158179 51 99 141 255 
-7.67299 4.79228 -0.0868436 49 104 142 255 
-7.67038 4.79986 -0.170578 55 91 141 255 
-7.65003 4.79843 -0.255396 60 79 138 255 
-6.912 4.31182 -0.295876 50 102 142 255 
-6.9225 4.32691 -0.372131 47 107 142 255 
-6.91285 4.3275 -0.448833 48 106 142 255 
-6.89929 4.32921 -0.525291 48 106 142 255 
-6.91037 4.31247 -0.591028 46 109 142 255 
-6.90339 4.31831 -0.666595 50 101 142 255 
-6.59025 4.13036 -0.710555 65 68 135 255 
-6.12781 3.84511 -0.72973 55 90 140 255 
-6.13094 3.83051 -0.787895 51 98 141 255 
-6.12668 3.83394 -0.856699 50 102 142 255 
-6.13306 3.84531 -0.927318 51 98 141 255 
-6.12014 3.84327 -0.995091 56 88 140 255 
-6.14579 3.84427 -1.05882 42 118 142 255 
-6.13515 3.84222 -1.12583 50 100 142 255 
-6.10587 3.82974 -1.18932 52 97 141 255 
-6.04381 3.79534 -1.24812 64 70 136 255 
-5.71205 3.5785 -1.2371 55 90 140 255 
-5.42647 3.40236 -1.23571 55 91 141 255 
-5.17068 3.24318 -1.23847 57 86 140 255 
-4.94612 3.10482 -1.2445 59 81 139 255 
-4.76046 2.98581 -1.24681 57 86 140 255 
-4.55351 2.85723 -1.24503 62 73 137 255 
-4.35912 2.73626 -1.24418 62 74 137 255 
-4.18998 2.62814 -1.24786 68 58 131 255 
-4.03685 2.53685 -1.24636 65 66 135 255 
-3.91737 2.46188 -1.25532 66 64 134 255 
-3.75198 2.35607 -1.24867 65 68 135 255 
-3.57621 2.24142 -1.23658 69 53 129 255 
-16.8489 10.6383 5.98578 62 76 138 255 
-16.8524 10.6203 5.76083 62 74 137 255 
-16.8231 10.5935 5.53956 63 72 137 255 
-16.8353 10.6016 5.34209 64 69 136 255 
-16.8032 10.5972 5.15614 63 71 136 255 
-16.8319 10.6115 4.95366 61 78 138 255 
-16.8112 10.6023 4.74594 66 65 134 255 
-16.8233 10.6145 4.55587 66 65 134 255 
-16.8254 10.6071 4.38762 62 73 137 255 
-16.8131 10.6038 4.17801 62 74 137 255 
-16.7913 10.6021 3.9789 63 71 136 255 
-16.7946 10.6128 3.78979 61 77 138 255 
-16.787 10.5829 3.62065 57 86 140 255 
-16.7751 10.5839 3.42251 59 82 139 255 
-16.7815 10.6041 3.22939 61 78 138 255 
-16.7527 10.6067 3.04121 58 84 140 255 
-16.7622 10.5713 2.8769 57 86 140 255 
-13.6443 8.61191 2.18438 46 111 142 255 
-16.6522 10.5346 2.4788 67 61 132 255 
-9.95251 6.30616 1.37367 68 59 132 255 
-9.42151 5.94183 1.20808 48 105 142 255 
-9.44227 5.96662 1.10502 65 66 135 255 
-9.79834 6.20108 1.03693 72 38 119 255 
-10.1496 6.43848 0.962843 69 53 129 255 
-13.3618 8.43009 1.14079 69 55 129 255 
-12.7757 8.07613 0.948262 65 68 135 255 
-9.57141 6.06448 0.603744 55 91 141 255 
-9.5586 6.06825 0.496315 55 90 140 255 
-9.5537 6.03218 0.406406 50 100 142 255 
-8.43013 5.33322 0.264702 50 100 142 255 
-7.65454 4.85182 0.155025 53 95 141 255 
-7.65955 4.86639 0.0712742 51 99 141 255 
-7.66752 4.84312 -0.00158284 53 95 141 255 
-7.64766 4.84194 -0.0868916 53 95 141 255 
-7.64501 4.84951 -0.170673 54 92 141 255 
-7.62129 4.84582 -0.255425 56 89 140 255 
-6.89809 4.36216 -0.29642 47 107 142 255 
-6.88569 4.36288 -0.371585 49 103 142 255 
-6.88617 4.36984 -0.448833 49 104 142 255 
-6.87765 4.37467 -0.525677 49 103 142 255 
-6.87956 4.35212 -0.590666 48 105 142 255 
-6.87255 4.35792 -0.666187 47 108 142 255 
-6.57655 4.17819 -0.711829 63 72 137 255 
-6.09822 3.8789 -0.729028 56 89 140 255 
-6.11823 3.87498 -0.789303 47 107 142 255 
-6.10891 3.87519 -0.857523 49 103 142 255 
-6.1127 3.885 -0.927826 53 95 141 255 
-6.10062 3.88341 -0.995773 54 93 141 255 
-6.10956 3.87396 -1.05665 48 105 142 255 
-6.10979 3.87874 -1.12552 53 95 141 255 
-6.08225 3.86714 -1.18932 55 91 141 255 
-5.98717 3.81119 -1.24123 65 68 135 255 
-5.68584 3.61084 -1.2362 57 85 140 255 
-5.3856 3.42295 -1.23116 59 82 139 255 
-5.14324 3.27011 -1.23668 59 81 139 255 
-4.91873 3.12986 -1.24241 59 82 139 255 
-4.72722 3.00553 -1.24291 54 92 141 255 
-4.53918 2.88721 -1.24594 59 82 139 255 
-4.35127 2.7687 -1.24676 60 80 139 255 
-4.15905 2.64443 -1.24346 65 66 135 255 
-4.02202 2.5621 -1.24661 64 70 136 255 
-3.90382 2.48691 -1.25584 65 66 135 255 
-3.73258 2.37595 -1.24704 66 64 134 255 
-3.56725 2.26641 -1.23827 70 52 128 255 
-16.8253 10.7684 6.00074 62 73 137 255 
-16.8363 10.7551 5.77777 62 73 137 255 
-16.8415 10.7499 5.56721 61 77 138 255 
-16.8123 10.7317 5.35558 63 71 136 255 
-16.7958 10.7371 5.17397 61 78 138 255 
-16.8163 10.7465 4.9684 61 78 138 255 
-16.8048 10.743 4.76267 63 71 136 255 
-16.8219 10.7585 4.57328 65 66 135 255 
-16.7945 10.7322 4.39666 65 68 135 255 
-16.7824 10.7289 4.18665 61 77 138 255 
-16.7879 10.7446 3.99363 61 77 138 255 
-16.7589 10.7347 3.79653 63 71 136 255 
-16.7789 10.7222 3.63304 59 82 139 255 
-16.7588 10.718 3.43255 56 88 140 255 
-16.7585 10.734 3.23758 61 78 138 255 
-16.738 10.7419 3.05046 59 81 139 255 
-16.7495 10.7076 2.88595 55 91 141 255 
-16.739 10.7094 2.69029 58 83 139 255 
-9.50135 6.09275 1.41988 63 71 136 255 
-9.58768 6.15777 1.3285 67 62 133 255 
-9.6948 6.19765 1.24798 62 73 137 255 
-16.0549 10.2835 1.88623 72 28 110 255 
-10.1047 6.48212 1.07354 71 42 122 255 
-13.6917 8.80373 1.30397 72 32 113 255 
-13.1787 8.42809 1.12956 70 51 127 255 
-12.2889 7.87437 0.915701 71 47 125 255 
-9.72979 6.24883 0.616142 55 90 140 255 
-9.60604 6.18139 0.500738 59 81 139 255 
-9.57122 6.1257 0.408742 55 90 140 255 
-8.41576 5.39672 0.265285 50 102 142 255 
-7.62378 4.89815 0.155008 56 89 140 255 
-7.62955 4.9133 0.0712742 48 105 142 255 
-7.63935 4.89116 -0.00158319 47 108 142 255 
-7.62538 4.89364 -0.086978 51 98 141 255 
-7.62099 4.90012 -0.170805 54 92 141 255 
-7.59561 4.8952 -0.255566 57 85 140 255 
-6.86362 4.39955 -0.296094 54 92 141 255 
-6.85879 4.40505 -0.371585 49 104 142 255 
-6.85838 4.41147 -0.448778 54 92 141 255 
-6.85655 4.42058 -0.526128 51 98 141 255 
-6.85693 4.39695 -0.591028 47 107 142 255 
-6.85658 4.40701 -0.667248 44 115 142 255 
-6.54241 4.21307 -0.710919 63 71 136 255 
-6.07013 3.91355 -0.728526 55 91 141 255 
-6.09267 3.91137 -0.789087 51 98 141 255 
-6.08335 3.91152 -0.857287 51 99 141 255 
-6.09375 3.92566 -0.928588 51 98 141 255 
-6.08167 3.924 -0.996591 55 90 140 255 
-6.08234 3.90923 -1.05607 48 106 142 255 
-6.08754 3.91722 -1.12583 53 94 141 255 
-6.05675 3.90332 -1.189 58 83 139 255 
-5.96201 3.84679 -1.24088 61 77 138 255 
-5.66357 3.64566 -1.2362 56 88 140 255 
-5.36119 3.4538 -1.2304 57 86 140 255 
-5.1305 3.30639 -1.23847 58 84 140 255 
-4.90765 3.16529 -1.2445 60 79 138 255 
-4.70459 3.03184 -1.24183 54 93 141 255 
-4.52465 2.91712 -1.24684 61 78 138 255 
-4.31868 2.78534 -1.2423 60 79 138 255 
-4.1403 2.66833 -1.24272 67 62 133 255 
-4.01273 2.59093 -1.24864 62 74 137 255 
-3.86335 2.49458 -1.24773 62 74 137 255 
-3.72602 2.40402 -1.24975 67 61 132 255 
-3.567 2.29709 -1.24305 70 51 127 255 
-16.8143 10.9074 6.02059 64 70 136 255 
-16.8176 10.889 5.79417 60 79 138 255 
-16.831 10.8891 5.58573 62 76 138 255 
-16.8142 10.8788 5.37736 62 73 137 255 
-16.7954 10.8826 5.19432 63 71 136 255 
-16.8006 10.8822 4.98338 60 79 138 255 
-16.8022 10.8872 4.78078 65 66 135 255 
-16.758 10.8631 4.57395 69 53 129 255 
-16.7825 10.8701 4.41088 63 71 136 255 
-16.7713 10.8673 4.20043 62 76 138 255 
-16.7438 10.8618 3.99893 62 76 138 255 
-16.7644 10.8839 3.81283 62 73 137 255 
-16.7558 10.8528 3.64237 58 83 139 255 
-16.7581 10.8629 3.44598 59 82 139 255 
-16.742 10.8689 3.24721 59 81 139 255 
-16.7198 10.8757 3.05925 59 82 139 255 
-16.7018 10.822 2.88911 68 57 131 255 
-16.7345 10.8518 2.70022 55 90 140 255 
-16.7114 10.8615 2.50726 61 78 138 255 
-9.78447 6.3693 1.36116 67 62 133 255 
-9.6666 6.26351 1.24927 68 59 132 255 
-9.70638 6.30151 1.14489 71 45 123 255 
-10.1432 6.59504 1.08191 69 53 129 255 
-13.3769 8.71777 1.27905 72 40 120 255 
-12.9577 8.3992 1.11501 68 59 132 255 
-10.1872 6.61617 0.762103 66 64 134 255 
-9.7691 6.35908 0.62109 57 85 140 255 
-9.71855 6.33846 0.508621 57 85 140 255 
-9.63574 6.25067 0.413128 52 96 141 255 
-8.39841 5.45861 0.265789 50 101 142 255 
-7.60196 4.95029 0.155179 55 90 140 255 
-7.59591 4.95784 0.0712427 51 99 141 255 
-7.60919 4.93794 -0.00158319 54 92 141 255 
-7.59521 4.94033 -0.086978 55 91 141 255 
-7.59748 4.95115 -0.170955 55 90 140 255 
-7.53196 4.91984 -0.254435 61 78 138 255 
-6.84739 4.44866 -0.296565 48 106 142 255 
-6.84922 4.4585 -0.372541 47 107 142 255 
-6.84039 4.45947 -0.449383 48 106 142 255 
-6.84183 4.47075 -0.527093 47 108 142 255 
-6.85407 4.4547 -0.593127 47 108 142 255 
-6.8411 4.45662 -0.66839 50 101 142 255 
-6.47725 4.22756 -0.706643 66 63 133 255 
-6.05433 3.95617 -0.729529 56 89 140 255 
-6.07772 3.95464 -0.790278 51 98 141 255 
-6.0584 3.94823 -0.857169 54 93 141 255 
-6.07121 3.96406 -0.928842 56 89 140 255 
-6.04172 3.95094 -0.993999 57 86 140 255 
-6.07482 3.95728 -1.05896 48 105 142 255 
-6.07084 3.95936 -1.12721 52 96 141 255 
-6.0426 3.94688 -1.19095 58 83 139 255 
-5.93253 3.87953 -1.23968 62 76 138 255 
-5.63698 3.67766 -1.23529 59 81 139 255 
-5.33332 3.48234 -1.22889 57 86 140 255 
-5.10847 3.33673 -1.23807 59 82 139 255 
-4.88322 3.19213 -1.24325 63 71 136 255 
-4.68344 3.05905 -1.24118 59 82 139 255 
-4.50014 2.94056 -1.24503 61 77 138 255 
-4.30069 2.81125 -1.24206 57 86 140 255 
-4.11411 2.68732 -1.23979 66 64 134 255 
-3.99433 2.61391 -1.24788 64 69 136 255 
-3.82213 2.50133 -1.23935 65 66 135 255 
-3.70637 2.42368 -1.24812 68 59 132 255 
-3.53355 2.30634 -1.2363 68 57 131 255 
-16.7967 11.043 6.03843 63 72 137 255 
-16.7986 11.0236 5.81083 62 74 137 255 
-16.7961 11.0133 5.59646 63 71 136 255 
-16.8029 11.0183 5.39525 65 66 135 255 
-16.7946 11.029 5.21492 62 76 138 255 
-16.783 11.0175 4.99811 60 79 138 255 
-16.7782 11.0184 4.79309 66 64 134 255 
-16.7456 11.0016 4.58891 66 63 133 255 
-16.7661 11.0061 4.42424 64 69 136 255 
-16.7574 11.0049 4.2138 62 74 137 255 
-16.7776 11.0306 4.0231 62 76 138 255 
-16.7449 11.0178 3.8237 67 61 132 255 
-16.7316 10.9835 3.6517 59 82 139 255 
-16.7405 10.998 3.45618 56 88 140 255 
-16.7244 11.0039 3.25685 56 88 140 255 
-16.7122 11.0172 3.07017 60 80 139 255 
-13.615 8.94094 2.36459 48 106 142 255 
-16.7189 10.988 2.70854 55 91 141 255 
-16.6842 10.99 2.51325 57 85 140 255 
-16.6789 11.0036 2.32963 69 55 129 255 
-16.7347 10.9897 2.1714 69 55 129 255 
-14.8658 9.78127 1.76051 71 42 122 255 
-14.345 9.45275 1.53625 70 50 126 255 
-11.5656 7.63889 1.11033 70 50 126 255 
-12.3416 8.1078 1.06625 72 38 119 255 
-9.96132 6.55674 0.748203 59 82 139 255 
-9.75574 6.43595 0.622739 55 90 140 255 
-9.72532 6.42827 0.511029 54 92 141 255 
-9.69825 6.3761 0.417477 54 93 141 255 
-8.36643 5.51114 0.265842 50 101 142 255 
-7.58563 5.00621 0.15547 54 93 141 255 
-7.55784 4.99939 0.0711721 54 93 141 255 
-7.58543 4.98893 -0.00158458 50 100 142 255 
-7.56476 4.98684 -0.086978 50 100 142 255 
-7.55695 4.99107 -0.170729 58 84 140 255 
-7.47496 4.94831 -0.25353 63 71 136 255 
-6.83248 4.49883 -0.29711 48 106 142 255 
-6.82673 4.50374 -0.372814 43 117 142 255 
-6.80873 4.4986 -0.449108 50 100 142 255 
-6.81593 4.51375 -0.527222 46 109 142 255 
-6.83077 4.49941 -0.593489 46 109 142 255 
-6.81779 4.50126 -0.668798 47 107 142 255 
-6.45284 4.26832 -0.706825 62 76 138 255 
-6.04487 4.00313 -0.731336 53 95 141 255 
-6.05168 3.99077 -0.790062 49 104 142 255 
-6.0382 3.98807 -0.857758 50 101 142 255 
-6.04843 4.00233 -0.929096 53 94 141 255 
-6.01737 3.98793 -0.993999 54 93 141 255 
-6.04465 3.99066 -1.05795 48 105 142 255 
-6.03819 3.99109 -1.12567 54 93 141 255 
-6.02074 3.98552 -1.19144 58 84 140 255 
-5.87248 3.89191 -1.2321 62 76 138 255 
-5.60036 3.70295 -1.23222 58 83 139 255 
-5.31431 3.51662 -1.22945 57 85 140 255 
-5.08463 3.36585 -1.23727 55 91 141 255 
-4.85621 3.21717 -1.24137 58 83 139 255 
-4.66051 3.08503 -1.24009 56 88 140 255 
-4.48445 2.96973 -1.24571 59 82 139 255 
-4.29552 2.84564 -1.24559 58 83 139 255 
-4.09592 2.71144 -1.2393 67 62 133 255 
-3.95644 2.62393 -1.24105 63 71 136 255 
-3.80429 2.52313 -1.23856 67 62 133 255 
-3.69464 2.4485 -1.24921 69 56 130 255 
-3.54734 2.34651 -1.24614 69 56 130 255 
-16.786 11.184 6.05914 65 66 135 255 
-16.7787 11.1584 5.8275 64 70 136 255 
-16.7675 11.1423 5.60961 64 70 136 255 
-16.7679 11.1431 5.40588 63 71 136 255 
-16.775 11.1641 5.23 64 70 136 255 
-16.7643 11.1531 5.01285 62 73 137 255 
-16.7661 11.1583 4.80912 67 62 133 255 
-16.7354 11.1425 4.60476 67 61 132 255 
-16.7551 11.1466 4.43932 62 73 137 255 
-16.7548 11.1509 4.23026 64 69 136 255 
-16.766 11.1708 4.03665 63 71 136 255 
-16.7064 11.14 3.83045 69 55 129 255 
-16.7335 11.1323 3.66696 59 82 139 255 
-16.7244 11.1349 3.46689 58 84 140 255 
-16.6985 11.1343 3.26504 59 82 139 255 
-16.6731 11.1388 3.07548 62 73 137 255 
-16.7259 11.1314 2.91669 57 85 140 255 
-16.69 11.1162 2.71484 57 85 140 255 
-16.6981 11.1467 2.52561 55 91 141 255 
-16.6681 11.1438 2.33762 63 72 137 255 
-16.7059 11.1181 2.17646 68 57 131 255 
-14.6408 9.76244 1.74092 70 51 127 255 
-13.6696 9.1285 1.46989 72 40 120 255 
-11.4125 7.63874 1.10011 68 58 131 255 
-11.483 7.645 0.996104 66 65 134 255 
-9.8578 6.57565 0.743444 55 90 140 255 
-9.75674 6.52288 0.625347 51 98 141 255 
-9.72221 6.51228 0.512956 61 78 138 255 
-9.75375 6.49866 0.421575 55 91 141 255 
-8.32747 5.55904 0.265683 50 101 142 255 
-7.55228 5.05099 0.155419 54 93 141 255 
-7.55111 5.06181 0.0713998 53 95 141 255 
-7.56467 5.04203 -0.00158668 50 102 142 255 
-7.54483 5.04039 -0.0871028 49 103 142 255 
-7.51954 5.03289 -0.170578 62 76 138 255 
-7.38718 4.95566 -0.25158 65 68 135 255 
-6.80309 4.53956 -0.297037 52 97 141 255 
-6.79565 4.54332 -0.372632 48 106 142 255 
-6.77685 4.53752 -0.448833 51 99 141 255 
-6.78811 4.55549 -0.527222 49 103 142 255 
-6.80221 4.54069 -0.593416 46 111 142 255 
-6.78507 4.53968 -0.668309 49 103 142 255 
-6.39427 4.28621 -0.703277 65 66 135 255 
-6.01524 4.03682 -0.730734 51 98 141 255 
-6.03204 4.03114 -0.790712 46 111 142 255 
-6.03508 4.03941 -0.860819 52 97 141 255 
-6.03117 4.04434 -0.93024 47 107 142 255 
-5.99854 4.02865 -0.994954 51 98 141 255 
-6.02169 4.02878 -1.05824 46 111 142 255 
-6.02262 4.03411 -1.12736 46 109 142 255 
-6.00846 4.03063 -1.19388 55 91 141 255 
-5.83868 3.92128 -1.23003 61 78 138 255 
-5.57018 3.73232 -1.2306 54 92 141 255 
-5.27796 3.53932 -1.22604 59 81 139 255 
-5.06388 3.39698 -1.23727 58 83 139 255 
-4.83394 3.24527 -1.24075 54 92 141 255 
-4.64231 3.11411 -1.24031 59 82 139 255 
-4.44754 2.98471 -1.24052 57 85 140 255 
-4.27394 2.86923 -1.24441 61 77 138 255 
-4.08807 2.74246 -1.24199 66 64 134 255 
-3.92822 2.64006 -1.23725 68 58 131 255 
-3.79595 2.55128 -1.24092 68 57 131 255 
-3.65078 2.45181 -1.23944 68 59 132 255 
-3.52092 2.36022 -1.24192 69 56 130 255 
-16.7806 11.3297 6.08216 62 76 138 255 
-16.7856 11.3121 5.8539 64 69 136 255 
-16.7651 11.2896 5.63189 63 72 137 255 
-16.7802 11.3002 5.43208 63 71 136 255 
-16.7559 11.3003 5.24557 62 74 137 255 
-16.7527 11.2942 5.03 62 74 137 255 
-16.7457 11.2936 4.82305 65 68 135 255 
-16.7128 11.276 4.61748 68 58 131 255 
-16.7261 11.276 4.44987 64 70 136 255 
-16.7258 11.2803 4.24034 61 77 138 255 
-16.7312 11.2965 4.04491 63 72 137 255 
-16.7102 11.2912 3.84713 67 61 132 255 
-16.6943 11.2545 3.67342 59 81 139 255 
-16.704 11.2699 3.47693 58 83 139 255 
-16.6985 11.283 3.27852 58 84 140 255 
-13.5677 9.18508 2.51302 55 90 140 255 
-16.7016 11.2637 2.92445 55 90 140 255 
-16.6839 11.2605 2.72504 57 86 140 255 
-16.6656 11.2734 2.5311 59 81 139 255 
-16.6487 11.2793 2.34457 62 74 137 255 
-16.6703 11.2426 2.18078 67 62 133 255 
-14.4149 9.7401 1.72113 69 55 129 255 
-13.3675 9.04585 1.44335 71 46 124 255 
-11.2499 7.63028 1.08893 69 55 129 255 
-11.3267 7.64168 0.986598 64 70 136 255 
-9.78585 6.61477 0.741064 54 93 141 255 
-9.75291 6.60727 0.627688 57 85 140 255 
-9.75977 6.62455 0.517073 58 83 139 255 
-9.75428 6.58579 0.423336 64 70 136 255 
-8.29155 5.60891 0.26563 52 97 141 255 
-7.54349 5.11238 0.15588 51 98 141 255 
-7.5257 5.11198 0.0714548 51 98 141 255 
-7.53939 5.09227 -0.0015879 53 94 141 255 
-7.54357 5.10677 -0.0874484 50 102 142 255 
-7.51334 5.09577 -0.171144 56 89 140 255 
-7.3153 4.97279 -0.250166 66 65 134 255 
-6.77345 4.5801 -0.296965 50 100 142 255 
-6.76103 4.58045 -0.372268 50 100 142 255 
-6.77367 4.59583 -0.450482 49 103 142 255 
-6.77488 4.60716 -0.52838 48 105 142 255 
-6.7833 4.58849 -0.594212 49 103 142 255 
-6.76369 4.5857 -0.668961 55 91 141 255 
-6.35138 4.31417 -0.701457 66 63 133 255 
-5.99365 4.07589 -0.731135 55 91 141 255 
-6.01295 4.07198 -0.79147 50 102 142 255 
-6.02826 4.08862 -0.863408 48 105 142 255 
-6.00706 4.08183 -0.930367 52 97 141 255 
-5.99091 4.07708 -0.997819 51 99 141 255 
-6.00669 4.07231 -1.05998 48 106 142 255 
-5.9953 4.06932 -1.1269 55 91 141 255 
-5.97627 4.06243 -1.19242 57 85 140 255 
-5.80474 3.95038 -1.22796 62 73 137 255 
-5.5488 3.76753 -1.23096 55 90 140 255 
-5.25045 3.56778 -1.22472 58 84 140 255 
-5.05754 3.43791 -1.24085 55 91 141 255 
-4.8107 3.27267 -1.23991 55 90 140 255 
-4.60939 3.13321 -1.23663 55 91 141 255 
-4.43639 3.01687 -1.24255 57 85 140 255 
-4.20803 2.8626 -1.23032 68 59 132 255 
-4.07437 2.76968 -1.24297 66 64 134 255 
-3.91195 2.66412 -1.23725 69 55 129 255 
-3.78262 2.57615 -1.2417 68 59 132 255 
-3.62134 2.46442 -1.23456 66 63 133 255 
-3.49605 2.37477 -1.23827 70 52 128 255 
-16.7447 11.4557 6.09453 64 70 136 255 
-16.7563 11.4425 5.86806 62 74 137 255 
-16.768 11.4417 5.65632 63 72 137 255 
-16.752 11.4313 5.44556 63 72 137 255 
-16.7278 11.4313 5.25864 63 72 137 255 
-16.7528 11.4444 5.05102 63 71 136 255 
-16.7275 11.4312 4.83792 64 69 136 255 
-16.6754 11.4004 4.62641 67 62 133 255 
-16.6897 11.401 4.4587 64 70 136 255 
-16.6966 11.4104 4.25062 63 71 136 255 
-16.7158 11.4361 4.05807 63 72 137 255 
-16.6908 11.428 3.85874 67 62 133 255 
-16.7151 11.4183 3.69335 58 84 140 255 
-16.6939 11.4127 3.48934 56 88 140 255 
-16.6958 11.4309 3.29169 60 79 138 255 
-13.5062 9.2648 2.51211 68 57 131 255 
-16.6951 11.409 2.93551 56 89 140 255 
-16.657 11.3918 2.73202 57 86 140 255 
-16.6534 11.4147 2.53983 55 91 141 255 
-16.648 11.4285 2.3543 62 74 137 255 
-16.7061 11.4165 2.19458 68 57 131 255 
-14.1479 9.68669 1.69632 69 56 130 255 
-11.0602 7.5838 1.19921 70 50 126 255 
-11.0287 7.57948 1.072 66 63 133 255 
-11.1544 7.62548 0.975651 62 73 137 255 
-9.74673 6.67582 0.741189 55 90 140 255 
-9.71959 6.67207 0.628167 60 79 138 255 
-9.72059 6.68545 0.51716 64 70 136 255 
-9.71533 6.64664 0.423408 65 68 135 255 
-8.26027 5.66194 0.265736 51 98 141 255 
-7.50456 5.15348 0.155726 55 90 140 255 
-7.49007 5.15523 0.0714155 51 98 141 255 
-7.51047 5.14013 -0.00158842 52 96 141 255 
-7.50962 5.15126 -0.0874196 47 108 142 255 
-7.48934 5.14687 -0.171313 62 76 138 255 
-7.25089 4.99434 -0.249007 67 62 133 255 
-6.74769 4.62327 -0.297074 53 94 141 255 
-6.73856 4.62581 -0.372587 50 102 142 255 
-6.73958 4.63335 -0.450097 49 104 142 255 
-6.74402 4.64694 -0.528187 48 105 142 255 
-6.74268 4.62156 -0.593127 51 99 141 255 
-6.73706 4.62824 -0.669125 59 81 139 255 
-6.32561 4.35363 -0.701548 65 66 135 255 
-5.9931 4.12952 -0.734146 48 106 142 255 
-5.98949 4.10992 -0.791687 50 101 142 255 
-5.97523 4.10641 -0.859406 54 93 141 255 
-5.97455 4.11355 -0.929223 53 94 141 255 
-5.97394 4.11939 -0.999183 53 95 141 255 
-5.98648 4.11245 -1.06084 48 105 142 255 
-5.97998 4.11275 -1.12875 54 93 141 255 
-5.96992 4.11189 -1.19616 51 99 141 255 
-5.76822 3.97754 -1.22538 65 68 135 255 
-5.51829 3.79649 -1.22934 53 95 141 255 
-5.22685 3.59881 -1.22434 56 88 140 255 
-4.98792 3.43552 -1.22892 58 83 139 255 
-4.77684 3.29269 -1.23637 54 93 141 255 
-4.57962 3.15423 -1.23381 56 88 140 255 
-4.40015 3.03188 -1.23759 58 83 139 255 
-4.20239 2.89664 -1.23384 67 62 133 255 
-4.03574 2.77977 -1.23636 65 68 135 255 
-3.89473 2.68752 -1.237 67 61 132 255 
-3.76436 2.59767 -1.24092 66 63 133 255 
-3.61249 2.49096 -1.23673 68 57 131 255 
-3.47905 2.39454 -1.23743 69 56 130 255 
-16.7276 11.5953 6.11409 66 64 134 255 
-16.7403 11.5828 5.88723 62 76 138 255 
-16.7323 11.5685 5.66813 62 74 137 255 
-16.7213 11.5613 5.45853 64 69 136 255 
-16.733 11.5861 5.2825 64 70 136 255 
-16.7062 11.5636 5.05827 62 73 137 255 
-16.7266 11.5818 4.85812 63 71 136 255 
-16.7061 11.5724 4.65454 68 59 132 255 
-16.6852 11.5487 4.47637 65 68 135 255 
-16.6907 11.5572 4.26708 63 72 137 255 
-16.6953 11.5731 4.07025 64 70 136 255 
-16.6599 11.5576 3.86793 66 63 133 255 
-16.6827 11.547 3.70178 59 82 139 255 
-16.6648 11.5436 3.49801 58 84 140 255 
-16.6569 11.5551 3.29795 57 85 140 255 
-16.66 11.5792 3.11186 58 83 139 255 
-16.6492 11.5281 2.93982 56 89 140 255 
-16.6291 11.5231 2.73899 58 84 140 255 
-16.6539 11.5659 2.55069 55 91 141 255 
-16.6355 11.5707 2.36252 59 81 139 255 
-16.6676 11.5408 2.19878 68 57 131 255 
-13.5559 9.40405 1.63223 69 55 129 255 
-10.9226 7.58844 1.18933 69 56 130 255 
-10.9452 7.62137 1.06841 67 62 133 255 
-10.9336 7.57338 0.960383 62 73 137 255 
-9.7146 6.74176 0.741878 55 90 140 255 
-9.68831 6.73843 0.628805 58 84 140 255 
-9.68758 6.75068 0.517598 62 73 137 255 
-9.68094 6.71068 0.423696 66 65 134 255 
-8.22948 5.71537 0.265869 52 96 141 255 
-7.46377 5.19314 0.155538 58 83 139 255 
-7.45748 5.20052 0.0714077 54 93 141 255 
-7.47633 5.18441 -0.0015879 54 93 141 255 
-7.46227 5.1864 -0.0872372 55 90 140 255 
-7.45844 5.1933 -0.171332 63 72 137 255 
-7.16355 4.99926 -0.247056 67 62 133 255 
-6.72659 4.66971 -0.2974 49 103 142 255 
-6.72645 4.67848 -0.373497 50 100 142 255 
-6.73724 4.69288 -0.451855 50 100 142 255 
-6.71538 4.68823 -0.528187 52 96 141 255 
-6.72075 4.6674 -0.593706 47 107 142 255 
-6.71999 4.67747 -0.670267 58 83 139 255 
-6.29632 4.39065 -0.701275 64 69 136 255 
-5.97907 4.17419 -0.735551 46 110 142 255 
-5.97559 4.15454 -0.793204 46 110 142 255 
-5.96704 4.15492 -0.861878 45 112 142 255 
-5.95571 4.15467 -0.93024 50 100 142 255 
-5.96154 4.16504 -1.00137 52 96 141 255 
-5.98306 4.16437 -1.06474 45 112 142 255 
-5.96518 4.15671 -1.13075 49 103 142 255 
-5.96642 4.16369 -1.20056 51 98 141 255 
-5.74209 4.01173 -1.22503 67 61 132 255 
-5.47956 3.81959 -1.22591 54 92 141 255 
-5.19742 3.62576 -1.22263 57 85 140 255 
-4.96514 3.46494 -1.22853 56 89 140 255 
-4.74692 3.31522 -1.23387 54 92 141 255 
-4.57379 3.19177 -1.23749 56 88 140 255 
-4.38147 3.05882 -1.23759 58 83 139 255 
-4.1941 2.92905 -1.23666 60 79 138 255 
-4.00588 2.7956 -1.23245 66 63 133 255 
-3.83456 2.68088 -1.22309 67 61 132 255 
-3.73965 2.61463 -1.23804 67 61 132 255 
-3.59162 2.50922 -1.23483 67 62 133 255 
-3.46193 2.4142 -1.23658 70 52 128 255 
-16.7134 11.7379 6.13509 66 64 134 255 
-16.7176 11.7195 5.90446 65 66 135 255 
-16.7249 11.7157 5.68987 64 69 136 255 
-16.741 11.7274 5.48835 65 68 135 255 
-16.6845 11.7047 5.28979 62 74 137 255 
-16.6937 11.7071 5.07615 64 70 136 255 
-16.6831 11.7038 4.86625 64 69 136 255 
-16.6619 11.6937 4.66213 69 56 130 255 
-16.6796 11.6969 4.49403 65 68 135 255 
-16.6771 11.6998 4.28189 61 77 138 255 
-16.6649 11.704 4.08027 64 70 136 255 
-16.6707 11.7172 3.88704 66 65 134 255 
-16.6397 11.6689 3.70806 61 78 138 255 
-16.6574 11.6903 3.51144 59 82 139 255 
-13.5454 9.52022 2.69341 55 91 141 255 
-16.6347 11.7136 3.1205 59 82 139 255 
-16.6446 11.6766 2.9516 58 84 140 255 
-16.6198 11.6682 2.74919 56 88 140 255 
-16.6119 11.6884 2.55519 57 85 140 255 
-16.6096 11.7046 2.369 62 76 138 255 
-16.6013 11.6463 2.19943 72 29 111 255 
-13.2586 9.31882 1.60328 68 59 132 255 
-10.7309 7.55327 1.17347 68 59 132 255 
-10.7418 7.57806 1.05307 64 70 136 255 
-10.8241 7.5962 0.954837 64 70 136 255 
-9.68693 6.811 0.742943 59 81 139 255 
-9.66229 6.80867 0.629816 65 68 135 255 
-9.64843 6.81172 0.51773 68 59 132 255 
-9.59951 6.74181 0.421935 71 44 122 255 
-8.17464 5.75195 0.265232 55 91 141 255 
-7.4285 5.23654 0.15547 61 78 138 255 
-7.42951 5.24906 0.0714469 57 86 140 255 
-7.44601 5.23134 -0.00158825 51 99 141 255 
-7.44257 5.24072 -0.0873812 50 101 142 255 
-7.42317 5.23666 -0.171257 59 81 139 255 
-7.06826 4.99753 -0.244823 66 63 133 255 
-6.70761 4.7178 -0.297836 50 100 142 255 
-6.69517 4.71794 -0.373361 52 97 141 255 
-6.7018 4.72952 -0.451416 52 96 141 255 
-6.6873 4.72993 -0.528252 51 99 141 255 
-6.69525 4.71085 -0.593995 47 107 142 255 
-6.68791 4.71631 -0.669941 55 90 140 255 
-6.25788 4.42115 -0.700002 63 72 137 255 
-5.95335 4.2108 -0.735551 45 112 142 255 
-5.93942 4.18368 -0.791795 46 109 142 255 
-5.94062 4.19088 -0.86176 47 108 142 255 
-5.93172 4.19228 -0.930494 52 96 141 255 
-5.93102 4.19811 -1.00055 50 102 142 255 
-5.96063 4.20329 -1.06532 47 108 142 255 
-5.9557 4.20463 -1.13382 48 106 142 255 
-5.94399 4.2025 -1.20121 50 102 142 255 
-5.71416 4.04461 -1.22434 66 65 134 255 
-5.4528 3.85087 -1.22518 54 93 141 255 
-5.16946 3.65361 -1.22131 58 84 140 255 
-4.93258 3.48742 -1.22574 57 85 140 255 
-4.72649 3.34428 -1.23387 54 93 141 255 
-4.55093 3.21752 -1.23663 58 84 140 255 
-4.34273 3.07158 -1.23195 57 85 140 255 
-4.18875 2.96371 -1.24042 64 70 136 255 
-3.99657 2.82573 -1.23489 66 65 134 255 
-3.84725 2.72505 -1.23245 67 61 132 255 
-3.70857 2.62693 -1.23306 66 63 133 255 
-3.56751 2.52509 -1.23185 66 63 133 255 
-3.43999 2.43041 -1.23405 70 52 128 255 
-16.7144 11.8925 6.16214 65 66 135 255 
-16.7175 11.8731 5.93002 62 73 137 255 
-16.714 11.8616 5.71081 64 69 136 255 
-16.7089 11.8585 5.50157 65 68 135 255 
-16.6747 11.8511 5.30964 63 72 137 255 
-16.7023 11.8666 5.10079 60 79 138 255 
-16.6752 11.8516 4.88507 62 73 137 255 
-16.6797 11.8596 4.68736 68 57 131 255 
-16.676 11.8476 4.51256 63 71 136 255 
-16.6808 11.8558 4.30143 64 70 136 255 
-16.6503 11.847 4.09441 65 66 135 255 
-16.6337 11.8444 3.89528 68 57 131 255 
-16.656 11.8335 3.72781 61 78 138 255 
-16.6376 11.8294 3.5225 61 78 138 255 
-13.4779 9.59686 2.69164 67 61 132 255 
-16.6116 11.8505 3.12975 62 73 137 255 
-16.6016 11.7992 2.95678 59 81 139 255 
-16.5866 11.7976 2.75563 60 80 139 255 
-16.5786 11.8178 2.56118 63 72 137 255 
-16.5941 11.8467 2.37711 63 71 136 255 
-13.5491 9.62965 1.80285 69 55 129 255 
-13.0528 9.29437 1.58526 68 57 131 255 
-10.5797 7.54437 1.16198 66 65 134 255 
-10.5476 7.53834 1.03854 66 63 133 255 
-10.6448 7.56827 0.943098 60 79 138 255 
-9.6669 6.88594 0.744633 58 84 140 255 
-9.63415 6.8777 0.630721 64 70 136 255 
-9.60563 6.87021 0.517686 68 58 131 255 
-8.18021 5.8203 0.361114 71 45 123 255 
-8.16361 5.81941 0.266028 52 97 141 255 
-7.40843 5.29074 0.155726 61 77 138 255 
-7.40123 5.29746 0.0714862 57 86 140 255 
-7.40807 5.27287 -0.00158703 51 99 141 255 
-7.41271 5.28803 -0.08741 50 102 142 255 
-7.39985 5.28851 -0.171464 55 90 140 255 
-7.01959 5.028 -0.244201 67 62 133 255 
-6.68831 4.76583 -0.298271 49 103 142 255 
-6.67097 4.76241 -0.373634 54 93 141 255 
-6.6629 4.76359 -0.450756 57 85 140 255 
-6.67438 4.78249 -0.529539 59 82 139 255 
-6.66053 4.74779 -0.593489 53 94 141 255 
-6.66046 4.75842 -0.670104 57 86 140 255 
-6.22091 4.45251 -0.69891 64 70 136 255 
-5.9274 4.24725 -0.735551 48 105 142 255 
-5.93306 4.23391 -0.794396 44 113 142 255 
-5.92368 4.2336 -0.863055 46 109 142 255 
-5.91637 4.2361 -0.932146 52 96 141 255 
-5.92045 4.24539 -1.00314 51 99 141 255 
-5.92829 4.23518 -1.06417 44 113 142 255 
-5.93461 4.24455 -1.13474 50 101 142 255 
-5.90846 4.232 -1.19925 46 111 142 255 
-5.68363 4.07558 -1.22314 63 71 136 255 
-5.44187 3.89342 -1.22807 50 100 142 255 
-5.15014 3.68755 -1.22207 56 88 140 255 
-4.89914 3.50906 -1.22276 52 97 141 255 
-4.70588 3.37322 -1.23387 52 96 141 255 
-4.5192 3.23686 -1.23338 56 89 140 255 
-4.31271 3.09022 -1.22879 58 83 139 255 
-4.14678 2.97237 -1.23337 68 59 132 255 
-3.98547 2.85472 -1.23685 63 71 136 255 
-3.84067 2.75593 -1.23574 66 64 134 255 
-3.68611 2.64513 -1.23097 66 63 133 255 
-3.56212 2.55423 -1.23537 66 64 134 255 
-3.43438 2.45817 -1.23743 68 58 131 255 
-16.6862 12.0273 6.17882 64 69 136 255 
-16.6771 11.999 5.94169 62 74 137 255 
-16.6667 11.9825 5.71967 63 72 137 255 
-16.6797 11.9923 5.5161 64 70 136 255 
-16.6543 11.9911 5.32647 65 66 135 255 
-16.6575 11.9893 5.10948 63 71 136 255 
-16.6788 12.0088 4.9076 61 77 138 255 
-16.6627 12.0022 4.70321 68 57 131 255 
-16.6601 11.9908 4.52807 62 73 137 255 
-16.6649 11.9991 4.31624 63 72 137 255 
-16.652 12.0028 4.11288 65 66 135 255 
-16.638 12.0019 3.91346 68 58 131 255 
-16.6246 11.9653 3.73714 61 78 138 255 
-16.6111 11.9647 3.53236 58 83 139 255 
-16.6015 11.9752 3.33007 62 74 137 255 
-16.5794 11.9817 3.13748 62 73 137 255 
-16.5932 11.9471 2.96827 57 85 140 255 
-16.6168 11.9733 2.7728 56 89 140 255 
-16.5516 11.9524 2.56829 58 84 140 255 
-16.5613 11.9774 2.3829 61 77 138 255 
-13.4002 9.64813 1.79088 68 59 132 255 
-12.8123 9.24213 1.56292 71 46 124 255 
-10.4145 7.5234 1.14889 65 66 135 255 
-10.4163 7.54154 1.03016 63 72 137 255 
-10.5042 7.56582 0.934744 62 73 137 255 
-9.6099 6.93461 0.743506 58 84 140 255 
-9.59015 6.93551 0.630614 64 69 136 255 
-9.57058 6.9343 0.51808 68 57 131 255 
-8.15812 5.88032 0.361725 71 47 125 255 
-8.13504 5.87466 0.266267 54 92 141 255 
-7.38879 5.34547 0.156 57 86 140 255 
-7.3783 5.34982 0.0715805 58 83 139 255 
-7.38207 5.3229 -0.00158842 55 90 140 255 
-7.38985 5.34045 -0.0875252 58 84 140 255 
-7.3794 5.34261 -0.171747 56 89 140 255 
-6.98294 5.06687 -0.244003 66 65 134 255 
-6.6557 4.80444 -0.298126 54 92 141 255 
-6.64891 4.80852 -0.374044 53 95 141 255 
-6.63517 4.80555 -0.450866 61 77 138 255 
-6.64814 4.8257 -0.529796 54 93 141 255 
-6.65068 4.80258 -0.595226 50 102 142 255 
-6.6376 4.80387 -0.670756 54 93 141 255 
-6.17171 4.47482 -0.696453 63 72 137 255 
-5.9117 4.29114 -0.736856 48 106 142 255 
-5.92147 4.28071 -0.796346 45 113 142 255 
-5.90161 4.27278 -0.863644 48 105 142 255 
-5.89589 4.2764 -0.933035 51 99 141 255 
-5.89589 4.2828 -1.00341 55 90 140 255 
-5.9086 4.27612 -1.06532 50 102 142 255 
-5.91246 4.28378 -1.13551 52 97 141 255 
-5.88558 4.27049 -1.19991 49 104 142 255 
-5.64895 4.10343 -1.22107 62 74 137 255 
-5.38284 3.90134 -1.22013 50 102 142 255 
-5.12424 3.71678 -1.22131 54 92 141 255 
-4.88148 3.54193 -1.22375 56 89 140 255 
-4.67323 3.39341 -1.23074 56 88 140 255 
-4.48503 3.25421 -1.22948 57 86 140 255 
-4.30313 3.1235 -1.2315 58 83 139 255 
-4.14263 3.00804 -1.2376 65 66 135 255 
-3.97494 2.88424 -1.23905 62 76 138 255 
-3.81978 2.7766 -1.23447 66 63 133 255 
-3.66434 2.66373 -1.22913 64 69 136 255 
-3.53625 2.56868 -1.23185 68 58 131 255 
-3.40991 2.47244 -1.23405 67 61 132 255 
-19.9195 14.5444 7.40901 72 26 108 255 
-16.6078 12.1045 5.94335 72 28 110 255 
-16.6193 12.1038 5.72879 71 46 124 255 
-16.6292 12.1115 5.52388 69 53 129 255 
-16.6055 12.1113 5.33451 71 47 125 255 
-16.6236 12.1205 5.12181 70 52 128 255 
-16.6189 12.1212 4.91178 68 59 132 255 
-16.6211 12.1277 4.71236 71 44 122 255 
-16.639 12.1314 4.5425 67 62 133 255 
-16.6297 12.1294 4.32632 68 58 131 255 
-16.6248 12.1389 4.12447 66 63 133 255 
-16.583 12.1177 3.91796 69 56 130 255 
-16.5907 12.0961 3.74612 61 77 138 255 
-16.601 12.1129 3.54596 59 81 139 255 
-13.446 9.82501 2.70914 60 79 138 255 
-13.4462 9.84348 2.55592 63 72 137 255 
-13.4781 9.83033 2.42177 54 93 141 255 
-13.5063 9.8584 2.2638 54 92 141 255 
-13.4526 9.84064 2.09675 58 84 140 255 
-13.4507 9.85404 1.944 64 69 136 255 
-13.1584 9.59719 1.7664 67 61 132 255 
-12.2211 8.93013 1.49745 70 51 127 255 
-10.3248 7.5554 1.14408 60 80 139 255 
-10.2999 7.55402 1.02321 60 80 139 255 
-10.3311 7.53784 0.923437 62 76 138 255 
-9.5575 6.98638 0.742755 60 80 139 255 
-9.53372 6.98419 0.62971 63 71 136 255 
-9.53993 7.00176 0.518737 66 65 134 255 
-8.12189 5.93027 0.361725 69 55 129 255 
-8.09723 5.92328 0.266214 56 89 140 255 
-7.35505 5.39012 0.155983 58 83 139 255 
-7.35984 5.40565 0.0717218 55 91 141 255 
-7.36461 5.3793 -0.00159174 59 81 139 255 
-7.38276 5.40459 -0.0878323 56 89 140 255 
-7.35777 5.39606 -0.172011 53 95 141 255 
-6.91467 5.08239 -0.242703 68 59 132 255 
-6.63093 4.84872 -0.298344 62 73 137 255 
-6.61767 4.84805 -0.373953 57 86 140 255 
-6.61602 4.85385 -0.451581 60 80 139 255 
-6.62242 4.86936 -0.530118 57 86 140 255 
-6.62994 4.84977 -0.596022 51 98 141 255 
-6.62408 4.85629 -0.672388 57 85 140 255 
-6.14253 4.51142 -0.696271 64 70 136 255 
-5.88525 4.32733 -0.736856 49 104 142 255 
-5.8967 4.31814 -0.796563 48 105 142 255 
-5.87609 4.3095 -0.863761 49 103 142 255 
-5.88073 4.32072 -0.934814 53 94 141 255 
-5.8703 4.31949 -1.00355 56 88 140 255 
-5.89821 4.32399 -1.06821 53 95 141 255 
-5.88686 4.32056 -1.13566 51 99 141 255 
-5.87993 4.32172 -1.20414 50 101 142 255 
-5.62366 4.13801 -1.22107 59 82 139 255 
-5.36514 3.93895 -1.22157 49 103 142 255 
-5.08313 3.73478 -1.21695 55 91 141 255 
-4.85176 3.56601 -1.22176 56 89 140 255 
-4.65862 3.42666 -1.23241 58 84 140 255 
-4.4815 3.29381 -1.23403 54 92 141 255 
-4.2674 3.13772 -1.22676 59 81 139 255 
-4.13662 3.04261 -1.24136 61 78 138 255 
-3.9392 2.89537 -1.23343 64 70 136 255 
-3.79878 2.79712 -1.23321 64 70 136 255 
-3.64249 2.68216 -1.2273 66 63 133 255 
-3.52585 2.59433 -1.23375 66 64 134 255 
-3.40473 2.5007 -1.23771 68 58 131 255 
-19.8437 14.6766 7.41418 72 36 117 255 
-20.528 15.1554 7.37939 72 35 116 255 
-21.2625 15.686 7.36237 72 29 111 255 
-22.0197 16.2452 7.34745 72 31 112 255 
-22.5075 16.6285 7.26316 72 26 108 255 
-23.3009 17.2089 7.2115 72 27 109 255 
-29.2794 21.6318 8.69269 72 20 103 255 
-30.69 22.6832 8.74047 70 7 90 255 
-29.5992 21.8599 8.11713 71 13 96 255 
-30.8558 22.7969 8.06353 71 13 96 255 
-29.8435 22.0727 7.43737 71 14 97 255 
-29.8033 22.06 7.07327 71 13 96 255 
-0 0 0 68 2 86 255 
-31.4837 23.2693 6.75525 70 7 90 255 
-31.343 23.1987 6.34365 71 14 97 255 
-0 0 0 68 2 86 255 
-16.4557 12.1574 2.97014 72 22 104 255 
-16.4822 12.1863 2.77508 71 14 97 255 
-22.3675 16.5736 3.50202 72 29 111 255 
-11.4454 8.49331 1.66167 72 28 110 255 
-12.9529 9.56964 1.74667 69 56 130 255 
-11.9477 8.84332 1.47057 69 55 129 255 
-10.2638 7.60793 1.14248 63 71 136 255 
-10.2654 7.626 1.02441 61 78 138 255 
-10.267 7.58804 0.921852 62 74 137 255 
-9.53611 7.06093 0.744446 57 85 140 255 
-9.51795 7.06279 0.631519 63 71 136 255 
-9.50721 7.06791 0.519306 67 62 133 255 
-8.08776 5.98177 0.361833 68 57 131 255 
-8.06073 5.97285 0.266214 55 90 140 255 
-7.32103 5.43455 0.155966 56 88 140 255 
-7.33616 5.45787 0.0718161 59 82 139 255 
-7.34111 5.43153 -0.00159383 56 88 140 255 
-7.35027 5.45038 -0.0878419 50 100 142 255 
-7.31971 5.43753 -0.171898 55 91 141 255 
-6.85449 5.10323 -0.241685 68 59 132 255 
-6.61631 4.90062 -0.299033 55 90 140 255 
-6.59662 4.89511 -0.374454 58 83 139 255 
-6.59253 4.89912 -0.45202 57 86 140 255 
-6.59242 4.9099 -0.530118 57 85 140 255 
-6.60006 4.89036 -0.596022 60 80 139 255 
-6.61416 4.9117 -0.674428 58 83 139 255 
-6.09716 4.53595 -0.69427 64 70 136 255 
-5.84582 4.35385 -0.73525 51 98 141 255 
-5.86291 4.34891 -0.795587 51 98 141 255 
-5.8583 4.35199 -0.865056 52 96 141 255 
-5.86206 4.36264 -0.936085 53 95 141 255 
-5.84527 4.35661 -1.00382 51 99 141 255 
-5.87236 4.36069 -1.06836 52 96 141 255 
-5.86262 4.35837 -1.13612 51 99 141 255 
-5.85568 4.35948 -1.20463 48 106 142 255 
-5.5958 4.17067 -1.22055 58 84 140 255 
-5.34008 3.97121 -1.22139 50 101 142 255 
-5.05697 3.76355 -1.21619 55 91 141 255 
-4.82586 3.59279 -1.22077 56 89 140 255 
-4.63908 3.45635 -1.23283 52 96 141 255 
-4.45729 3.31833 -1.23294 53 94 141 255 
-4.2637 3.17549 -1.23127 58 84 140 255 
-4.11787 3.06794 -1.24136 62 74 137 255 
-3.93069 2.92643 -1.23636 64 70 136 255 
-3.77223 2.81344 -1.23017 66 65 134 255 
-3.619 2.69926 -1.22495 67 61 132 255 
-3.50524 2.61246 -1.23212 67 62 133 255 
-3.39779 2.52785 -1.2408 69 56 130 255 
-19.7548 14.7992 7.41476 72 36 117 255 
-20.4415 15.2863 7.38189 72 35 116 255 
-21.1775 15.8248 7.36639 72 32 113 255 
-21.9033 16.3679 7.342 72 33 115 255 
-22.3972 16.7605 7.26065 72 23 105 255 
-23.1878 17.3463 7.20933 70 10 93 255 
-29.9264 22.395 8.92541 70 7 90 255 
-30.1687 22.5854 8.6313 70 8 92 255 
-29.513 22.0774 8.13049 71 14 97 255 
-29.8981 22.3742 7.84899 71 13 96 255 
-30.0339 22.5 7.5191 70 11 94 255 
-30.1295 22.5889 7.18345 71 14 97 255 
-29.7727 22.2717 6.78379 71 14 97 255 
-0 0 0 68 1 84 255 
-31.3706 23.5185 6.37833 70 11 94 255 
-31.6318 23.7582 6.06772 70 10 93 255 
-0 0 0 68 1 84 255 
-22.0974 16.5486 3.73754 72 26 108 255 
-22.113 16.5962 3.47806 72 28 110 255 
-11.3502 8.53115 1.65542 69 55 129 255 
-11.396 8.52792 1.54374 65 68 135 255 
-11.3868 8.53681 1.40795 66 65 134 255 
-10.2241 7.67615 1.14328 63 71 136 255 
-10.2439 7.70802 1.02696 61 77 138 255 
-10.2259 7.65508 0.922356 58 83 139 255 
-9.49979 7.1247 0.745009 56 88 140 255 
-9.4912 7.13366 0.632636 63 72 137 255 
-9.48362 7.14114 0.520401 66 65 134 255 
-8.0685 6.04447 0.362624 64 69 136 255 
-8.03833 6.033 0.266691 56 88 140 255 
-7.30273 5.49078 0.156291 57 85 140 255 
-7.29774 5.49917 0.0717689 62 74 137 255 
-7.30925 5.47767 -0.00159418 60 79 138 255 
-7.30229 5.48457 -0.0876692 56 89 140 255 
-7.2886 5.48414 -0.171954 57 85 140 255 
-6.80549 5.13195 -0.241063 68 57 131 255 
-6.59571 4.94832 -0.299469 52 97 141 255 
-6.56886 4.93729 -0.37459 59 81 139 255 
-6.56473 4.94128 -0.452185 61 78 138 255 
-6.56854 4.95507 -0.530633 59 82 139 255 
-6.56993 4.93077 -0.596022 59 82 139 255 
-6.56398 4.93722 -0.672388 57 86 140 255 
-6.07318 4.57627 -0.694725 65 66 135 255 
-5.81185 4.38425 -0.734347 60 80 139 255 
-5.82816 4.37883 -0.794504 54 93 141 255 
-5.82197 4.38069 -0.863644 55 90 140 255 
-5.83518 4.39853 -0.936085 55 90 140 255 
-5.8208 4.39418 -1.00423 56 88 140 255 
-5.84945 4.39961 -1.06908 52 96 141 255 
-5.83576 4.39426 -1.13612 53 95 141 255 
-5.82882 4.39533 -1.20463 47 107 142 255 
-5.56696 4.20256 -1.21986 57 86 140 255 
-5.31561 4.0039 -1.22139 50 102 142 255 
-5.03143 3.79274 -1.21562 55 90 140 255 
-4.80529 3.62351 -1.22117 56 88 140 255 
-4.60997 3.47886 -1.23074 52 97 141 255 
-4.4345 3.34385 -1.23229 54 92 141 255 
-4.23558 3.19513 -1.22879 58 84 140 255 
-4.05785 3.06212 -1.22891 62 76 138 255 
-3.90414 2.94407 -1.23367 65 66 135 255 
-3.75799 2.83886 -1.23118 64 69 136 255 
-3.62008 2.7348 -1.23097 64 70 136 255 
-3.47992 2.62696 -1.22886 66 65 134 255 
-3.36152 2.53305 -1.23321 67 62 133 255 
-19.672 14.9265 7.41792 72 35 116 255 
-20.3481 15.412 7.38217 72 33 115 255 
-21.1153 15.9812 7.37874 72 31 112 255 
-21.6154 16.3603 7.27899 72 28 110 255 
-22.3264 16.9222 7.2712 72 29 111 255 
-28.8671 21.8723 9.01661 70 10 93 255 
-29.0637 22.0289 8.70825 71 13 96 255 
-28.7689 21.8142 8.26896 70 7 90 255 
-29.2151 22.1354 8.08568 70 11 94 255 
-29.8749 22.6442 7.87923 70 11 94 255 
-0 0 0 68 1 84 255 
-30.8368 23.4161 7.3862 71 14 97 255 
-29.6535 22.4676 6.78792 71 13 96 255 
-0 0 0 68 1 84 255 
-0 0 0 68 1 84 255 
-0 0 0 68 2 86 255 
-0 0 0 68 1 84 255 
-21.8068 16.5408 3.70548 72 36 117 255 
-21.7825 16.558 3.44199 72 32 113 255 
-11.1838 8.51399 1.63874 69 55 129 255 
-11.2602 8.53463 1.53242 67 62 133 255 
-11.228 8.52588 1.39476 63 72 137 255 
-10.1943 7.752 1.14524 58 84 140 255 
-10.1782 7.75683 1.02513 62 73 137 255 
-10.189 7.72552 0.923292 60 80 139 255 
-9.46067 7.18647 0.745385 56 89 140 255 
-9.44804 7.19236 0.632689 61 78 138 255 
-9.43406 7.19495 0.520095 62 73 137 255 
-8.03524 6.09688 0.362803 59 81 139 255 
-8.02105 6.09733 0.267354 51 99 141 255 
-7.27606 5.54094 0.156445 52 96 141 255 
-7.2575 5.53899 0.0717061 62 74 137 255 
-7.27789 5.52423 -0.00159471 56 88 140 255 
-7.2685 5.52928 -0.0876692 59 82 139 255 
-7.26356 5.53543 -0.172162 62 73 137 255 
-6.76434 5.16633 -0.240724 66 63 133 255 
-6.5517 4.97842 -0.298852 49 103 142 255 
-6.53208 4.97267 -0.374226 58 84 140 255 
-6.54223 4.98752 -0.452735 58 84 140 255 
-6.53484 4.99286 -0.530375 57 86 140 255 
-6.53796 4.96978 -0.595877 58 84 140 255 
-6.5407 4.98284 -0.673123 57 85 140 255 
-6.04182 4.61103 -0.694361 62 76 138 255 
-5.79195 4.42526 -0.73525 58 84 140 255 
-5.81068 4.42174 -0.795804 52 96 141 255 
-5.80208 4.42174 -0.864703 50 101 142 255 
-5.8073 4.43365 -0.935958 54 93 141 255 
-5.80081 4.43523 -1.00546 54 92 141 255 
-5.82471 4.43722 -1.06951 49 104 142 255 
-5.81341 4.43358 -1.13705 52 97 141 255 
-5.79704 4.42742 -1.20365 50 102 142 255 
-5.5215 4.22168 -1.21556 60 79 138 255 
-5.29017 4.03584 -1.22121 50 100 142 255 
-4.98231 3.80387 -1.20937 56 88 140 255 
-4.78296 3.65293 -1.22117 51 99 141 255 
-4.58388 3.50351 -1.22949 52 97 141 255 
-4.39451 3.35618 -1.22688 57 85 140 255 
-4.22209 3.22579 -1.23059 61 77 138 255 
-4.03358 3.08283 -1.22726 62 74 137 255 
-3.88061 2.96385 -1.23196 63 72 137 255 
-3.72974 2.85364 -1.22764 65 66 135 255 
-3.61013 2.76224 -1.23332 66 65 134 255 
-3.45839 2.64417 -1.22697 67 62 133 255 
-3.33829 2.54781 -1.2304 68 57 131 255 
-19.6044 15.0656 7.42713 72 32 113 255 
-20.2928 15.567 7.39662 72 35 116 255 
-21.0084 16.104 7.37579 72 33 115 255 
-21.428 16.4263 7.24968 72 31 112 255 
-22.2505 17.0806 7.28049 72 26 108 255 
-0 0 0 68 1 84 255 
-0 0 0 68 2 86 255 
-25.3551 19.4718 7.32193 71 13 96 255 
-30.6971 23.5561 8.53569 70 8 92 255 
-24.8698 19.0919 6.58995 69 4 87 255 
-0 0 0 68 1 84 255 
-30.4045 23.3833 7.31687 70 11 94 255 
-31.5864 24.2386 7.26428 69 5 89 255 
-31.7269 24.3646 6.9025 70 8 92 255 
-0 0 0 68 2 86 255 
-0 0 0 68 2 86 255 
-0 0 0 68 2 86 255 
-21.4762 16.4986 3.66644 72 38 119 255 
-21.4187 16.4898 3.40043 72 32 113 255 
-10.9937 8.47632 1.61848 64 69 136 255 
-11.0712 8.49883 1.51377 67 62 133 255 
-11.0934 8.53152 1.38452 64 69 136 255 
-10.1536 7.81988 1.14604 61 77 138 255 
-10.1335 7.82157 1.02545 65 66 135 255 
-10.1501 7.79457 0.924085 62 76 138 255 
-9.433 7.25717 0.7467 61 78 138 255 
-9.39978 7.24715 0.632423 67 61 132 255 
-9.4016 7.26186 0.520752 69 56 130 255 
-7.99055 6.14059 0.36248 57 86 140 255 
-7.9922 6.15314 0.267646 52 97 141 255 
-7.23955 5.58365 0.156393 61 78 138 255 
-7.22734 5.58647 0.0717454 59 81 139 255 
-7.24861 5.57244 -0.00159575 60 80 139 255 
-7.24632 5.58292 -0.0878131 57 86 140 255 
-7.24054 5.58845 -0.172426 62 76 138 255 
-6.71116 5.19123 -0.239961 64 70 136 255 
-6.51945 5.01731 -0.298779 52 97 141 255 
-6.50065 5.01204 -0.37418 59 81 139 255 
-6.50597 5.0233 -0.45235 58 83 139 255 
-6.49935 5.02919 -0.529989 59 82 139 255 
-6.53185 5.02866 -0.59812 55 91 141 255 
-6.52184 5.03201 -0.674346 61 77 138 255 
-5.97481 4.61818 -0.689903 64 70 136 255 
-5.78122 4.4735 -0.737357 60 80 139 255 
-5.78186 4.45609 -0.795587 53 95 141 255 
-5.79843 4.47546 -0.868234 52 97 141 255 
-5.78783 4.47527 -0.937229 50 102 142 255 
-5.78524 4.47984 -1.0075 50 102 142 255 
-5.79815 4.47348 -1.06966 48 105 142 255 
-5.78609 4.46917 -1.13705 48 106 142 255 
-5.77679 4.46834 -1.20511 49 104 142 255 
-5.4955 4.25548 -1.21556 54 92 141 255 
-5.23806 4.04718 -1.21489 50 102 142 255 
-4.96276 3.83738 -1.21032 56 88 140 255 
-4.74263 3.66842 -1.21659 52 97 141 255 
-4.55998 3.52978 -1.22887 51 99 141 255 
-4.36379 3.37532 -1.22406 57 86 140 255 
-4.19913 3.24925 -1.22969 62 76 138 255 
-4.02381 3.11466 -1.23008 63 72 137 255 
-3.86849 2.99236 -1.23392 66 63 133 255 
-3.72516 2.88654 -1.23194 64 69 136 255 
-3.58091 2.77488 -1.22913 66 63 133 255 
-3.45123 2.67241 -1.23022 68 58 131 255 
-3.31804 2.56472 -1.22871 68 57 131 255 
-19.535 15.2038 7.43605 72 32 113 255 
-20.2204 15.7095 7.40523 72 35 116 255 
-20.9039 16.2285 7.37391 72 29 111 255 
-21.3283 16.5586 7.2502 72 27 109 255 
-22.1468 17.218 7.281 72 20 103 255 
-0 0 0 68 1 84 255 
-25.0408 19.4681 7.57391 70 7 90 255 
-30.1264 23.4313 8.74113 69 5 89 255 
-30.4602 23.6727 8.51005 70 7 90 255 
-24.6023 19.1276 6.55005 71 17 100 255 
-24.8088 19.3086 6.29889 70 7 90 255 
-30.613 23.844 7.40212 70 10 93 255 
-30.3147 23.5596 7.00492 70 8 92 255 
-0 0 0 68 2 86 255 
-0 0 0 68 2 86 255 
-0 0 0 68 2 86 255 
-0 0 0 68 2 86 255 
-21.147 16.453 3.62739 72 29 111 255 
-21.1935 16.5245 3.38071 72 35 116 255 
-10.8608 8.48065 1.60655 68 59 132 255 
-10.9325 8.49948 1.50191 66 63 133 255 
-10.8948 8.48569 1.36621 62 73 137 255 
-10.1164 7.89061 1.14729 60 79 138 255 
-10.1223 7.91246 1.0292 62 73 137 255 
-10.1194 7.87018 0.925669 59 81 139 255 
-9.39853 7.32289 0.747514 59 82 139 255 
-9.3693 7.31575 0.633381 65 66 135 255 
-9.38991 7.34527 0.522591 64 69 136 255 
-7.96139 6.19626 0.362875 54 93 141 255 
-7.97322 6.21682 0.268283 51 99 141 255 
-7.21225 5.63351 0.156547 60 80 139 255 
-7.21891 5.65105 0.0720046 57 85 140 255 
-7.25137 5.64568 -0.00160396 53 95 141 255 
-7.22296 5.63589 -0.0879475 52 96 141 255 
-7.22187 5.64508 -0.172802 60 80 139 255 
-6.67446 5.22861 -0.239791 63 72 137 255 
-6.49878 5.0652 -0.299251 56 88 140 255 
-6.49734 5.07335 -0.375774 56 88 140 255 
-6.49705 5.08034 -0.453888 59 82 139 255 
-6.48643 5.08314 -0.53147 57 85 140 255 
-6.51267 5.07785 -0.599206 53 94 141 255 
-6.50026 5.07929 -0.675326 59 81 139 255 
-5.9197 4.63388 -0.68681 64 70 136 255 
-5.77167 4.52301 -0.739666 53 95 141 255 
-5.75833 4.49454 -0.796129 58 83 139 255 
-5.76851 4.50912 -0.867881 51 99 141 255 
-5.76807 4.51681 -0.938499 52 97 141 255 
-5.7631 4.51953 -1.00846 49 103 142 255 
-5.77449 4.51202 -1.07038 49 103 142 255 
-5.78347 4.52407 -1.14196 50 101 142 255 
-5.75237 4.50613 -1.20577 55 90 140 255 
-5.47006 4.28972 -1.21573 50 101 142 255 
-5.18912 4.06045 -1.2093 47 108 142 255 
-4.93989 3.86836 -1.21051 52 96 141 255 
-4.7316 3.70652 -1.21958 50 101 142 255 
-4.51822 3.542 -1.22345 54 93 141 255 
-4.34377 3.40263 -1.22428 57 85 140 255 
-4.17528 3.27195 -1.22856 60 80 139 255 
-4.02069 3.15188 -1.23502 62 73 137 255 
-3.84089 3.00886 -1.23098 65 68 135 255 
-3.70434 2.90696 -1.23093 66 65 134 255 
-3.55471 2.78965 -1.22599 66 64 134 255 
-3.4537 2.70839 -1.237 66 64 134 255 
-3.30224 2.58503 -1.22871 66 63 133 255 
-19.4541 15.3335 7.44094 72 31 112 255 
-20.1508 15.8546 7.41523 72 33 115 255 
-20.6085 16.2028 7.30466 72 32 113 255 
-21.2794 16.731 7.26835 72 27 109 255 
-25.4105 20.0068 8.39417 71 14 97 255 
-0 0 0 69 4 87 255 
-24.9652 19.6563 7.58738 71 13 96 255 
-0 0 0 68 2 86 255 
-0 0 0 68 2 86 255 
-25.1549 19.8061 6.72941 71 17 100 255 
-24.7052 19.4726 6.30282 71 13 96 255 
-0 0 0 69 4 87 255 
-0 0 0 68 2 86 255 
-25.2432 19.8827 5.54458 72 20 103 255 
-0 0 0 68 1 84 255 
-0 0 0 68 1 84 255 
-0 0 0 68 1 84 255 
-18.0948 14.2574 3.1188 68 58 131 255 
-18.0626 14.2624 2.89518 62 73 137 255 
-10.7751 8.52064 1.60157 67 61 132 255 
-10.8161 8.51597 1.49306 65 66 135 255 
-10.8137 8.52957 1.36257 59 82 139 255 
-10.0842 7.9655 1.14916 61 77 138 255 
-10.068 7.97009 1.02864 65 66 135 255 
