ply
format ascii 1.0
comment VTK generated PLY File
obj_info vtkPolyData points and polygons: vtk4.0
element vertex 1234
property float x
property float y
property float z
property uchar red
property uchar green
property uchar blue
property uchar alpha
element face 0
property list uchar int vertex_indices
end_header
1.96933 9.86876 -0.82382 54 93 141 255 
1.97624 9.85901 -0.918627 49 103 142 255 
1.88935 9.39934 -0.967085 66 65 134 255 
1.74381 8.76327 -0.973817 62 76 138 255 
1.64705 8.24625 -0.996774 66 65 134 255 
1.55294 7.74024 -1.01131 60 80 139 255 
1.47338 7.3167 -1.02769 62 73 137 255 
1.37782 6.90517 -1.02847 58 84 140 255 
1.31099 6.5518 -1.03916 54 92 141 255 
1.25101 6.22971 -1.04849 57 86 140 255 
1.2 5.95912 -1.0631 61 78 138 255 
1.13582 5.67177 -1.06163 58 84 140 255 
1.08342 5.39982 -1.06256 56 89 140 255 
1.03672 5.16263 -1.06845 55 90 140 255 
0.993468 4.93795 -1.07338 63 71 136 255 
0.955229 4.75704 -1.07655 61 78 138 255 
0.925923 4.60649 -1.08822 61 78 138 255 
0.889119 4.4196 -1.0898 61 77 138 255 
0.856057 4.26265 -1.09692 59 81 139 255 
0.831958 4.12454 -1.09992 57 86 140 255 
0.806137 3.99612 -1.10606 57 85 140 255 
0.773086 3.83936 -1.10381 60 80 139 255 
0.744881 3.71576 -1.11034 64 70 136 255 
1.96474 9.63464 2.95376 70 10 93 255 
1.93414 9.52629 2.81124 48 106 142 255 
1.9336 9.54118 2.71261 72 31 112 255 
1.94723 9.60742 2.63215 55 90 140 255 
1.95725 9.62359 2.54893 56 88 140 255 
4.54993 22.39 5.68808 72 26 108 255 
2.76728 13.6061 3.31547 61 77 138 255 
2.80041 13.7554 3.21502 71 44 122 255 
2.76261 13.5956 3.06043 62 74 137 255 
2.75901 13.5648 2.90951 60 80 139 255 
4.81444 23.6082 4.8276 72 28 110 255 
2.85824 13.9895 2.72377 68 59 132 255 
4.78906 23.5683 4.38797 72 22 104 255 
5.19718 25.5294 4.49545 70 11 94 255 
5.14967 25.2071 4.18543 72 22 104 255 
5.16976 25.1913 3.94433 72 23 105 255 
5.17716 25.4556 3.77107 71 16 99 255 
4.63426 22.7439 3.14241 72 37 118 255 
4.83762 23.6166 3.0326 72 22 104 255 
4.6636 22.6847 2.70009 72 28 110 255 
5.44484 26.7717 2.96305 72 22 104 255 
5.63128 27.5633 2.78322 71 17 100 255 
0 0 0 69 4 87 255 
0 0 0 68 2 86 255 
0 0 0 68 2 86 255 
0 0 0 68 2 86 255 
0 0 0 68 2 86 255 
0 0 0 69 4 87 255 
7.0652 34.6461 1.27184 70 10 93 255 
3.84812 18.7852 0.50882 72 32 113 255 
3.64248 17.7035 0.309178 72 35 116 255 
2.84436 13.7505 0.110284 67 61 132 255 
2.78097 13.6251 -0.00242705 63 71 136 255 
2.74043 13.3541 -0.130865 61 78 138 255 
2.52292 12.2405 -0.235605 60 79 138 255 
2.39458 11.5558 -0.333762 65 66 135 255 
2.32201 11.3462 -0.420621 63 71 136 255 
2.15036 10.4602 -0.486794 56 88 140 255 
2.17349 10.5359 -0.592033 55 90 140 255 
2.08272 10.042 -0.661409 60 79 138 255 
2.04083 9.9634 -0.737935 56 88 140 255 
2.03065 9.8604 -0.824147 53 95 141 255 
2.03992 9.8623 -0.920083 50 102 142 255 
1.95123 9.40803 -0.969193 67 62 133 255 
1.79735 8.75143 -0.973709 63 71 136 255 
1.69381 8.21751 -0.994538 63 72 137 255 
1.59839 7.72085 -1.01004 62 73 137 255 
1.51643 7.2988 -1.02646 62 73 137 255 
1.42236 6.90724 -1.03006 58 84 140 255 
1.35077 6.5417 -1.03885 53 94 141 255 
1.29201 6.23544 -1.05077 53 94 141 255 
1.23413 5.94007 -1.06103 60 79 138 255 
1.16702 5.64736 -1.05838 58 84 140 255 
1.11893 5.40461 -1.06483 50 102 142 255 
1.06838 5.15617 -1.06845 58 83 139 255 
1.02653 4.94517 -1.0763 62 76 138 255 
0.984796 4.75301 -1.07699 60 79 138 255 
0.95516 4.60549 -1.08935 59 82 139 255 
0.911281 4.39027 -1.08393 62 76 138 255 
0.880819 4.25067 -1.09521 61 77 138 255 
0.853702 4.10231 -1.09537 60 80 139 255 
0.829659 3.98637 -1.10475 59 81 139 255 
0.797609 3.83926 -1.10516 59 81 139 255 
0.769999 3.7224 -1.11371 61 77 138 255 
2.02363 9.62147 2.95348 72 32 113 255 
2.00496 9.57348 2.82874 64 70 136 255 
2.00867 9.60834 2.73515 58 84 140 255 
2.01326 9.62933 2.64148 50 102 142 255 
2.01984 9.62845 2.55345 51 99 141 255 
2.03853 9.72534 2.47381 61 77 138 255 
2.82715 13.4765 3.28807 64 70 136 255 
2.92602 13.9344 3.26101 71 44 122 255 
2.86561 13.6721 3.08154 63 71 136 255 
2.83958 13.5352 2.90684 61 78 138 255 
2.9463 14.008 2.86811 72 33 115 255 
2.93734 13.94 2.71759 71 45 123 255 
5.23307 24.9674 4.65433 72 20 103 255 
5.03701 23.9887 4.22951 72 20 103 255 
5.22407 24.7945 4.12216 72 28 110 255 
5.393 25.484 3.99527 72 20 103 255 
4.93625 23.5308 3.49035 72 20 103 255 
4.83507 23.007 3.18279 72 28 110 255 
5.13501 24.3087 3.12546 72 22 104 255 
4.81383 22.7081 2.70634 72 32 113 255 
5.65248 26.945 2.98602 72 22 104 255 
5.71761 27.1358 2.74354 71 19 101 255 
5.77581 27.3187 2.49694 72 20 103 255 
0 0 0 68 2 86 255 
0 0 0 68 2 86 255 
0 0 0 68 2 86 255 
0 0 0 68 1 84 255 
10.0789 47.3415 2.12176 69 5 89 255 
8.45007 40.1764 1.47674 70 7 90 255 
3.95939 18.7426 0.508316 72 32 113 255 
3.74668 17.6603 0.308819 72 35 116 255 
2.92263 13.7044 0.110057 69 56 130 255 
2.87894 13.6763 -0.00243927 72 26 108 255 
2.87428 13.5826 -0.133275 69 56 130 255 
2.6011 12.2394 -0.235888 58 84 140 255 
2.4859 11.6367 -0.336533 66 64 134 255 
2.41408 11.4383 -0.424577 63 71 136 255 
2.23978 10.566 -0.49235 61 78 138 255 
2.20071 10.3465 -0.582142 57 85 140 255 
2.13887 10.0036 -0.659735 60 80 139 255 
2.09079 9.89799 -0.734027 51 99 141 255 
2.0936 9.85945 -0.825126 50 101 142 255 
2.10705 9.88076 -0.922994 53 95 141 255 
2.00705 9.38712 -0.96829 65 66 135 255 
1.85287 8.74899 -0.974684 62 74 137 255 
1.74399 8.20599 -0.99442 63 72 137 255 
1.64636 7.71381 -1.01042 66 65 134 255 
1.556 7.26514 -1.02305 63 72 137 255 
1.46245 6.88774 -1.02847 57 86 140 255 
1.39356 6.54585 -1.04085 55 91 141 255 
1.3253 6.20424 -1.04686 55 90 140 255 
1.2685 5.92275 -1.05931 59 82 139 255 
1.2035 5.64875 -1.06001 55 90 140 255 
1.15309 5.40244 -1.06578 48 105 142 255 
1.09427 5.12268 -1.06288 59 82 139 255 
1.05501 4.93017 -1.07442 63 72 137 255 
1.01884 4.76979 -1.08218 62 76 138 255 
0.98279 4.59669 -1.08867 57 85 140 255 
0.936779 4.37794 -1.08228 62 76 138 255 
0.906074 4.24139 -1.09423 60 80 139 255 
0.878249 4.09415 -1.09461 59 81 139 255 
0.853293 3.97743 -1.10371 57 86 140 255 
0.824174 3.84841 -1.10923 60 80 139 255 
0.790222 3.70541 -1.11006 61 77 138 255 
2.44981 11.303 3.4742 70 48 126 255 
5.08558 23.5616 6.971 71 17 100 255 
2.07814 9.64481 2.74911 59 82 139 255 
2.08898 9.69421 2.66275 53 94 141 255 
2.0797 9.61966 2.55445 61 78 138 255 
2.08485 9.651 2.45811 62 76 138 255 
2.90958 13.458 3.28783 60 80 139 255 
3.02445 13.9762 3.27508 66 64 134 255 
2.91502 13.4948 3.04557 68 57 131 255 
2.99888 13.8704 2.98274 68 58 131 255 
3.07208 14.1736 2.90583 58 83 139 255 
2.98238 13.7355 2.68124 66 65 134 255 
2.90381 13.4429 2.50926 70 52 128 255 
5.16035 23.8475 4.21013 71 17 100 255 
5.28815 24.3569 4.05472 72 24 106 255 
5.72488 26.2559 4.12171 72 20 103 255 
4.89024 22.6198 3.35961 72 27 109 255 
5.03047 23.2277 3.21754 72 26 108 255 
4.93462 22.6713 2.91877 72 40 120 255 
4.9571 22.6966 2.70854 72 32 113 255 
5.83704 26.9993 2.99594 72 24 106 255 
5.86711 27.0224 2.73567 72 26 108 255 
0 0 0 68 2 86 255 
5.97294 27.2793 2.23703 70 11 94 255 
0 0 0 68 2 86 255 
0 0 0 68 2 86 255 
0 0 0 68 1 84 255 
0 0 0 68 2 86 255 
8.90981 41.1083 1.51297 70 7 90 255 
4.08112 18.7492 0.509165 72 29 111 255 
3.85006 17.6145 0.308425 72 35 116 255 
3.62932 16.5205 0.132849 72 31 112 255 
3.38615 15.61 -0.00278781 72 37 118 255 
3.1987 14.6706 -0.144141 72 28 110 255 
2.67016 12.1959 -0.23536 60 79 138 255 
2.56886 11.6739 -0.338059 63 72 137 255 
2.50949 11.5395 -0.428897 59 81 139 255 
2.30968 10.5755 -0.493443 55 90 140 255 
2.25902 10.3094 -0.580823 54 93 141 255 
2.25108 10.2213 -0.674988 61 77 138 255 
2.14979 9.87718 -0.733448 55 91 141 255 
2.1547 9.84934 -0.825371 49 103 142 255 
2.17212 9.88807 -0.924905 53 95 141 255 
2.0644 9.37366 -0.968189 65 68 135 255 
1.90079 8.71124 -0.971759 66 63 133 255 
1.7924 8.18641 -0.993361 63 71 136 255 
1.68918 7.68322 -1.00775 66 63 133 255 
1.59671 7.23804 -1.0206 64 69 136 255 
1.50299 6.8709 -1.02731 60 79 138 255 
1.42989 6.5198 -1.03808 58 83 139 255 
1.36122 6.18635 -1.04524 53 95 141 255 
1.30439 5.91293 -1.05896 59 81 139 255 
1.23877 5.64414 -1.06055 55 91 141 255 
1.18453 5.38759 -1.06426 47 107 142 255 
1.12589 5.11683 -1.06308 62 73 137 255 
1.08503 4.92265 -1.07422 64 69 136 255 
1.04892 4.76726 -1.08305 60 79 138 255 
0.998823 4.53539 -1.07558 61 77 138 255 
0.963414 4.37116 -1.08205 59 81 139 255 
0.935207 4.24996 -1.0979 60 79 138 255 
0.904189 4.09247 -1.09562 56 89 140 255 
0.872268 3.94762 -1.0969 58 84 140 255 
0.850882 3.85738 -1.1133 58 83 139 255 
0.810678 3.69018 -1.10696 62 76 138 255 
3.30661 14.8164 4.56025 71 45 123 255 
3.32287 14.9496 4.42897 71 46 124 255 
5.36741 24.1888 6.90391 71 14 97 255 
2.15198 9.69724 2.66716 60 79 138 255 
2.14626 9.64073 2.5635 71 45 123 255 
2.99405 13.4591 3.43266 71 44 122 255 
2.97371 13.3573 3.26763 68 58 131 255 
3.01793 13.5436 3.17797 68 59 132 255 
3.01961 13.5749 3.06776 71 42 122 255 
3.08606 13.8613 2.98479 69 56 130 255 
3.16112 14.1641 2.9078 56 89 140 255 
3.05503 13.6652 2.67112 62 73 137 255 
2.98623 13.4248 2.50926 70 50 126 255 
3.062 13.7419 2.42933 67 62 133 255 
3.04325 13.6136 2.26934 72 28 110 255 
5.2208 23.2575 3.65598 70 11 94 255 
5.15668 23.1632 3.44495 72 20 103 255 
5.05816 22.6818 3.14617 72 36 117 255 
5.0719 22.6329 2.91777 71 47 125 255 
5.04899 22.4555 2.68341 72 37 118 255 
6.13675 27.5656 3.0629 72 20 103 255 
0 0 0 69 4 87 255 
0 0 0 68 2 86 255 
0 0 0 68 2 86 255 
0 0 0 68 2 86 255 
0 0 0 68 1 84 255 
0 0 0 68 2 86 255 
0 0 0 68 2 86 255 
9.30816 41.7083 1.53712 71 13 96 255 
4.18887 18.6916 0.508289 72 37 118 255 
3.95675 17.5847 0.308323 72 29 111 255 
3.72599 16.4775 0.132684 72 35 116 255 
3.47554 15.5606 -0.00278275 72 36 117 255 
3.29216 14.6664 -0.144295 72 28 110 255 
2.74186 12.1656 -0.235097 62 73 137 255 
2.68283 11.8451 -0.343487 67 61 132 255 
2.61519 11.6799 -0.434704 61 78 138 255 
2.39425 10.6488 -0.497541 60 79 138 255 
2.35278 10.4308 -0.588461 59 82 139 255 
2.3239 10.2521 -0.677949 58 83 139 255 
2.21733 9.89495 -0.735764 56 88 140 255 
2.21531 9.83691 -0.825452 52 97 141 255 
2.22902 9.85805 -0.923358 61 78 138 255 
2.11417 9.32685 -0.964677 66 65 134 255 
1.95442 8.70038 -0.971867 66 64 134 255 
1.8391 8.15975 -0.991477 62 73 137 255 
1.73367 7.6611 -1.00622 65 68 135 255 
1.63692 7.20975 -1.01801 65 68 135 255 
1.54578 6.86445 -1.02775 61 77 138 255 
1.4666 6.49645 -1.03577 56 88 140 255 
1.39741 6.17019 -1.04393 58 84 140 255 
1.33606 5.88465 -1.05534 58 83 139 255 
1.27359 5.63739 -1.06073 54 92 141 255 
1.21237 5.35724 -1.05972 50 100 142 255 
1.15856 5.11556 -1.06427 62 73 137 255 
1.1124 4.9035 -1.07151 61 77 138 255 
1.07535 4.74836 -1.08023 57 85 140 255 
1.02922 4.54058 -1.07829 59 82 139 255 
0.995378 4.38792 -1.08769 60 79 138 255 
0.962766 4.25076 -1.09961 63 72 137 255 
0.927995 4.08118 -1.0941 55 90 140 255 
0.900326 3.95913 -1.10161 57 85 140 255 
0.871125 3.83707 -1.10896 60 79 138 255 
0.833094 3.6842 -1.10668 63 72 137 255 
3.39296 14.7762 4.55421 72 35 116 255 
3.44196 15.0488 4.46453 68 57 131 255 
5.31758 23.2876 6.6559 70 11 94 255 
3.12118 13.6676 3.76436 70 48 126 255 
3.10446 13.5523 3.60859 72 36 117 255 
3.07203 13.4206 3.42758 72 24 106 255 
3.03086 13.2307 3.24115 72 38 119 255 
3.08878 13.4716 3.16546 65 66 135 255 
3.16036 13.8074 3.12463 65 66 135 255 
3.10462 13.5521 2.92226 70 50 126 255 
3.1896 13.8902 2.85554 71 19 101 255 
3.13067 13.6108 2.66419 64 69 136 255 
5.84408 25.5323 4.7789 72 23 105 255 
3.17158 13.8334 2.44888 71 45 123 255 
3.14244 13.663 2.28074 69 55 129 255 
5.28467 22.8841 3.60231 71 19 101 255 
5.22512 22.8099 3.39711 72 35 116 255 
5.21496 22.7277 3.1569 72 29 111 255 
5.19307 22.5249 2.90791 72 40 120 255 
5.21018 22.5257 2.69557 72 33 115 255 
6.24561 27.2648 3.03368 71 19 101 255 
0 0 0 68 2 86 255 
0 0 0 69 4 87 255 
0 0 0 68 2 86 255 
0 0 0 68 2 86 255 
0 0 0 68 2 86 255 
0 0 0 68 2 86 255 
0 0 0 68 2 86 255 
9.72493 42.3517 1.56301 71 13 96 255 
4.30393 18.6675 0.508342 72 28 110 255 
4.06165 17.5474 0.308101 72 32 113 255 
3.82023 16.4251 0.132448 72 31 112 255 
3.56379 15.5078 -0.00277717 72 33 115 255 
3.38592 14.6624 -0.144458 72 33 115 255 
3.22878 13.9271 -0.269514 72 35 116 255 
3.08022 13.2225 -0.383971 72 35 116 255 
2.52439 10.9586 -0.408426 68 59 132 255 
2.44581 10.5746 -0.494763 57 85 140 255 
2.40658 10.3724 -0.585989 58 83 139 255 
2.35006 10.0802 -0.667523 61 78 138 255 
2.28876 9.92781 -0.739238 56 89 140 255 
2.28035 9.84352 -0.827166 53 94 141 255 
2.28811 9.83836 -0.922812 56 89 140 255 
2.16978 9.30692 -0.963974 68 58 131 255 
2.00576 8.67951 -0.970892 65 66 135 255 
1.88846 8.14541 -0.991124 62 74 137 255 
1.77997 7.64742 -1.00584 61 78 138 255 
1.68 7.19475 -1.01733 66 65 134 255 
1.58675 6.85001 -1.02702 61 77 138 255 
1.50487 6.48059 -1.0347 55 90 140 255 
1.43323 6.15285 -1.04247 57 85 140 255 
1.37036 5.86866 -1.05397 58 84 140 255 
1.30816 5.62947 -1.06073 55 90 140 255 
1.24833 5.36309 -1.06237 54 93 141 255 
1.18793 5.09977 -1.06248 58 83 139 255 
1.14269 4.89753 -1.07172 63 71 136 255 
1.09893 4.7179 -1.07482 61 78 138 255 
1.05794 4.53797 -1.07919 59 81 139 255 
1.01698 4.35901 -1.08205 58 84 140 255 
0.985751 4.23155 -1.09619 60 80 139 255 
0.959629 4.10367 -1.10169 54 92 141 255 
0.925701 3.95823 -1.10292 59 82 139 255 
0.890932 3.81572 -1.10435 60 79 138 255 
0.856989 3.68462 -1.10837 62 73 137 255 
3.54385 15.0105 4.63304 70 52 128 255 
3.54588 15.0769 4.47925 72 27 109 255 
6.1474 26.1805 7.49335 70 11 94 255 
6.56761 27.9676 7.71387 70 10 93 255 
3.26101 13.8448 3.69175 60 79 138 255 
3.19078 13.5564 3.4672 71 13 96 255 
3.21322 13.6417 3.34659 71 19 101 255 
3.25525 13.8082 3.24918 71 44 122 255 
3.26024 13.8524 3.13927 65 68 135 255 
5.63432 23.9194 5.16513 72 22 104 255 
3.28446 13.9114 2.86399 66 63 133 255 
3.30478 13.9746 2.73933 69 53 129 255 
5.94857 25.2748 4.73743 71 13 96 255 
3.23153 13.7081 2.43018 65 68 135 255 
5.53934 23.4255 3.91599 72 31 112 255 
5.44211 22.9233 3.61368 72 36 117 255 
5.35251 22.7244 3.38921 72 32 113 255 
5.35455 22.6962 3.15703 71 42 122 255 
5.34285 22.5419 2.91428 72 24 106 255 
5.312 22.3406 2.67727 72 22 104 255 
0 0 0 69 4 87 255 
11.3779 48.1146 4.89136 69 5 89 255 
0 0 0 69 4 87 255 
10.7402 45.0654 3.71115 70 7 90 255 
0 0 0 68 2 86 255 
0 0 0 68 2 86 255 
0 0 0 68 2 86 255 
4.87 20.4027 0.919494 69 5 89 255 
10.1086 42.8165 1.58242 71 16 99 255 
4.40848 18.5989 0.507202 72 31 112 255 
4.17202 17.5338 0.308306 72 28 110 255 
3.92349 16.412 0.132535 72 29 111 255 
3.66164 15.4973 -0.00277926 72 35 116 255 
3.47998 14.6589 -0.144631 72 37 118 255 
3.31162 13.8963 -0.269307 72 37 118 255 
3.1606 13.2005 -0.383886 72 36 117 255 
2.98517 12.6048 -0.470454 71 46 124 255 
2.59962 10.9335 -0.512295 64 70 136 255 
2.46902 10.3525 -0.585714 58 84 140 255 
2.47255 10.3189 -0.68432 58 84 140 255 
2.38345 10.0562 -0.749876 57 85 140 255 
2.34532 9.84873 -0.828797 53 94 141 255 
2.34982 9.82995 -0.923358 55 90 140 255 
2.22708 9.2944 -0.964075 67 62 133 255 
2.05415 8.64672 -0.968617 65 66 135 255 
1.94048 8.14237 -0.992184 63 72 137 255 
1.82755 7.63925 -1.00622 62 76 138 255 
1.72851 7.20261 -1.01992 65 68 135 255 
1.62256 6.81416 -1.02312 60 80 139 255 
1.54506 6.47316 -1.03501 59 82 139 255 
1.46522 6.11995 -1.0384 57 85 140 255 
1.40657 5.8611 -1.05414 61 78 138 255 
1.34245 5.62038 -1.06055 57 85 140 255 
1.27642 5.33527 -1.05839 57 86 140 255 
1.21966 5.09429 -1.06288 56 89 140 255 
1.175 4.89994 -1.0738 62 76 138 255 
1.12854 4.71391 -1.07547 58 83 139 255 
1.08826 4.54182 -1.08168 59 81 139 255 
1.04394 4.35363 -1.08228 58 84 140 255 
1.00989 4.21788 -1.09423 58 83 139 255 
0.985468 4.10053 -1.10245 55 90 140 255 
0.949068 3.94872 -1.10187 60 79 138 255 
0.915676 3.81579 -1.10598 57 86 140 255 
0.878911 3.6765 -1.10753 61 77 138 255 
3.63295 14.9764 4.6293 72 23 105 255 
5.65754 23.4101 6.96517 72 24 106 255 
5.66622 23.4828 6.73105 72 20 103 255 
3.18037 13.1795 3.6404 72 31 112 255 
3.35046 13.8434 3.69677 64 69 136 255 
3.25086 13.4414 3.4428 72 40 120 255 
3.34309 13.8126 3.39351 71 47 125 255 
3.30917 13.661 3.21927 67 61 132 255 
3.41128 14.1055 3.20131 62 76 138 255 
5.8215 24.0518 5.20133 72 23 105 255 
3.2981 13.5956 2.80309 66 64 134 255 
3.3355 13.7278 2.69492 66 64 134 255 
3.28186 13.5703 2.54731 72 32 113 255 
3.30862 13.6593 2.42508 62 76 138 255 
2.23539 9.20087 1.54035 48 106 142 255 
5.49507 22.5304 3.55698 72 41 121 255 
5.44388 22.493 3.35961 72 31 112 255 
5.50608 22.7139 3.16414 72 40 120 255 
5.49281 22.5569 2.92052 72 24 106 255 
5.17109 21.17 2.54074 72 32 113 255 
5.09844 21.0657 2.35071 72 26 108 255 
11.5068 47.3602 4.82175 70 7 90 255 
11.5577 47.4272 4.36523 70 11 94 255 
11.0187 45.0074 3.71187 70 8 92 255 
4.952 20.4451 1.51897 63 71 136 255 
4.96715 20.4285 1.31901 60 79 138 255 
4.97403 20.3646 1.11698 67 61 132 255 
4.98724 20.3404 0.918048 71 42 122 255 
4.94503 20.3852 0.754507 67 61 132 255 
4.5341 18.6191 0.508501 72 29 111 255 
4.27715 17.4982 0.308135 72 31 112 255 
4.0277 16.4022 0.132652 72 26 108 255 
3.76208 15.4969 -0.00278328 72 29 111 255 
3.56488 14.6169 -0.144429 72 33 115 255 
3.39611 13.8728 -0.26925 72 33 115 255 
3.25013 13.2158 -0.384904 72 36 117 255 
3.05985 12.5756 -0.470055 71 44 122 255 
2.93214 12.0043 -0.563297 71 45 123 255 
2.56885 10.4856 -0.594121 71 44 122 255 
2.52605 10.2638 -0.681681 56 88 140 255 
2.44511 10.0414 -0.749876 55 91 141 255 
2.42868 9.92806 -0.836712 57 85 140 255 
2.40534 9.79601 -0.921538 62 73 137 255 
2.28264 9.27477 -0.963472 68 57 131 255 
2.10835 8.63879 -0.969158 64 69 136 255 
1.99135 8.13417 -0.992655 64 70 136 255 
1.87581 7.63367 -1.00699 58 83 139 255 
1.77409 7.19764 -1.02074 62 76 138 255 
1.66528 6.80792 -1.0237 65 68 135 255 
1.58475 6.46356 -1.03501 57 85 140 255 
1.5058 6.1233 -1.04051 57 85 140 255 
1.44863 5.87723 -1.05862 59 82 139 255 
1.3762 5.60917 -1.06001 55 90 140 255 
1.30819 5.32353 -1.05763 59 82 139 255 
1.24434 5.06006 -1.05731 60 79 138 255 
1.20271 4.88314 -1.07172 61 78 138 255 
1.15884 4.71259 -1.07677 60 79 138 255 
1.11588 4.53411 -1.08145 61 77 138 255 
1.07226 4.35375 -1.08393 56 89 140 255 
1.03251 4.19842 -1.09081 61 78 138 255 
1.00713 4.08032 -1.09866 55 90 140 255 
0.96981 3.92877 -1.09795 61 78 138 255 
0.936308 3.79889 -1.10272 60 80 139 255 
0.900996 3.66917 -1.10696 61 77 138 255 
3.1264 12.5515 3.88561 72 35 116 255 
5.79483 23.3498 6.95767 71 17 100 255 
5.80047 23.4083 6.71978 72 20 103 255 
3.26002 13.155 3.6391 71 17 100 255 
3.36506 13.5398 3.62115 71 44 122 255 
3.37515 13.5897 3.48605 62 73 137 255 
3.42426 13.7777 3.39003 72 36 117 255 
3.4654 13.9318 3.28803 71 45 123 255 
3.63734 14.6463 3.32906 70 48 126 255 
5.83466 23.4752 5.08429 71 19 101 255 
3.38928 13.6065 2.80957 69 56 130 255 
3.40017 13.629 2.67955 65 68 135 255 
3.37811 13.6024 2.55718 68 58 131 255 
2.30939 9.28472 1.65089 69 53 129 255 
2.31809 9.29232 1.55801 55 91 141 255 
5.614 22.4195 3.54485 72 27 109 255 
5.57702 22.44 3.35674 72 40 120 255 
5.54458 22.2749 3.10766 71 16 99 255 
5.32885 21.3138 2.76375 72 27 109 255 
5.33254 21.2641 2.55591 72 33 115 255 
6.53036 26.2759 2.93653 70 7 90 255 
11.7844 47.2376 4.81654 70 11 94 255 
11.6919 46.7293 4.30751 71 13 96 255 
11.315 45.0201 3.71858 70 7 90 255 
0 0 0 68 2 86 255 
0 0 0 68 2 86 255 
4.86013 19.3816 1.06468 72 20 103 255 
4.8047 19.0887 0.862868 72 28 110 255 
10.7927 43.3292 1.60614 70 10 93 255 
4.63978 18.557 0.507573 72 32 113 255 
4.37397 17.4299 0.307399 72 28 110 255 
4.12827 16.3772 0.132652 72 31 112 255 
3.85492 15.4648 -0.00278171 72 32 113 255 
3.6494 14.5744 -0.144227 72 36 117 255 
3.47776 13.8381 -0.268986 72 38 119 255 
3.32602 13.1752 -0.38431 72 32 113 255 
3.13623 12.5536 -0.469946 72 41 121 255 
3.00549 11.9851 -0.563251 70 50 126 255 
2.8925 11.5009 -0.652643 72 41 121 255 
2.60388 10.3071 -0.685607 70 51 127 255 
2.5149 10.0591 -0.752336 57 85 140 255 
2.49951 9.95261 -0.840057 55 90 140 255 
2.46468 9.77816 -0.921266 62 74 137 255 
2.34243 9.27216 -0.964677 69 53 129 255 
2.1647 8.63919 -0.970675 68 57 131 255 
2.03856 8.1112 -0.99136 64 70 136 255 
1.92116 7.61625 -1.00622 63 71 136 255 
1.81774 7.1847 -1.02046 63 71 136 255 
1.70703 6.79757 -1.0237 62 73 137 255 
1.62752 6.46617 -1.037 57 85 140 255 
1.54552 6.12255 -1.04198 57 85 140 255 
1.48274 5.86059 -1.05724 57 85 140 255 
1.41276 5.60921 -1.06163 52 96 141 255 
1.33891 5.30778 -1.05612 59 81 139 255 
1.28448 5.08844 -1.06487 62 74 137 255 
1.23193 4.87283 -1.07109 60 80 139 255 
1.18558 4.69687 -1.07482 61 78 138 255 
1.14416 4.52906 -1.0819 56 89 140 255 
1.10276 4.36217 -1.08769 57 86 140 255 
1.05801 4.19107 -1.09056 57 85 140 255 
1.03049 4.06749 -1.09689 56 89 140 255 
0.993898 3.92274 -1.09795 60 80 139 255 
0.965029 3.81453 -1.10896 58 83 139 255 
0.919036 3.64589 -1.10162 63 71 136 255 
3.22185 12.6044 3.90805 72 23 105 255 
3.35476 13.1715 3.93084 65 66 135 255 
3.31994 13.0543 3.75325 71 16 99 255 
6.18143 24.3039 6.73363 71 13 96 255 
3.47176 13.6118 3.64603 68 57 131 255 
3.48867 13.6872 3.51648 65 66 135 255 
3.50729 13.7508 3.38863 69 56 130 255 
3.52936 13.8262 3.26816 71 44 122 255 
3.60462 14.143 3.21962 71 44 122 255 
3.75143 14.7074 3.19028 72 37 118 255 
3.5776 13.9959 2.89444 71 44 122 255 
3.46181 13.5222 2.66269 71 42 122 255 
6.48422 25.4413 4.7902 70 8 92 255 
2.3573 9.23504 1.6446 67 61 132 255 
2.36013 9.2196 1.54822 51 99 141 255 
5.76179 22.4249 3.55122 71 17 100 255 
5.43114 21.2939 3.19023 72 28 110 255 
5.90041 23.0988 3.2276 72 24 106 255 
5.38161 20.977 2.72431 72 32 113 255 
6.03765 23.4646 2.82481 72 29 111 255 
5.91259 23.1816 2.59472 71 13 96 255 
12.0022 46.8838 4.78789 70 10 93 255 
11.9799 46.6625 4.30805 70 11 94 255 
11.6712 45.2607 3.74429 70 8 92 255 
4.86187 19.0481 1.41951 65 66 135 255 
4.87071 19.0124 1.23135 70 50 126 255 
4.89337 19.0187 1.04638 72 32 113 255 
0 0 0 69 4 87 255 
4.88545 19.1127 0.709575 70 48 126 255 
4.7533 18.5272 0.507546 72 32 113 255 
4.48757 17.4289 0.307861 72 32 113 255 
4.22943 16.3544 0.132676 72 26 108 255 
3.93561 15.3856 -0.00277176 72 31 112 255 
3.74199 14.5643 -0.144352 72 33 115 255 
3.56061 13.8088 -0.268835 72 38 119 255 
3.40279 13.1391 -0.383858 72 33 115 255 
3.21072 12.5245 -0.469583 72 40 120 255 
3.07425 11.948 -0.562386 70 48 126 255 
2.96302 11.4829 -0.652643 71 44 122 255 
2.83031 10.9208 -0.727569 71 47 125 255 
2.71066 10.5662 -0.791487 70 48 126 255 
2.57371 9.98824 -0.844381 71 47 125 255 
2.51391 9.7214 -0.917353 65 68 135 255 
2.40003 9.2605 -0.964978 69 53 129 255 
2.20826 8.58916 -0.966558 67 61 132 255 
2.08705 8.09373 -0.990771 62 76 138 255 
1.96264 7.58415 -1.00356 62 73 137 255 
1.85955 7.16478 -1.01923 65 68 135 255 
1.75142 6.79751 -1.02529 61 78 138 255 
1.66766 6.45797 -1.03731 58 83 139 255 
1.58306 6.11295 -1.04198 53 95 141 255 
1.50704 5.80657 -1.04914 59 81 139 255 
1.44666 5.59853 -1.06127 53 95 141 255 
1.37367 5.30802 -1.05782 60 79 138 255 
1.3115 5.06433 -1.06149 60 79 138 255 
1.26303 4.86991 -1.07213 61 78 138 255 
1.21658 4.69801 -1.07677 62 76 138 255 
1.16997 4.51441 -1.0801 59 82 139 255 
1.12951 4.35532 -1.08769 59 82 139 255 
1.08201 4.17793 -1.08885 58 84 140 255 
1.05348 4.0536 -1.09486 58 83 139 255 
1.0228 3.93525 -1.10318 59 82 139 255 
0.985757 3.79829 -1.10598 58 83 139 255 
0.949558 3.67177 -1.11118 62 73 137 255 
3.30448 12.6048 3.91438 72 29 111 255 
3.43066 13.1321 3.92529 70 48 126 255 
3.41627 13.0962 3.77124 69 56 130 255 
3.39463 13.0122 3.61084 72 20 103 255 
3.5415 13.5378 3.63196 64 69 136 255 
3.51589 13.4487 3.46068 69 56 130 255 
3.58372 13.6989 3.3812 68 57 131 255 
3.64203 13.9108 3.29339 70 51 127 255 
3.83631 14.6752 3.34607 70 50 126 255 
3.78117 14.4531 3.14009 72 32 113 255 
3.75815 14.335 2.96929 68 58 131 255 
6.0285 22.9607 4.52844 72 33 115 255 
2.42514 9.27696 1.74948 72 29 111 255 
2.40294 9.17846 1.63712 70 52 128 255 
2.40462 9.15912 1.54051 47 108 142 255 
2.40867 9.14145 1.44996 55 90 140 255 
5.55042 21.2171 3.18377 72 28 110 255 
5.56812 21.2533 2.97444 72 37 118 255 
5.52714 21.0079 2.73267 72 26 108 255 
5.55152 21.0395 2.53692 71 19 101 255 
5.4267 20.7442 2.32559 72 40 120 255 
6.94821 26.4645 2.70692 72 20 103 255 
0 0 0 68 2 86 255 
12.4961 47.2582 3.91581 70 8 92 255 
0 0 0 68 2 86 255 
0 0 0 68 2 86 255 
5.13659 19.4682 1.07282 70 7 90 255 
5.11351 19.3113 0.8757 71 17 100 255 
4.937 18.832 0.700265 71 16 99 255 
4.86333 18.4842 0.507175 72 27 109 255 
4.59672 17.4097 0.308015 72 29 111 255 
4.32662 16.3166 0.132582 72 35 116 255 
4.03451 15.3786 -0.0027749 72 32 113 255 
3.82339 14.5111 -0.144055 72 32 113 255 
3.6468 13.7925 -0.268948 72 33 115 255 
3.46744 13.0581 -0.382105 72 29 111 255 
3.29615 12.5374 -0.470817 70 48 126 255 
3.14597 11.9231 -0.562113 71 42 122 255 
3.03572 11.4732 -0.653138 70 50 126 255 
2.91546 10.9717 -0.732138 70 48 126 255 
2.77442 10.5455 -0.791198 70 50 126 255 
2.67874 10.138 -0.858415 69 53 129 255 
2.57045 9.69424 -0.916262 72 31 112 255 
2.45067 9.22252 -0.962569 70 52 128 255 
2.26193 8.57929 -0.966991 64 69 136 255 
2.13591 8.07789 -0.990418 60 79 138 255 
2.01397 7.59018 -1.00597 62 73 137 255 
1.90118 7.14462 -1.01801 62 74 137 255 
1.79689 6.80099 -1.02746 61 78 138 255 
1.69587 6.40463 -1.0304 61 78 138 255 
1.61446 6.08024 -1.03807 58 84 140 255 
1.54593 5.80959 -1.05138 59 81 139 255 
1.47997 5.58574 -1.06055 51 99 141 255 
1.4052 5.2957 -1.05707 61 78 138 255 
1.34054 5.04861 -1.0599 59 82 139 255 
1.29163 4.85734 -1.07109 62 76 138 255 
1.24564 4.6914 -1.07699 59 81 139 255 
1.1949 4.49679 -1.07761 59 81 139 255 
1.15171 4.3314 -1.08346 57 86 140 255 
1.11335 4.19276 -1.09448 59 82 139 255 
1.07783 4.04519 -1.09436 57 85 140 255 
1.04271 3.91305 -1.09873 60 80 139 255 
1.00706 3.78473 -1.10381 60 79 138 255 
0.965429 3.64083 -1.10359 63 72 137 255 
3.3743 12.5566 3.90575 72 32 113 255 
3.51217 13.1145 3.9264 72 36 117 255 
3.49731 13.0777 3.77204 72 38 119 255 
6.37441 23.8344 6.62471 70 11 94 255 
3.60143 13.4298 3.60884 61 78 138 255 
3.61115 13.4747 3.473 70 50 126 255 
3.71356 13.8476 3.42347 72 41 121 255 
3.72832 13.892 3.29428 70 52 128 255 
3.81026 14.2184 3.2472 72 41 121 255 
3.8751 14.4495 3.14441 65 66 135 255 
3.84375 14.3032 2.96752 69 55 129 255 
6.19021 23.0011 4.54381 72 28 110 255 
6.10508 22.7818 4.30325 72 20 103 255 
2.45462 9.14641 1.63406 71 44 122 255 
2.46026 9.14229 1.54019 62 76 138 255 
2.45415 9.08737 1.44374 66 64 134 255 
5.96605 22.2475 3.34381 72 33 115 255 
5.67323 21.1249 2.96129 72 37 118 255 
5.60117 20.7705 2.70621 72 38 119 255 
5.67948 21.0012 2.53645 72 23 105 255 
5.38959 20.0979 2.25679 72 23 105 255 
7.11305 26.431 2.7079 72 28 110 255 
12.9118 47.8467 4.43167 70 8 92 255 
12.8411 47.3846 3.93274 69 4 87 255 
0 0 0 68 2 86 255 
0 0 0 68 1 84 255 
5.51896 20.409 1.12651 70 11 94 255 
5.42055 19.9747 0.907275 72 27 109 255 
5.13026 19.0909 0.711049 72 28 110 255 
5.02898 18.648 0.512507 72 32 113 255 
4.70816 17.3986 0.308323 72 32 113 255 
4.42036 16.2666 0.132393 72 27 109 255 
4.13607 15.3806 -0.00277979 72 32 113 255 
3.92018 14.5163 -0.144343 72 31 112 255 
3.73241 13.7737 -0.269024 72 29 111 255 
3.56981 13.1185 -0.384508 72 31 112 255 
3.36859 12.5005 -0.4702 70 48 126 255 
3.22142 11.9123 -0.562523 71 45 123 255 
3.0977 11.4235 -0.651379 71 44 122 255 
2.98326 10.9555 -0.732267 71 47 125 255 
2.8396 10.5302 -0.791342 69 53 129 255 
2.73985 10.1175 -0.858088 69 56 130 255 
2.65234 9.76093 -0.924086 68 58 131 255 
2.508 9.21019 -0.96287 68 57 131 255 
2.31349 8.56141 -0.966558 62 73 137 255 
2.18232 8.05313 -0.989005 61 78 138 255 
2.0618 7.58247 -1.00661 62 74 137 255 
1.9442 7.12995 -1.0176 62 76 138 255 
1.83082 6.76118 -1.02312 63 72 137 255 
1.73358 6.38839 -1.02947 59 81 139 255 
1.64837 6.05784 -1.03596 56 89 140 255 
1.57585 5.77908 -1.04759 57 85 140 255 
1.51422 5.57656 -1.06055 52 97 141 255 
1.42608 5.24434 -1.04854 61 78 138 255 
1.3738 5.0488 -1.06169 59 82 139 255 
1.31987 4.84366 -1.06984 62 73 137 255 
1.27619 4.69027 -1.0785 59 81 139 255 
1.22093 4.48374 -1.07626 56 88 140 255 
1.17648 4.31768 -1.08181 57 85 140 255 
1.13167 4.15872 -1.08738 62 76 138 255 
1.10289 4.03944 -1.09461 57 86 140 255 
1.0667 3.90658 -1.09873 62 76 138 255 
1.03153 3.78312 -1.10516 61 77 138 255 
0.990015 3.64318 -1.10612 64 69 136 255 
3.53594 12.8431 4.00155 72 29 111 255 
3.59511 13.102 3.92918 71 47 125 255 
3.56731 13.0189 3.76131 72 24 106 255 
3.62859 13.2415 3.68656 71 44 122 255 
2.5803 9.39127 2.52782 70 50 126 255 
2.58944 9.43044 2.43468 71 46 124 255 
2.53368 9.22139 2.28355 62 74 137 255 
3.84812 13.9948 3.32419 71 47 125 255 
3.89588 14.1891 3.24591 64 70 136 255 
3.97847 14.4793 3.15614 67 61 132 255 
3.933 14.285 2.9687 72 24 106 255 
2.50962 9.10211 1.80111 72 22 104 255 
2.50676 9.12982 1.7274 72 24 106 255 
2.51278 9.13878 1.63542 72 29 111 255 
2.51369 9.1175 1.53858 67 61 132 255 
2.5067 9.06071 1.44192 69 56 130 255 
2.49342 9.07504 1.36626 72 40 120 255 
5.79828 21.0735 2.95901 72 33 115 255 
5.6762 20.5464 2.6815 72 28 110 255 
5.76342 20.8042 2.51688 72 35 116 255 
5.46198 19.8794 2.23598 72 27 109 255 
5.55266 20.1396 2.06679 72 38 119 255 
5.64155 20.4071 1.89332 70 11 94 255 
13.6006 48.9944 4.0732 69 5 89 255 
12.7214 46.2691 3.46494 69 5 89 255 
0 0 0 68 1 84 255 
5.72966 20.6836 1.14359 71 14 97 255 
5.03572 18.1161 0.824242 72 32 113 255 
5.05525 18.3615 0.685024 72 35 116 255 
5.03869 18.2381 0.502082 70 48 126 255 
5.01728 18.0997 0.321287 72 38 119 255 
4.51687 16.2276 0.132299 72 29 111 255 
4.23275 15.3636 -0.00278136 72 35 116 255 
4.01051 14.4968 -0.144391 72 36 117 255 
3.81605 13.7477 -0.268967 72 31 112 255 
3.64379 13.0733 -0.383829 72 32 113 255 
3.44443 12.4767 -0.470091 71 44 122 255 
3.30512 11.9308 -0.564344 71 45 123 255 
3.17682 11.437 -0.653248 72 40 120 255 
3.04533 10.9187 -0.731044 72 40 120 255 
2.90176 10.5039 -0.790691 69 53 129 255 
2.80295 10.1044 -0.858415 68 59 132 255 
2.71912 9.76942 -0.926451 67 62 133 255 
2.56393 9.19271 -0.96267 67 62 133 255 
2.35909 8.52214 -0.963741 64 70 136 255 
2.22558 8.01758 -0.986298 59 81 139 255 
2.10989 7.57541 -1.00737 63 72 137 255 
1.98658 7.11311 -1.01692 65 68 135 255 
1.86513 6.72407 -1.01922 63 72 137 255 
1.77143 6.37287 -1.02871 58 84 140 255 
1.68895 6.05997 -1.03807 56 88 140 255 
1.61181 5.7712 -1.04794 59 82 139 255 
1.55315 5.58422 -1.0638 50 101 142 255 
1.45533 5.22509 -1.04646 60 80 139 255 
1.40265 5.03273 -1.0601 59 81 139 255 
1.34799 4.82982 -1.06859 61 77 138 255 
1.29813 4.6579 -1.07287 56 88 140 255 
1.2513 4.48648 -1.07874 54 92 141 255 
1.20478 4.31694 -1.08346 57 85 140 255 
1.15534 4.14516 -1.08567 60 79 138 255 
1.12896 4.03725 -1.09588 62 74 137 255 
1.08987 3.89717 -1.09795 61 78 138 255 
1.04567 3.74428 -1.09567 62 73 137 255 
1.00798 3.62132 -1.10134 64 70 136 255 
3.62039 12.8414 4.00788 68 59 132 255 
3.66582 13.0454 3.9189 59 81 139 255 
3.66404 13.057 3.77875 70 52 128 255 
2.65446 9.4586 2.63785 65 66 135 255 
2.65859 9.44887 2.54767 68 58 131 255 
2.64804 9.41718 2.4354 56 88 140 255 
2.63921 9.37982 2.32675 68 59 132 255 
3.93418 13.9718 3.32442 72 26 108 255 
3.99661 14.2138 3.25711 67 61 132 255 
3.99328 14.1917 3.09875 62 74 137 255 
4.13232 14.6569 3.05121 72 35 116 255 
6.33588 22.4413 4.44825 72 22 104 255 
6.35783 22.6114 4.28548 72 28 110 255 
2.56827 9.12129 1.63508 61 78 138 255 
2.58058 9.14085 1.54517 71 46 124 255 
2.55713 9.02709 1.43904 72 23 105 255 
2.56058 9.10053 1.37244 61 77 138 255 
2.59206 9.19961 1.29396 50 101 142 255 
5.93908 20.9952 2.74478 72 27 109 255 
5.91454 20.8516 2.52696 70 48 126 255 
5.64848 20.0752 2.26186 72 40 120 255 
5.7878 20.5007 2.10745 72 40 120 255 
5.80111 20.4938 1.90463 72 27 109 255 
13.659 48.0586 4.00229 70 8 92 255 
12.928 45.9165 3.44441 70 11 94 255 
0 0 0 68 2 86 255 
6.09271 21.481 1.18972 70 7 90 255 
5.03795 17.7024 0.806812 72 23 105 255 
4.88146 17.3144 0.647065 72 29 111 255 
5.08166 17.9635 0.495371 71 45 123 255 
5.08348 17.9108 0.318482 68 58 131 255 
4.61307 16.188 0.132205 72 35 116 255 
4.32884 15.3441 -0.00278258 72 29 111 255 
4.09557 14.4584 -0.144256 72 29 111 255 
3.9058 13.7432 -0.269344 72 36 117 255 
3.72614 13.0584 -0.384056 72 32 113 255 
3.51929 12.4496 -0.469873 72 40 120 255 
3.37826 11.9103 -0.564344 72 41 121 255 
3.24557 11.4125 -0.652973 71 44 122 255 
3.12295 10.9373 -0.733554 72 41 121 255 
2.9629 10.4744 -0.789823 70 48 126 255 
2.86653 10.0927 -0.858904 68 57 131 255 
2.78202 9.76309 -0.927452 66 64 134 255 
2.61837 9.17011 -0.961967 69 56 130 255 
2.41106 8.50655 -0.963633 62 76 138 255 
2.27419 8.00187 -0.986063 57 86 140 255 
2.15143 7.54515 -1.00508 65 68 135 255 
2.02774 7.09222 -1.01569 64 69 136 255 
1.9069 6.71441 -1.01951 65 68 135 255 
1.81049 6.36188 -1.02871 59 81 139 255 
1.7261 6.04949 -1.03807 56 89 140 255 
1.64908 5.76784 -1.04914 57 85 140 255 
1.58712 5.57364 -1.06362 49 103 142 255 
1.49113 5.22928 -1.04911 62 76 138 255 
1.43458 5.02779 -1.06089 60 80 139 255 
1.3913 4.86942 -1.07922 60 79 138 255 
1.32964 4.66017 -1.07525 61 77 138 255 
1.27773 4.47497 -1.07784 55 91 141 255 
1.22671 4.29357 -1.07946 61 77 138 255 
1.18741 4.1613 -1.09179 59 81 139 255 
1.1577 4.0442 -1.09967 58 83 139 255 
1.11456 3.89319 -1.09873 60 79 138 255 
1.07232 3.75075 -1.09947 60 79 138 255 
1.02807 3.60768 -1.09909 66 64 134 255 
3.69991 12.8217 4.00874 70 52 128 255 
3.72482 12.9498 3.89695 71 44 122 255 
3.74861 13.05 3.78332 69 55 129 255 
2.68498 9.34653 2.61114 70 48 126 255 
2.76581 9.60352 2.5939 69 55 129 255 
2.70711 9.40542 2.43661 64 70 136 255 
2.69752 9.36626 2.32745 72 36 117 255 
2.83961 9.85247 2.34837 72 32 113 255 
4.11859 14.3101 3.2849 72 40 120 255 
4.18104 14.5168 3.17526 60 79 138 255 
4.1602 14.4165 3.00642 72 41 121 255 
6.49691 22.4831 4.46436 71 19 101 255 
4.14259 14.3935 2.73272 68 59 132 255 
2.60836 9.05044 1.62522 63 71 136 255 
5.76834 19.9631 3.38049 72 32 113 255 
6.03934 20.8316 3.32669 72 33 115 255 
2.61117 9.06658 1.36971 72 35 116 255 
2.65121 9.19306 1.29531 62 73 137 255 
5.93839 20.5114 2.68624 72 33 115 255 
6.03628 20.7939 2.52441 72 33 115 255 
5.80842 20.1682 2.27631 72 32 113 255 
5.90713 20.4428 2.10519 72 41 121 255 
5.91649 20.4224 1.90134 71 16 99 255 
0 0 0 69 4 87 255 
13.0943 45.4367 3.41438 70 10 93 255 
31.6091 109.318 7.13951 69 5 89 255 
5.94937 20.4957 1.13715 70 11 94 255 
5.06993 17.4083 0.794813 72 27 109 255 
4.93413 17.0988 0.640127 70 51 127 255 
5.11338 17.6612 0.487891 72 41 121 255 
5.17571 17.8188 0.317405 69 56 130 255 
5.1759 17.7491 0.145211 68 58 131 255 
4.42374 15.3201 -0.0027831 72 29 111 255 
4.17752 14.41 -0.144026 72 33 115 255 
3.98866 13.7142 -0.26925 72 31 112 255 
3.81151 13.0535 -0.384593 72 32 113 255 
3.59478 12.4249 -0.469765 71 45 123 255 
3.43819 11.8443 -0.562204 71 44 122 255 
3.31414 11.3876 -0.652698 70 48 126 255 
3.19056 10.9198 -0.733683 70 50 126 255 
3.02906 10.4627 -0.790329 69 53 129 255 
2.92617 10.0673 -0.858252 69 56 130 255 
2.84354 9.75157 -0.927998 66 64 134 255 
2.66929 9.13573 -0.96006 67 62 133 255 
2.45823 8.47441 -0.961682 65 68 135 255 
2.32269 7.98585 -0.985827 62 76 138 255 
2.19491 7.52228 -1.00381 63 71 136 255 
2.07233 7.08345 -1.01623 61 77 138 255 
1.94916 6.70638 -1.02008 64 69 136 255 
1.85115 6.35634 -1.02963 60 79 138 255 
1.76264 6.03689 -1.03775 57 86 140 255 
1.685 5.7595 -1.04949 57 85 140 255 
1.61908 5.55624 -1.06217 50 101 142 255 
1.52622 5.2304 -1.05119 59 82 139 255 
1.46678 5.0236 -1.06188 62 74 137 255 
1.3992 4.78569 -1.06254 62 74 137 255 
1.36176 4.66411 -1.07807 58 83 139 255 
1.30271 4.45863 -1.07581 57 85 140 255 
1.25494 4.2925 -1.08111 56 89 140 255 
1.20857 4.13905 -1.08787 62 74 137 255 
1.17107 3.99803 -1.08905 59 81 139 255 
1.13761 3.8835 -1.09795 57 86 140 255 
1.10153 3.76534 -1.10571 62 76 138 255 
1.05019 3.6013 -1.09909 63 72 137 255 
3.73323 12.6454 3.9607 72 20 103 255 
3.82645 13.0022 3.91973 70 52 128 255 
3.83703 13.0554 3.79164 70 52 128 255 
3.89431 13.2494 3.70808 70 48 126 255 
2.81593 9.55666 2.58586 71 44 122 255 
2.96104 10.0551 2.60958 68 57 131 255 
2.97185 10.0857 2.5107 72 36 117 255 
3.0249 10.2584 2.4495 72 40 120 255 
2.72201 9.24388 2.12574 64 70 136 255 
4.30074 14.5951 3.1981 68 59 132 255 
6.63481 22.4733 4.69499 71 19 101 255 
4.20836 14.2353 2.83171 72 36 117 255 
4.21388 14.3102 2.72177 69 55 129 255 
2.65577 9.00685 1.62029 50 101 142 255 
5.78636 19.5743 3.32059 72 38 119 255 
5.99842 20.2255 3.23572 72 31 112 255 
6.13822 20.8318 3.15274 72 28 110 255 
2.66382 9.02835 1.27438 72 35 116 255 
5.90606 19.9408 2.61622 71 42 122 255 
6.07101 20.4442 2.48643 71 17 100 255 
5.93009 20.1255 2.27556 72 38 119 255 
6.01411 20.3441 2.09879 72 22 104 255 
0 0 0 69 4 87 255 
13.7073 46.0711 3.85049 70 7 90 255 
13.5198 45.8539 3.4519 70 7 90 255 
0 0 0 68 2 86 255 
5.30185 17.855 0.992424 70 8 92 255 
5.04373 16.9307 0.774405 72 35 116 255 
5.00669 16.959 0.636029 69 53 129 255 
5.0604 17.0851 0.472824 70 51 127 255 
5.11579 17.2174 0.307245 71 47 125 255 
5.17152 17.3376 0.142101 71 42 122 255 
4.51766 15.2927 -0.0027831 72 36 117 255 
4.27354 14.41 -0.144285 72 36 117 255 
4.08043 13.7153 -0.269759 72 29 111 255 
3.90069 13.0605 -0.385497 72 35 116 255 
3.6718 12.4055 -0.469873 72 38 119 255 
3.50454 11.8019 -0.561202 72 41 121 255 
3.38423 11.368 -0.652753 72 38 119 255 
3.25636 10.8962 -0.733425 71 46 124 255 
3.09461 10.4487 -0.790691 70 48 126 255 
2.98477 10.0386 -0.857354 69 56 130 255 
2.90503 9.73966 -0.928544 68 59 132 255 
2.72131 9.10583 -0.958655 68 57 131 255 
2.50933 8.45631 -0.961357 64 69 136 255 
2.37193 7.9724 -0.985945 59 82 139 255 
2.23932 7.50297 -1.00305 62 73 137 255 
2.11434 7.06585 -1.01555 62 74 137 255 
1.98718 6.68386 -1.0185 65 66 135 255 
1.89097 6.34771 -1.03009 60 80 139 255 
1.79823 6.02124 -1.03693 59 81 139 255 
1.72567 5.76698 -1.05276 56 89 140 255 
1.64697 5.52546 -1.0582 49 104 142 255 
1.55856 5.22188 -1.05138 59 81 139 255 
1.49505 5.00605 -1.0601 58 83 139 255 
1.42937 4.77983 -1.06317 61 78 138 255 
1.39036 4.65566 -1.07807 58 84 140 255 
1.32279 4.42629 -1.06994 57 86 140 255 
1.2793 4.2782 -1.07946 61 78 138 255 
1.23283 4.12784 -1.08689 60 79 138 255 
1.20002 4.00559 -1.09309 59 82 139 255 
1.16363 3.88385 -1.10004 57 85 140 255 
1.12075 3.7456 -1.10191 63 72 137 255 
1.07858 3.61594 -1.10556 61 78 138 255 
3.29949 10.9288 3.42932 62 76 138 255 
3.94353 13.1027 3.95724 72 37 118 255 
3.87353 12.8868 3.7495 72 40 120 255 
2.80198 9.3212 2.61348 72 27 109 255 
3.09318 10.2649 2.78257 69 55 129 255 
2.78987 9.26371 2.40858 64 69 136 255 
2.81535 9.34269 2.33 57 85 140 255 
4.41583 14.6437 3.50302 72 38 119 255 
2.77755 9.22326 2.12487 56 89 140 255 
6.69206 22.2068 4.8749 71 19 101 255 
4.35862 14.4367 3.02155 72 36 117 255 
6.8161 22.5465 4.49322 71 19 101 255 
4.28402 14.2257 2.71064 72 37 118 255 
2.71183 8.99322 1.6208 56 89 140 255 
6.02174 19.9201 3.38546 72 38 119 255 
6.24289 20.5856 3.2994 72 33 115 255 
6.33303 21.0165 3.1865 72 32 113 255 
6.13593 20.3357 2.8757 72 23 105 255 
6.01479 19.8596 2.61035 71 45 123 255 
6.10544 20.1072 2.44995 72 26 108 255 
5.99208 19.885 2.25248 71 44 122 255 
6.11925 20.242 2.09209 72 22 104 255 
8.14258 26.8682 2.51056 72 20 103 255 
14.0303 46.1197 3.86167 70 7 90 255 
13.9417 46.2371 3.48712 70 7 90 255 
13.9873 46.2398 3.03088 70 7 90 255 
4.99295 16.4443 0.915699 72 31 112 255 
5.00634 16.436 0.753165 70 48 126 255 
5.02083 16.6304 0.62485 72 33 115 255 
5.31582 17.5512 0.486618 71 47 125 255 
5.3809 17.7109 0.316635 71 42 122 255 
5.84254 19.1573 0.157306 72 36 117 255 
4.81876 15.951 -0.00290824 72 41 121 255 
4.36797 14.4036 -0.144487 72 37 118 255 
4.16276 13.6843 -0.269646 71 42 122 255 
3.98017 13.0344 -0.385441 72 32 113 255 
3.76609 12.443 -0.47216 71 44 122 255 
3.58444 11.805 -0.562386 72 40 120 255 
3.46119 11.3709 -0.654127 72 37 118 255 
3.31937 10.8636 -0.732589 71 45 123 255 
3.16416 10.4477 -0.792066 69 56 130 255 
3.05123 10.0363 -0.858741 71 47 125 255 
2.96474 9.72165 -0.928544 68 58 131 255 
2.77713 9.08896 -0.958655 67 61 132 255 
2.56377 8.44932 -0.962332 66 65 134 255 
2.42023 7.9558 -0.98571 57 85 140 255 
2.29227 7.51186 -1.0061 61 78 138 255 
2.15794 7.05369 -1.01569 62 73 137 255 
2.02786 6.6706 -1.01835 64 69 136 255 
1.9319 6.3426 -1.03116 60 80 139 255 
1.83255 6.0016 -1.03547 57 86 140 255 
1.76102 5.75628 -1.05276 55 90 140 255 
1.67883 5.50867 -1.05694 50 100 142 255 
1.58857 5.20564 -1.05006 61 77 138 255 
1.52574 4.99679 -1.0601 61 77 138 255 
1.46297 4.785 -1.0663 63 72 137 255 
1.41576 4.63677 -1.07569 55 91 141 255 
1.36074 4.45349 -1.07852 55 91 141 255 
1.30866 4.28049 -1.08205 58 84 140 255 
1.26012 4.12669 -1.08861 61 77 138 255 
1.22599 4.00278 -1.09436 60 79 138 255 
1.18857 3.88033 -1.10109 62 76 138 255 
1.14709 3.7497 -1.10516 61 78 138 255 
1.09682 3.59641 -1.10162 63 71 136 255 
3.03154 9.82304 3.08812 72 38 119 255 
3.03343 9.85918 2.98321 53 94 141 255 
3.95112 12.8582 3.74815 67 61 132 255 
4.00185 13.0224 3.65804 72 26 108 255 
3.03985 9.86827 2.68007 71 47 125 255 
2.80583 9.11379 2.37404 50 102 142 255 
2.87033 9.31781 2.32815 53 95 141 255 
2.90993 9.4399 2.26242 72 27 109 255 
2.83668 9.21445 2.12681 69 56 130 255 
4.63568 15.0481 3.30958 72 36 117 255 
4.41705 14.3122 3.00112 67 62 133 255 
4.44306 14.3778 2.87068 68 57 131 255 
4.3747 14.2104 2.7128 72 26 108 255 
2.76435 8.96794 1.61927 49 104 142 255 
6.14969 19.9017 3.38868 72 31 112 255 
6.28363 20.2713 3.25513 72 26 108 255 
6.19092 20.0976 3.05289 72 36 117 255 
6.20715 20.1244 2.85115 71 44 122 255 
6.22778 20.1171 2.64917 71 45 123 255 
6.2337 20.0854 2.45192 72 35 116 255 
6.08032 19.7386 2.24008 72 41 121 255 
6.24157 20.1984 2.0915 71 19 101 255 
8.29344 26.7731 2.50638 71 14 97 255 
0 0 0 68 2 86 255 
0 0 0 68 2 86 255 
0 0 0 68 2 86 255 
5.08636 16.3895 0.914369 66 63 133 255 
5.10175 16.3878 0.752377 70 48 126 255 
5.07975 16.4598 0.619602 66 63 133 255 
5.19134 16.7686 0.465795 72 23 105 255 
5.93159 19.1013 0.342136 72 28 110 255 
5.12114 16.4298 0.135166 72 22 104 255 
4.96139 16.0664 -0.00293477 69 56 130 255 
4.45775 14.3813 -0.144535 72 35 116 255 
4.24843 13.6642 -0.269759 72 31 112 255 
4.05799 13.0031 -0.385243 72 36 117 255 
3.83823 12.4063 -0.471652 72 38 119 255 
3.66036 11.7942 -0.562933 72 41 121 255 
3.53001 11.3466 -0.653962 72 38 119 255 
3.3812 10.8278 -0.731559 71 44 122 255 
3.22939 10.4319 -0.792356 68 57 131 255 
3.12163 10.046 -0.861189 69 53 129 255 
3.02167 9.69472 -0.927725 68 59 132 255 
2.82424 9.04421 -0.955745 67 61 132 255 
2.61674 8.43722 -0.962766 66 64 134 255 
2.46841 7.9389 -0.985474 57 86 140 255 
2.32709 7.46167 -1.00127 63 72 137 255 
2.19586 7.0233 -1.01323 62 74 137 255 
2.07052 6.6637 -1.01922 63 72 137 255 
1.97489 6.34384 -1.03332 62 76 138 255 
1.87199 5.99872 -1.03693 55 91 141 255 
1.79484 5.74067 -1.0519 57 86 140 255 
1.70675 5.47948 -1.05333 51 99 141 255 
1.61989 5.19392 -1.04968 57 85 140 255 
1.55491 4.98265 -1.0591 58 83 139 255 
1.49113 4.7722 -1.06546 62 73 137 255 
1.44128 4.61868 -1.07352 60 80 139 255 
1.38891 4.44785 -1.07919 57 86 140 255 
1.33577 4.27517 -1.08275 61 78 138 255 
1.28455 4.1161 -1.08787 62 76 138 255 
1.25198 3.9998 -1.09562 59 81 139 255 
1.20602 3.8527 -1.09533 57 85 140 255 
1.16204 3.71687 -1.09757 61 77 138 255 
1.11944 3.59144 -1.10218 61 78 138 255 
2.95724 9.3777 2.95376 62 73 137 255 
2.97429 9.46007 2.86791 60 80 139 255 
2.94193 9.36887 2.73623 72 41 121 255 
2.8849 9.1866 2.58547 72 41 121 255 
2.89894 9.20961 2.50597 72 29 111 255 
2.86257 9.09918 2.37476 56 88 140 255 
2.92891 9.30466 2.32931 50 101 142 255 
2.91274 9.24708 2.22045 71 42 122 255 
2.9506 9.37945 2.16903 45 113 142 255 
4.54839 14.449 3.1839 72 35 116 255 
4.59502 14.571 3.06123 62 76 138 255 
4.51789 14.3081 2.86225 71 42 122 255 
4.61532 14.6713 2.80613 69 55 129 255 
4.57345 14.5198 2.62674 72 27 109 255 
6.19977 19.6358 3.34982 72 35 116 255 
6.33865 20.0137 3.21996 72 26 108 255 
6.15634 19.558 2.9766 72 38 119 255 
6.458 20.4904 2.90857 72 40 120 255 
6.37474 20.1532 2.65903 71 42 122 255 
6.39826 20.1775 2.4679 72 28 110 255 
6.1273 19.4657 2.21334 71 44 122 255 
6.27939 19.8874 2.06325 72 40 120 255 
6.2524 19.7545 1.85288 72 41 121 255 
8.71351 27.429 2.30546 71 19 101 255 
0 0 0 68 2 86 255 
0 0 0 69 4 87 255 
5.18683 16.358 0.914369 72 27 109 255 
6.41495 20.1691 0.927771 72 20 103 255 
5.17795 16.4198 0.619278 70 51 127 255 
5.80666 18.3567 0.510889 72 38 119 255 
5.91442 18.6414 0.334542 72 29 111 255 
6.49985 20.4114 0.168246 72 20 103 255 
5.05958 16.0347 -0.0029346 70 52 128 255 
4.65761 14.7064 -0.148086 68 58 131 255 
4.32553 13.617 -0.269344 72 36 117 255 
4.13588 12.9722 -0.385073 72 37 118 255 
3.91007 12.3691 -0.471144 72 38 119 255 
3.73417 11.7763 -0.56316 71 44 122 255 
3.59291 11.3038 -0.652753 72 38 119 255 
3.45334 10.8249 -0.732782 71 45 123 255 
3.29273 10.41 -0.792211 69 55 129 255 
3.1799 10.0162 -0.860291 68 57 131 255 
3.07928 9.67031 -0.927179 67 61 132 255 
2.8821 9.03429 -0.956547 69 56 130 255 
2.66576 8.41248 -0.961791 67 61 132 255 
2.51196 7.90752 -0.983473 59 81 139 255 
2.38518 7.486 -1.00648 62 76 138 255 
2.24163 7.01819 -1.01446 61 78 138 255 
2.10597 6.63389 -1.01662 65 68 135 255 
2.00809 6.31371 -1.0304 60 80 139 255 
1.90786 5.9843 -1.03644 54 93 141 255 
1.82703 5.72017 -1.05018 56 88 140 255 
1.74004 5.46797 -1.05315 51 99 141 255 
1.65293 5.18762 -1.05043 59 82 139 255 
1.58337 4.96648 -1.05771 60 79 138 255 
1.5183 4.75644 -1.064 63 71 136 255 
1.4687 4.60696 -1.07287 60 80 139 255 
1.41085 4.42254 -1.07513 58 83 139 255 
1.36109 4.26411 -1.08205 56 89 140 255 
1.30448 4.09151 -1.08347 61 78 138 255 
1.27974 4.00218 -1.0984 61 78 138 255 
1.22963 3.84522 -1.09533 55 90 140 255 
1.18395 3.70692 -1.09675 62 76 138 255 
1.14087 3.58267 -1.10162 62 76 138 255 
2.98947 9.28098 2.92902 59 82 139 255 
3.06166 9.53311 2.89569 65 68 135 255 
2.92434 9.11674 2.66778 50 101 142 255 
2.94859 9.19172 2.59195 63 71 136 255 
2.96399 9.21837 2.51325 66 63 133 255 
2.94299 9.15812 2.39481 53 94 141 255 
2.88948 8.9865 2.25406 60 80 139 255 
2.97122 9.2346 2.22179 72 29 111 255 
2.98002 9.27377 2.14879 64 70 136 255 
4.56956 14.2112 3.13762 71 17 100 255 
4.76521 14.7936 3.11408 70 48 126 255 
4.77504 14.8055 2.96756 71 47 125 255 
4.72361 14.6998 2.81708 71 42 122 255 
6.50504 20.2184 3.66482 72 29 111 255 
6.43192 19.944 3.40907 70 48 126 255 
6.55443 20.2622 3.26635 72 27 109 255 
6.4495 20.0588 3.05878 72 36 117 255 
6.5663 20.3966 2.90092 72 32 113 255 
6.50743 20.1421 2.66278 71 42 122 255 
6.44513 19.9007 2.43883 72 40 120 255 
6.25849 19.4647 2.21755 71 45 123 255 
6.43032 19.9385 2.0726 71 19 101 255 
8.65169 26.7631 2.5152 72 28 110 255 
8.81151 27.1589 2.28725 71 14 97 255 
0 0 0 68 2 86 255 
0 0 0 69 4 87 255 
5.90273 18.2269 1.02084 70 8 92 255 
5.98951 18.439 0.849862 72 26 108 255 
5.88894 18.2825 0.690883 72 36 117 255 
5.85004 18.1067 0.50492 72 36 117 255 
5.89431 18.19 0.327085 69 55 129 255 
5.95388 18.3076 0.151203 72 41 121 255 
5.11738 15.8777 -0.00291156 70 51 127 255 
4.79239 14.8155 -0.149478 67 61 132 255 
4.41826 13.6187 -0.26991 72 38 119 255 
4.19404 12.881 -0.383123 72 33 115 255 
3.98589 12.3449 -0.471144 72 37 118 255 
3.81528 11.7807 -0.564481 71 45 123 255 
3.65696 11.2654 -0.651819 72 37 118 255 
3.5197 10.8035 -0.732782 71 45 123 255 
3.35869 10.3962 -0.792717 70 50 126 255 
3.23607 9.98037 -0.858904 68 59 132 255 
3.13764 9.64839 -0.926906 67 62 133 255 
2.93563 9.01076 -0.955945 69 55 129 255 
2.71794 8.39786 -0.962007 68 59 132 255 
2.56013 7.89101 -0.983355 57 86 140 255 
2.42677 7.45802 -1.0047 57 85 140 255 
2.28465 7.0043 -1.01446 62 74 137 255 
2.14908 6.62838 -1.01777 66 64 134 255 
2.0416 6.28529 -1.02778 60 79 138 255 
1.93568 5.94527 -1.03172 55 91 141 255 
1.85843 5.69761 -1.04811 56 88 140 255 
1.77873 5.47309 -1.05622 51 99 141 255 
1.68685 5.18392 -1.05176 59 82 139 255 
1.60987 4.94456 -1.05512 60 79 138 255 
1.54897 4.75168 -1.06505 61 78 138 255 
1.49573 4.59415 -1.072 59 82 139 255 
1.43524 4.40546 -1.0731 56 88 140 255 
1.38361 4.24459 -1.07923 53 94 141 255 
