ply
format ascii 1.0
comment VTK generated PLY File
obj_info vtkPolyData points and polygons: vtk4.0
element vertex 1224
property float x
property float y
property float z
property uchar red
property uchar green
property uchar blue
property uchar alpha
element face 0
property list uchar int vertex_indices
end_header
9.1557 9.18948 1.88317 52 97 141 255 
9.20356 9.23082 1.76473 51 99 141 255 
10.5667 10.576 1.88069 71 46 124 255 
14.5742 14.5663 2.40235 72 36 117 255 
11.6333 11.6762 1.78764 72 20 103 255 
18.6984 18.7341 2.61861 72 37 118 255 
18.6237 18.6336 2.35585 72 20 103 255 
15.5762 15.5514 1.76319 72 38 119 255 
15.652 15.7043 1.601 72 40 120 255 
13.8114 13.833 1.2264 72 32 113 255 
16.3696 16.3612 1.23319 72 23 105 255 
16.236 16.1989 1.00537 70 10 93 255 
0 0 0 69 4 87 255 
45.9704 46.0102 1.72585 69 5 89 255 
20.9646 20.9465 0.506945 71 13 96 255 
20.0588 19.999 0.22247 70 7 90 255 
19.9769 20.0227 -0.00493649 70 8 92 255 
19.911 19.9143 -0.270332 71 16 99 255 
16.7063 16.6802 -0.445049 72 35 116 255 
13.875 13.824 -0.553934 72 29 111 255 
11.4504 11.4646 -0.588485 70 48 126 255 
10.573 10.5674 -0.681421 72 38 119 255 
9.59998 9.58166 -0.746443 72 36 117 255 
9.03413 8.99778 -0.822304 68 57 131 255 
8.22662 8.23398 -0.844533 71 46 124 255 
7.54122 7.53195 -0.87253 70 50 126 255 
7.01054 6.98984 -0.904434 67 61 132 255 
6.49474 6.4686 -0.924632 68 59 132 255 
6.08022 6.07931 -0.937088 64 70 136 255 
5.72948 5.72044 -0.959696 58 83 139 255 
5.39125 5.37345 -0.975094 65 68 135 255 
5.10815 5.08405 -0.992362 57 86 140 255 
4.8391 4.83331 -0.998984 63 71 136 255 
4.644 4.63343 -1.02025 57 85 140 255 
4.41664 4.40053 -1.02879 62 76 138 255 
4.2184 4.1985 -1.04087 60 80 139 255 
4.03767 4.02723 -1.04665 54 93 141 255 
3.87717 3.8643 -1.05612 60 79 138 255 
3.70174 3.68824 -1.06029 59 82 139 255 
3.56179 3.54623 -1.07109 59 82 139 255 
3.4053 3.39294 -1.06659 59 81 139 255 
3.29321 3.27999 -1.07649 60 80 139 255 
3.16643 3.15267 -1.08017 59 81 139 255 
3.06075 3.0495 -1.09007 64 69 136 255 
2.94412 2.92833 -1.08551 63 72 137 255 
2.85756 2.84211 -1.0935 66 65 134 255 
2.77583 2.76281 -1.10381 65 66 135 255 
2.66604 2.65809 -1.10303 69 56 130 255 
9.33804 9.2485 3.94804 65 66 135 255 
9.43143 9.35705 3.84222 70 51 127 255 
9.45018 9.38236 3.71058 62 73 137 255 
9.43158 9.36353 3.56857 54 92 141 255 
10.0114 9.92581 3.65909 62 73 137 255 
11.1458 11.0541 3.90809 71 16 99 255 
10.329 10.2406 3.47317 71 45 123 255 
10.2156 10.1242 3.29406 72 20 103 255 
7.70583 7.64259 2.39415 71 46 124 255 
7.68141 7.61551 2.27351 71 45 123 255 
9.65365 9.56098 2.72234 62 74 137 255 
7.53961 7.46177 2.02353 52 97 141 255 
7.61207 7.54961 1.95607 56 89 140 255 
7.76708 7.69776 1.88691 52 97 141 255 
7.79753 7.71729 1.78474 46 110 142 255 
9.32385 9.21152 2.01029 58 84 140 255 
8.06429 7.99532 1.64856 49 103 142 255 
9.40574 9.31854 1.7925 65 68 135 255 
10.4494 10.331 1.84849 64 70 136 255 
11.7618 11.612 1.92698 72 29 111 255 
15.1224 14.9931 2.30963 71 14 97 255 
11.5015 11.383 1.60092 72 41 121 255 
18.7228 18.5043 2.35398 72 20 103 255 
14.5882 14.3874 1.64134 72 35 116 255 
14.6677 14.5372 1.49117 72 32 113 255 
13.9046 13.7564 1.22715 67 61 132 255 
16.4697 16.2604 1.23319 71 16 99 255 
16.4298 16.1922 1.0112 72 23 105 255 
46.4384 45.9931 2.35094 69 4 87 255 
0 0 0 68 2 86 255 
34.5426 34.0918 0.830199 70 7 90 255 
20.1733 19.8678 0.222383 70 7 90 255 
20.1427 19.9426 -0.00494714 70 7 90 255 
20.0968 19.855 -0.271196 72 24 106 255 
16.651 16.4222 -0.440884 72 29 111 255 
14.0857 13.8627 -0.558937 72 31 112 255 
11.4025 11.2775 -0.58246 68 59 132 255 
10.6334 10.4981 -0.681148 71 42 122 255 
9.68633 9.54991 -0.748586 66 64 134 255 
9.08348 8.93658 -0.821789 71 45 123 255 
8.26989 8.17634 -0.843809 70 52 128 255 
7.58801 7.48624 -0.872612 69 53 129 255 
7.05614 6.94948 -0.904798 68 57 131 255 
6.52792 6.42235 -0.923729 69 56 130 255 
6.11104 6.0356 -0.936113 61 78 138 255 
5.76094 5.68169 -0.959107 60 79 138 255 
5.42836 5.34444 -0.975856 64 69 136 255 
5.14561 5.05887 -0.99359 57 86 140 255 
4.87219 4.807 -0.999706 57 86 140 255 
4.67727 4.60971 -1.02133 50 102 142 255 
4.4513 4.38096 -1.03058 59 82 139 255 
4.25251 4.18083 -1.04294 62 74 137 255 
4.06231 4.00237 -1.04665 56 88 140 255 
3.905 3.84457 -1.05725 60 80 139 255 
3.72291 3.66408 -1.0599 61 77 138 255 
3.57512 3.51607 -1.06859 59 81 139 255 
3.44345 3.38911 -1.072 54 92 141 255 
3.32994 3.27612 -1.0819 58 83 139 255 
3.18849 3.13591 -1.08111 60 79 138 255 
3.07112 3.0225 -1.08714 62 74 137 255 
2.96962 2.91767 -1.08829 61 77 138 255 
2.87907 2.82859 -1.09507 64 69 136 255 
2.79273 2.74573 -1.10381 65 66 135 255 
2.68914 2.64842 -1.10584 67 62 133 255 
9.36791 9.16491 3.93682 70 50 126 255 
11.0008 10.7809 4.45453 70 48 126 255 
9.54265 9.3586 3.72426 62 73 137 255 
9.49782 9.31427 3.57194 65 66 135 255 
9.60743 9.40908 3.49027 61 78 138 255 
9.75987 9.56144 3.40149 68 59 132 255 
10.2353 10.0239 3.42092 72 41 121 255 
10.2128 9.99796 3.27329 70 48 126 255 
7.7749 7.61704 2.40104 65 68 135 255 
7.74687 7.58672 2.27907 59 82 139 255 
9.76961 9.55779 2.73845 70 52 128 255 
10.2488 10.0192 2.73408 72 26 108 255 
7.8501 7.6907 2.00507 60 79 138 255 
7.93599 7.76922 1.91632 66 64 134 255 
7.83909 7.66378 1.78345 47 107 142 255 
8.02481 7.83141 1.71982 61 78 138 255 
8.11461 7.94707 1.64885 51 98 141 255 
10.5825 10.3565 2.00461 63 71 136 255 
10.5552 10.3083 1.85598 69 55 129 255 
10.5848 10.3225 1.72374 67 62 133 255 
15.1843 14.8708 2.3051 72 35 116 255 
11.5619 11.3031 1.59964 69 56 130 255 
14.5156 14.1712 1.81405 71 14 97 255 
14.6384 14.2607 1.6371 72 40 120 255 
14.3297 14.029 1.44803 72 32 113 255 
14.2956 13.9708 1.25408 72 32 113 255 
16.8172 16.401 1.25165 72 29 111 255 
46.8698 45.6287 2.8674 69 5 89 255 
46.774 45.7605 2.35367 69 4 87 255 
0 0 0 69 4 87 255 
30.1119 29.3564 0.719369 70 7 90 255 
20.2941 19.7429 0.222375 69 5 89 255 
20.2461 19.8005 -0.0049426 70 7 90 255 
20.1589 19.6733 -0.270399 72 20 103 255 
16.755 16.3232 -0.440978 71 19 101 255 
14.0164 13.6262 -0.552859 72 29 111 255 
11.4651 11.201 -0.582133 71 44 122 255 
10.5674 10.3057 -0.67286 70 50 126 255 
9.79481 9.53906 -0.752433 67 62 133 255 
9.15317 8.89528 -0.823141 70 48 126 255 
8.32704 8.13241 -0.844533 70 52 128 255 
7.63094 7.43675 -0.872285 68 57 131 255 
7.07509 6.88314 -0.901796 68 58 131 255 
6.55864 6.37385 -0.922525 69 53 129 255 
6.15437 6.00423 -0.937088 65 66 135 255 
5.78431 5.63515 -0.957224 62 76 138 255 
5.46176 5.31172 -0.975983 64 70 136 255 
5.17371 5.02444 -0.993044 53 94 141 255 
4.90938 4.78462 -1.0013 57 86 140 255 
4.71325 4.5885 -1.02302 49 103 142 255 
4.47243 4.34806 -1.02928 59 81 139 255 
4.27597 4.1526 -1.04242 59 81 139 255 
4.07974 3.97051 -1.04484 56 89 140 255 
3.93204 3.82396 -1.0582 58 84 140 255 
3.74954 3.64527 -1.06109 59 81 139 255 
3.58751 3.48521 -1.06588 59 82 139 255 
3.47118 3.37472 -1.07417 58 84 140 255 
3.35208 3.25767 -1.08258 54 93 141 255 
3.21673 3.12509 -1.08416 60 79 138 255 
3.09169 3.00563 -1.08787 62 74 137 255 
3.00066 2.91219 -1.09309 60 79 138 255 
2.89568 2.81019 -1.0948 66 64 134 255 
2.79503 2.71446 -1.09811 66 64 134 255 
2.69227 2.61916 -1.1005 68 57 131 255 
11.2572 10.8789 4.70266 72 24 106 255 
11.1234 10.768 4.47731 69 55 129 255 
9.65386 9.35215 3.7452 68 59 132 255 
9.67342 9.37073 3.61628 63 72 137 255 
9.7422 9.42465 3.51815 72 35 116 255 
9.83021 9.51285 3.4056 59 81 139 255 
10.1435 9.81282 3.37005 62 76 138 255 
7.86275 7.60345 2.50509 72 35 116 255 
7.81097 7.559 2.39781 68 57 131 255 
11.3931 11.0214 3.3318 71 19 101 255 
7.76078 7.49988 2.16243 66 65 134 255 
8.04609 7.7699 2.13371 72 36 117 255 
7.93178 7.67591 2.01387 61 78 138 255 
7.89779 7.63749 1.89575 45 112 142 255 
7.90655 7.63542 1.78811 51 99 141 255 
8.08196 7.79094 1.72179 47 107 142 255 
8.21158 7.94392 1.65862 44 115 142 255 
10.7527 10.3946 2.02473 66 63 133 255 
10.816 10.4342 1.89055 70 52 128 255 
10.6501 10.2594 1.72409 63 71 136 255 
10.598 10.2525 1.59927 70 51 127 255 
11.4406 11.0481 1.57345 72 40 120 255 
11.1322 10.7354 1.38296 72 27 109 255 
14.5224 13.975 1.61451 72 40 120 255 
14.0477 13.5851 1.41108 72 29 111 255 
16.2566 15.6934 1.41763 72 36 117 255 
0 0 0 68 2 86 255 
0 0 0 68 2 86 255 
47.1014 45.5184 2.35605 69 5 89 255 
0 0 0 69 4 87 255 
29.0736 27.9983 0.690447 70 7 90 255 
20.368 19.573 0.221865 69 4 87 255 
20.2766 19.5884 -0.00492061 69 5 89 255 
20.1662 19.4403 -0.268892 71 19 101 255 
16.9824 16.3428 -0.444314 72 26 108 255 
14.311 13.7428 -0.561143 72 23 105 255 
11.4818 11.0805 -0.57952 71 42 122 255 
10.7945 10.3987 -0.683242 72 38 119 255 
9.86395 9.48917 -0.753257 72 41 121 255 
9.21046 8.84171 -0.823398 70 48 126 255 
8.36961 8.07424 -0.843809 70 52 128 255 
7.69007 7.40292 -0.873835 69 56 130 255 
7.10355 6.82649 -0.900067 70 48 126 255 
6.6084 6.34383 -0.92403 69 55 129 255 
6.1961 5.97119 -0.937846 64 70 136 255 
5.8152 5.59611 -0.956635 60 80 139 255 
5.50068 5.2843 -0.977127 65 66 135 255 
5.20015 4.98848 -0.992226 58 83 139 255 
4.95861 4.77362 -1.00534 51 98 141 255 
4.73135 4.54991 -1.02087 50 101 142 255 
4.48195 4.30413 -1.02537 58 84 140 255 
4.27791 4.10378 -1.03674 59 81 139 255 
4.09197 3.93382 -1.04178 56 88 140 255 
3.9526 3.79704 -1.05744 55 90 140 255 
3.76194 3.61269 -1.05831 60 80 139 255 
3.61023 3.46449 -1.0663 57 85 140 255 
3.48408 3.34592 -1.07179 61 77 138 255 
3.36217 3.22759 -1.07942 55 91 141 255 
3.23024 3.09991 -1.08228 59 82 139 255 
3.12826 3.00406 -1.09423 60 79 138 255 
3.01708 2.89239 -1.09259 64 70 136 255 
2.91357 2.79304 -1.09507 68 59 132 255 
2.81649 2.70192 -1.10001 66 63 133 255 
2.71521 2.60924 -1.10331 69 56 130 255 
16.1551 15.4216 6.70904 72 26 108 255 
9.79577 9.36709 3.91973 72 33 115 255 
9.72359 9.30473 3.75003 65 66 135 255 
9.7419 9.32188 3.62043 67 62 133 255 
9.79705 9.36202 3.51715 65 66 135 255 
9.90733 9.47046 3.41212 62 76 138 255 
10.4258 9.96274 3.44345 67 61 132 255 
10.3347 9.87188 3.27329 71 45 123 255 
7.91932 7.57031 2.41676 60 79 138 255 
7.91792 7.56613 2.3019 68 57 131 255 
7.80027 7.44603 2.16066 58 84 140 255 
7.97421 7.60648 2.10223 69 53 129 255 
7.93321 7.5836 2.00238 57 86 140 255 
7.94451 7.58888 1.89575 55 91 141 255 
8.16323 7.78706 1.83532 68 59 132 255 
8.10742 7.72008 1.71709 59 82 139 255 
8.25516 7.8886 1.65761 63 72 137 255 
10.794 10.3073 2.02057 70 52 128 255 
10.9222 10.408 1.89792 70 52 128 255 
10.7697 10.248 1.73324 68 57 131 255 
10.8511 10.3693 1.62785 69 55 129 255 
11.1136 10.6013 1.5195 70 52 128 255 
11.1928 10.6621 1.38234 70 50 126 255 
11.4087 10.8447 1.26093 72 41 121 255 
11.5712 11.0536 1.15548 72 24 106 255 
11.6469 11.1061 1.00969 72 24 106 255 
11.6142 11.0519 0.854245 72 20 103 255 
11.6307 11.048 0.703196 72 24 106 255 
0 0 0 69 4 87 255 
11.6623 11.1131 0.427465 69 4 87 255 
29.339 27.909 0.69267 70 8 92 255 
11.686 11.0928 0.12655 71 13 96 255 
19.8444 18.9368 -0.00478744 69 4 87 255 
11.6256 11.0703 -0.154105 70 8 92 255 
17.0802 16.2363 -0.444258 71 13 96 255 
14.0317 13.3101 -0.546979 71 19 101 255 
11.5727 11.0319 -0.580682 71 45 123 255 
10.8566 10.3309 -0.683151 71 45 123 255 
9.9343 9.44016 -0.754191 71 44 122 255 
9.2935 8.8125 -0.825972 69 53 129 255 
8.42188 8.02548 -0.844099 71 42 122 255 
7.72885 7.34942 -0.873101 69 56 130 255 
7.1778 6.81363 -0.904161 68 57 131 255 
6.6638 6.3189 -0.926339 68 59 132 255 
6.23983 5.93991 -0.93893 68 58 131 255 
5.85879 5.56921 -0.958165 62 74 137 255 
5.54524 5.26205 -0.979287 64 69 136 255 
5.23714 4.96261 -0.993454 57 85 140 255 
5.00717 4.76151 -1.00925 50 100 142 255 
4.74628 4.50854 -1.0181 52 96 141 255 
4.50827 4.27655 -1.02537 58 84 140 255 
4.29371 4.06864 -1.0345 62 76 138 255 
4.11532 3.90796 -1.0416 58 84 140 255 
3.97083 3.76799 -1.05612 55 91 141 255 
3.78617 3.59156 -1.0589 62 76 138 255 
3.64136 3.45169 -1.06921 58 83 139 255 
3.50879 3.32851 -1.07309 55 90 140 255 
3.35929 3.18545 -1.0722 57 85 140 255 
3.24073 3.07201 -1.07946 62 76 138 255 
3.12342 2.96279 -1.08616 65 68 135 255 
3.01931 2.85918 -1.08702 66 65 134 255 
2.92715 2.77179 -1.09376 65 66 135 255 
2.84979 2.70048 -1.10652 64 69 136 255 
2.72421 2.58592 -1.1005 66 64 134 255 
11.716 11.0475 4.8373 70 50 126 255 
9.77904 9.23689 3.89028 72 27 109 255 
11.5383 10.9065 4.42402 72 35 116 255 
9.92455 9.38068 3.66685 66 64 134 255 
10.0176 9.45588 3.57543 64 69 136 255 
9.98713 9.43014 3.41961 72 33 115 255 
10.5433 9.95199 3.46203 64 70 136 255 
10.5936 9.99559 3.3358 69 55 129 255 
7.97343 7.52895 2.41913 58 83 139 255 
7.92861 7.48381 2.29161 64 69 136 255 
7.90645 7.4552 2.17736 47 108 142 255 
7.94852 7.48937 2.08331 53 94 141 255 
7.961 7.51722 1.99771 67 62 133 255 
7.98017 7.52985 1.8932 50 102 142 255 
8.02983 7.56625 1.79485 65 66 135 255 
8.15248 7.66815 1.71663 51 99 141 255 
8.16308 7.70534 1.6296 52 97 141 255 
9.46219 8.92512 1.76097 56 88 140 255 
11.6137 10.9317 2.00638 69 53 129 255 
10.9865 10.3266 1.7579 67 62 133 255 
11.6194 10.9679 1.73298 71 46 124 255 
11.6311 10.9594 1.58103 71 47 125 255 
11.6164 10.9304 1.42634 72 38 119 255 
11.5542 10.8489 1.26963 71 45 123 255 
11.6671 11.0091 1.15829 68 59 132 255 
11.6843 11.0057 1.00706 65 66 135 255 
11.6818 10.9804 0.854245 69 53 129 255 
11.71 10.9874 0.703897 69 56 130 255 
11.6756 11.0094 0.577221 70 52 128 255 
11.7012 11.0139 0.426404 71 47 125 255 
11.7328 11.0245 0.275399 70 50 126 255 
11.721 10.9901 0.126196 71 46 124 255 
11.7062 11.0343 -0.00280771 70 51 127 255 
11.7042 11.0091 -0.154249 69 53 129 255 
11.6933 10.9797 -0.302386 70 50 126 255 
11.6943 10.9574 -0.453234 71 45 123 255 
11.6489 10.9689 -0.581117 71 46 124 255 
10.9053 10.2504 -0.68224 71 42 122 255 
10.0044 9.39064 -0.755125 70 50 126 255 
9.34012 8.74849 -0.825329 70 51 127 255 
8.46225 7.96545 -0.84323 71 45 123 255 
7.77961 7.30732 -0.873754 70 52 128 255 
7.20712 6.75788 -0.902615 70 48 126 255 
6.71407 6.28878 -0.927944 67 62 133 255 
6.28267 5.90764 -0.939905 64 69 136 255 
5.88706 5.52772 -0.957224 66 65 134 255 
5.58393 5.23403 -0.980431 63 71 136 255 
5.28195 4.94393 -0.996182 57 85 140 255 
5.05071 4.74425 -1.01214 53 95 141 255 
4.77025 4.47595 -1.01733 54 93 141 255 
4.55171 4.265 -1.02928 56 88 140 255 
4.32363 4.04693 -1.0357 58 84 140 255 
4.14568 3.88869 -1.04322 56 89 140 255 
3.98528 3.73549 -1.05384 56 88 140 255 
3.79812 3.55888 -1.05612 57 86 140 255 
3.68532 3.45067 -1.07588 58 83 139 255 
3.532 3.30959 -1.07395 59 82 139 255 
3.3873 3.17277 -1.07491 58 83 139 255 
3.26732 3.05938 -1.08205 63 71 136 255 
3.14437 2.94622 -1.08714 62 73 137 255 
3.0368 2.8406 -1.08702 61 77 138 255 
2.97088 2.77883 -1.10371 66 63 133 255 
2.85857 2.6757 -1.10354 67 61 132 255 
2.75753 2.58557 -1.10753 67 61 132 255 
11.6007 10.805 4.76221 71 44 122 255 
11.6126 10.8347 4.59316 72 32 113 255 
11.6304 10.8591 4.43369 72 37 118 255 
10.0059 9.34202 3.67567 72 27 109 255 
10.2453 9.55265 3.63573 72 37 118 255 
10.3549 9.65792 3.52518 72 36 117 255 
10.5031 9.79292 3.42905 71 45 123 255 
10.5863 9.8666 3.31437 72 29 111 255 
10.5981 9.88504 3.19701 69 55 129 255 
7.98727 7.44704 2.29532 70 50 126 255 
7.89967 7.35776 2.16302 66 64 134 255 
7.99217 7.43846 2.08274 53 94 141 255 
7.98323 7.44608 1.99179 54 92 141 255 
8.05218 7.50493 1.89932 52 97 141 255 
8.11873 7.55651 1.80433 59 82 139 255 
8.17621 7.59646 1.71178 61 78 138 255 
8.19718 7.64296 1.62701 57 85 140 255 
9.51678 8.86689 1.76097 56 89 140 255 
11.6994 10.8778 2.00963 72 37 118 255 
11.0431 10.2529 1.75686 72 29 111 255 
14.4787 13.4998 2.14703 72 31 112 255 
14.6389 13.6249 1.97848 72 40 120 255 
14.7955 13.7517 1.8063 72 37 118 255 
11.7521 10.8998 1.284 72 35 116 255 
11.7432 10.9454 1.15916 71 45 123 255 
11.7509 10.9331 1.007 70 52 128 255 
11.7548 10.914 0.854671 70 48 126 255 
11.7991 10.9357 0.705211 71 45 123 255 
11.7356 10.9307 0.576862 70 51 127 255 
11.7554 10.9296 0.425926 71 47 125 255 
11.7885 10.9415 0.275125 71 47 125 255 
11.7765 10.9071 0.126071 72 41 121 255 
11.7517 10.9419 -0.00280248 70 51 127 255 
11.7511 10.918 -0.15398 72 41 121 255 
11.7597 10.9071 -0.302367 71 44 122 255 
11.7576 10.882 -0.453092 72 40 120 255 
11.708 10.8897 -0.580718 70 52 128 255 
10.9562 10.1724 -0.681512 68 58 131 255 
10.0758 9.34198 -0.756169 69 55 129 255 
9.37824 8.67678 -0.823977 71 44 122 255 
8.44523 7.85226 -0.836717 71 45 123 255 
7.82942 7.26419 -0.874325 70 48 126 255 
7.22946 6.69593 -0.900249 70 50 126 255 
6.74522 6.24071 -0.926941 69 55 129 255 
6.31735 5.86763 -0.939688 64 70 136 255 
5.9296 5.4996 -0.958636 63 72 137 255 
5.62177 5.20506 -0.981447 63 72 137 255 
5.31801 4.9168 -0.997273 55 90 140 255 
5.06522 4.69971 -1.00925 49 104 142 255 
4.79907 4.44794 -1.01764 51 99 141 255 
4.58214 4.24101 -1.03026 56 89 140 255 
4.35489 4.02635 -1.03726 56 89 140 255 
4.17018 3.86385 -1.0434 56 89 140 255 
4.01101 3.71364 -1.0546 56 89 140 255 
3.81485 3.53085 -1.05473 56 88 140 255 
3.69709 3.41936 -1.07317 59 82 139 255 
3.54579 3.28188 -1.072 59 81 139 255 
3.41886 3.16317 -1.07874 60 80 139 255 
3.28889 3.04191 -1.08299 62 76 138 255 
3.17092 2.93478 -1.09007 62 73 137 255 
3.05488 2.82257 -1.08728 60 79 138 255 
2.98858 2.76121 -1.10397 63 72 137 255 
2.84738 2.63263 -1.09296 66 63 133 255 
2.78179 2.57642 -1.1109 66 64 134 255 
10.145 9.33363 4.14108 72 28 110 255 
12.1811 11.2261 4.79069 72 41 121 255 
10.2168 9.42263 3.8727 72 40 120 255 
11.6896 10.7805 4.26978 72 28 110 255 
10.2575 9.44699 3.6194 62 74 137 255 
10.4639 9.64023 3.54209 69 53 129 255 
15.6206 14.3862 5.07087 72 22 104 255 
10.448 9.61858 3.25253 72 31 112 255 
12.7033 11.7036 3.8103 72 38 119 255 
12.8227 11.8092 3.66399 72 20 103 255 
11.7308 10.7925 3.19384 72 31 112 255 
8.06369 7.41321 2.08949 58 84 140 255 
8.03167 7.39962 1.99251 55 90 140 255 
8.40112 7.73437 1.97039 48 106 142 255 
9.58547 8.81253 2.11824 64 70 136 255 
8.23067 7.5535 1.71345 61 78 138 255 
8.2148 7.5657 1.62126 64 69 136 255 
11.628 10.7014 2.13944 71 42 122 255 
14.6356 13.4413 2.49977 68 57 131 255 
14.7975 13.5705 2.34086 70 52 128 255 
14.5569 13.4067 2.14638 68 57 131 255 
14.6936 13.5086 1.97464 69 56 130 255 
12.1011 11.1097 1.469 71 44 122 255 
11.9452 10.9433 1.29774 72 41 121 255 
14.5009 13.3504 1.42325 70 52 128 255 
14.5881 13.4068 1.24306 71 16 99 255 
23.919 21.9364 1.72929 70 11 94 255 
0 0 0 68 2 86 255 
11.8319 10.8856 0.5783 72 24 106 255 
11.8568 10.8891 0.427173 72 29 111 255 
11.8687 10.8811 0.275433 72 36 117 255 
11.855 10.8454 0.126196 72 40 120 255 
11.8356 10.8851 -0.00280649 72 41 121 255 
11.8517 10.8768 -0.154422 71 44 122 255 
11.8596 10.8651 -0.303215 70 48 126 255 
11.8227 10.8083 -0.453036 71 46 124 255 
11.7466 10.792 -0.579339 70 50 126 255 
11.0553 10.1387 -0.683789 72 28 110 255 
10.1417 9.28807 -0.756829 70 50 126 255 
9.42909 8.61705 -0.823784 72 38 119 255 
8.51308 7.8185 -0.838671 72 40 120 255 
7.87531 7.21736 -0.874488 71 47 125 255 
7.27114 6.65212 -0.90034 68 59 132 255 
6.76429 6.18175 -0.924331 70 50 126 255 
6.34664 5.82271 -0.938713 62 74 137 255 
5.96616 5.4658 -0.959107 63 72 137 255 
5.64408 5.16177 -0.979795 62 73 137 255 
5.30638 4.846 -0.989498 61 77 138 255 
5.08302 4.65851 -1.00708 53 94 141 255 
4.83065 4.42241 -1.01856 52 97 141 255 
4.59278 4.19883 -1.02684 59 82 139 255 
4.38461 4.0042 -1.03846 58 83 139 255 
4.17132 3.8176 -1.0378 59 82 139 255 
4.03589 3.69094 -1.05517 54 92 141 255 
3.84874 3.51861 -1.05811 59 82 139 255 
3.6985 3.3788 -1.06755 60 80 139 255 
3.56875 3.2627 -1.07287 57 86 140 255 
3.43389 3.13819 -1.07739 61 78 138 255 
3.31108 3.02495 -1.08416 61 78 138 255 
3.18028 2.90741 -1.08714 63 72 137 255 
3.09072 2.82073 -1.09385 62 76 138 255 
2.99977 2.73761 -1.10187 63 71 136 255 
2.88266 2.63263 -1.10028 66 64 134 255 
2.80392 2.56514 -1.11343 68 58 131 255 
10.1164 9.19327 4.10627 68 59 132 255 
10.2529 9.33339 4.00974 68 59 132 255 
10.293 9.37663 3.87968 60 80 139 255 
12.0789 11.0032 4.38726 72 22 104 255 
10.3095 9.37866 3.61739 61 77 138 255 
10.538 9.58955 3.54717 70 48 126 255 
10.57 9.61551 3.41209 72 41 121 255 
10.4895 9.53855 3.24717 72 35 116 255 
10.71 9.74635 3.19442 72 33 115 255 
12.9166 11.75 3.67016 72 33 115 255 
12.6676 11.5116 3.42959 70 48 126 255 
8.10903 7.36359 2.08949 72 37 118 255 
10.964 9.9775 2.70472 68 58 131 255 
8.46446 7.69726 1.97414 53 94 141 255 
9.42088 8.55515 2.07023 72 41 121 255 
11.7218 10.6256 2.4266 72 29 111 255 
8.2801 7.53247 1.625 72 41 121 255 
9.86245 8.96541 1.80444 72 22 104 255 
14.7774 13.4053 2.50988 70 50 126 255 
12.0581 10.9228 1.89687 71 42 122 255 
14.8646 13.5225 2.17948 71 45 123 255 
15.0893 13.7025 2.01648 72 23 105 255 
12.0583 10.9349 1.45564 72 40 120 255 
14.6109 13.2214 1.57849 72 27 109 255 
14.5995 13.2767 1.42491 70 52 128 255 
23.9479 21.7392 2.02921 70 11 94 255 
14.5987 13.2247 1.04957 72 20 103 255 
51.1895 46.2889 3.02532 71 16 99 255 
0 0 0 68 2 86 255 
37.4184 33.9435 1.34057 69 5 89 255 
0 0 0 68 2 86 255 
19.627 17.7356 0.207767 69 5 89 255 
11.9317 10.8392 -0.00281347 71 17 100 255 
11.9471 10.8301 -0.154796 72 27 109 255 
11.9623 10.825 -0.304138 72 32 113 255 
11.894 10.7402 -0.453234 72 35 116 255 
11.7911 10.7002 -0.578286 72 41 121 255 
11.1424 10.0935 -0.685337 72 38 119 255 
10.2052 9.2317 -0.757323 70 52 128 255 
9.46253 8.54165 -0.822111 72 33 115 255 
8.56016 7.76545 -0.838599 71 46 124 255 
7.91058 7.16087 -0.873509 70 50 126 255 
7.31921 6.61406 -0.90125 69 55 129 255 
6.81761 6.15413 -0.926439 70 50 126 255 
6.39035 5.791 -0.939905 64 69 136 255 
6.00327 5.43242 -0.959696 64 69 136 255 
5.67491 5.12638 -0.979668 63 72 137 255 
5.32719 4.80539 -0.987861 62 73 137 255 
5.12031 4.6352 -1.00881 51 98 141 255 
4.85549 4.3907 -1.0181 57 86 140 255 
4.60967 4.16264 -1.02488 58 84 140 255 
4.41787 3.98514 -1.04053 60 79 138 255 
4.22093 3.81568 -1.0443 55 90 140 255 
4.04389 3.65295 -1.05138 58 84 140 255 
3.87753 3.5015 -1.0601 57 85 140 255 
3.71481 3.35211 -1.0663 61 78 138 255 
3.57131 3.22504 -1.06767 61 78 138 255 
3.44657 3.11119 -1.07536 57 85 140 255 
3.33896 3.01304 -1.08722 62 76 138 255 
3.19806 2.88785 -1.08714 62 74 137 255 
3.09576 2.7907 -1.08955 64 69 136 255 
2.99787 2.70235 -1.09507 64 69 136 255 
2.90734 2.62263 -1.10354 66 64 134 255 
2.80252 2.53244 -1.10668 67 61 132 255 
9.35082 8.3934 3.77456 62 74 137 255 
10.3242 9.28315 4.0153 61 77 138 255 
10.3539 9.31652 3.88102 58 84 140 255 
10.4454 9.3985 3.77292 68 58 131 255 
10.467 9.40515 3.65231 67 61 132 255 
10.5446 9.47801 3.52977 71 44 122 255 
15.7121 14.118 5.04393 71 44 122 255 
10.6638 9.57823 3.28289 72 27 109 255 
10.7725 9.68306 3.19528 72 40 120 255 
16.1674 14.5269 4.56842 71 42 122 255 
11.6756 10.48 3.14355 72 27 109 255 
10.7814 9.67027 2.76275 62 73 137 255 
11.1121 9.9883 2.72608 72 38 119 255 
8.54525 7.67547 1.98196 62 74 137 255 
9.74285 8.73906 2.12916 66 63 133 255 
11.7764 10.5443 2.42448 71 46 124 255 
15.8345 14.2282 3.09039 72 31 112 255 
14.2617 12.8056 2.59491 72 35 116 255 
14.8859 13.3382 2.51437 72 38 119 255 
12.1242 10.848 1.89675 71 45 123 255 
15.1566 13.6191 2.21 72 41 121 255 
15.062 13.51 2.00171 72 27 109 255 
12.094 10.8328 1.4519 70 50 126 255 
14.6769 13.1182 1.5769 71 46 124 255 
14.3661 12.9042 1.39437 70 52 128 255 
14.3874 12.9003 1.21238 66 65 134 255 
14.7733 13.2187 1.05627 71 44 122 255 
15.0601 13.4512 0.885159 71 16 99 255 
51.3708 46.111 2.48297 70 7 90 255 
37.5172 33.6158 1.33669 70 7 90 255 
27.8927 24.9488 0.640146 70 11 94 255 
14.0865 12.5729 0.148297 72 20 103 255 
19.6896 17.6674 -0.00461709 70 7 90 255 
13.7223 12.2867 -0.176817 72 26 108 255 
13.6834 12.2306 -0.345982 72 37 118 255 
14.2715 12.729 -0.540844 71 16 99 255 
11.9273 10.691 -0.581734 71 47 125 255 
11.2071 10.0276 -0.685519 71 44 122 255 
10.281 9.1862 -0.758752 69 53 129 255 
9.5304 8.49738 -0.823462 72 32 113 255 
8.6069 7.71212 -0.838526 71 47 125 255 
7.9514 7.10954 -0.873183 70 48 126 255 
7.38194 6.58892 -0.903979 69 55 129 255 
6.87306 6.12807 -0.928848 68 57 131 255 
6.42724 5.753 -0.940121 66 65 134 255 
6.02983 5.38952 -0.958636 62 73 137 255 
5.69072 5.07759 -0.977 63 72 137 255 
5.35731 4.77327 -0.987997 66 64 134 255 
5.15677 4.61095 -1.0104 49 103 142 255 
4.86981 4.34964 -1.01549 54 92 141 255 
4.63733 4.13625 -1.02537 52 96 141 255 
4.43562 3.95206 -1.03898 60 79 138 255 
4.25013 3.79495 -1.04575 52 96 141 255 
4.0633 3.62545 -1.05062 58 84 140 255 
3.89748 3.47634 -1.0597 58 84 140 255 
3.71559 3.31169 -1.06067 57 85 140 255 
3.6005 3.21151 -1.07049 58 83 139 255 
3.4656 3.08998 -1.07536 59 81 139 255 
3.35013 2.98603 -1.08487 66 64 134 255 
3.22296 2.87462 -1.08958 63 72 137 255 
3.10849 2.7678 -1.08803 62 76 138 255 
3.01295 2.68263 -1.09454 66 64 134 255 
2.91475 2.59706 -1.10028 67 62 133 255 
2.80225 2.50114 -1.1005 68 59 132 255 
9.76333 8.65609 3.91955 72 27 109 255 
10.2955 9.14372 3.98224 65 68 135 255 
12.2124 10.8539 4.55259 72 37 118 255 
10.4769 9.31114 3.76358 62 74 137 255 
10.3884 9.21996 3.60508 66 63 133 255 
10.6229 9.43117 3.53654 70 52 128 255 
15.7191 13.951 5.01861 72 38 119 255 
16.4201 14.5675 5.02737 71 19 101 255 
11.6196 10.3163 3.42772 71 45 123 255 
11.667 10.3545 3.27873 71 45 123 255 
11.7543 10.4212 3.14748 68 58 131 255 
10.8545 9.61631 2.76631 72 33 115 255 
11.0385 9.8004 2.69323 69 56 130 255 
8.60472 7.63401 1.98485 65 68 135 255 
9.79777 8.68042 2.12948 56 89 140 255 
11.9675 10.5838 2.45041 72 37 118 255 
11.579 10.2767 2.2475 62 76 138 255 
15.7064 13.9297 2.84216 72 32 113 255 
11.838 10.477 1.98866 71 42 122 255 
12.1771 10.7615 1.89467 70 52 128 255 
15.2615 13.5449 2.21313 72 36 117 255 
12.224 10.8298 1.61569 69 55 129 255 
15.0987 13.358 1.80274 71 46 124 255 
14.9768 13.2218 1.60037 71 45 123 255 
14.5801 12.9356 1.40741 71 45 123 255 
14.5597 12.8945 1.2202 69 53 129 255 
14.9649 13.2257 1.06415 72 38 119 255 
0 0 0 68 2 86 255 
52.4268 46.4811 2.52018 69 4 87 255 
0 0 0 69 4 87 255 
27.281 24.1019 0.6227 71 14 97 255 
13.9571 12.3044 0.146138 71 13 96 255 
14.0515 12.4536 -0.00327703 71 17 100 255 
13.7915 12.197 -0.17674 72 32 113 255 
17.9263 15.8262 -0.450798 70 10 93 255 
12.0406 10.6074 -0.453827 71 19 101 255 
12.0765 10.6919 -0.585799 69 53 129 255 
11.2138 9.91037 -0.682195 71 45 123 255 
10.3499 9.13418 -0.759686 70 51 127 255 
9.58835 8.44402 -0.823977 72 36 117 255 
8.67572 7.67833 -0.840625 70 48 126 255 
8.0001 7.06524 -0.873754 70 48 126 255 
7.40655 6.52967 -0.902069 70 48 126 255 
6.90755 6.08316 -0.928446 69 56 130 255 
6.43412 5.68844 -0.936004 65 66 135 255 
6.06948 5.35834 -0.959696 65 66 135 255 
5.72623 5.04651 -0.977762 62 74 137 255 
5.4155 4.76583 -0.993317 60 79 138 255 
5.182 4.57661 -1.00982 49 104 142 255 
4.90382 4.32621 -1.01703 58 83 139 255 
4.66189 4.10706 -1.02521 57 86 140 255 
4.44352 3.91045 -1.03519 59 82 139 255 
4.25194 3.74993 -1.04051 55 90 140 255 
4.07368 3.59006 -1.04759 54 92 141 255 
3.92094 3.4543 -1.06029 56 88 140 255 
3.72557 3.27978 -1.05775 61 78 138 255 
3.63039 3.1984 -1.07352 60 80 139 255 
3.48815 3.07188 -1.07649 57 86 140 255 
3.34504 2.94487 -1.07735 62 76 138 255 
3.22671 2.84261 -1.08494 64 69 136 255 
3.12614 2.74931 -1.08829 62 73 137 255 
3.03588 2.66982 -1.0969 63 71 136 255 
2.92702 2.57595 -1.09892 64 69 136 255 
2.81251 2.47945 -1.09853 67 62 133 255 
10.2154 8.94556 4.07894 71 44 122 255 
10.3348 9.0658 3.97585 66 65 134 255 
10.4508 9.17414 3.87485 71 47 125 255 
10.4975 9.21482 3.75061 68 57 131 255 
10.4135 9.1286 3.59427 67 61 132 255 
15.9483 13.9851 5.28077 72 37 118 255 
10.6735 9.35649 3.38933 63 71 136 255 
21.6117 18.9376 6.58119 70 10 93 255 
11.7128 10.2712 3.43655 65 66 135 255 
11.7185 10.2724 3.27544 65 66 135 255 
11.6794 10.2274 3.11054 61 77 138 255 
11.7982 10.3238 2.99061 71 45 123 255 
11.8203 10.3655 2.86841 69 55 129 255 
8.67289 7.59991 1.98978 71 45 123 255 
9.86719 8.63444 2.13302 66 63 133 255 
9.83394 8.58992 2.00271 62 76 138 255 
11.6694 10.2296 2.25282 70 51 127 255 
15.9243 13.9493 2.86604 72 33 115 255 
11.6421 10.1769 1.94522 62 73 137 255 
12.3372 10.7689 1.90926 72 32 113 255 
12.3121 10.7929 1.77578 69 56 130 255 
12.2925 10.7565 1.61598 72 26 108 255 
15.0626 13.1622 1.78876 69 53 129 255 
14.9607 13.0452 1.59007 71 45 123 255 
14.6682 12.8538 1.40827 72 41 121 255 
14.7227 12.8786 1.22722 71 17 100 255 
15.2572 13.3182 1.0791 71 17 100 255 
38.2626 33.3401 2.22468 70 7 90 255 
0 0 0 69 4 87 255 
37.0892 32.4207 1.30717 69 4 87 255 
26.6509 23.2557 0.60505 71 16 99 255 
14.0165 12.2047 0.145973 70 11 94 255 
17.1495 15.0124 -0.00397795 72 27 109 255 
13.8638 12.1102 -0.176711 71 19 101 255 
17.4895 15.2507 -0.437453 72 40 120 255 
15.0412 13.0877 -0.563885 72 22 104 255 
12.2735 10.7327 -0.592151 72 40 120 255 
11.3813 9.93466 -0.688661 72 38 119 255 
10.4155 9.07903 -0.760401 69 55 129 255 
9.64149 8.38633 -0.824106 72 37 118 255 
8.73018 7.63152 -0.841349 71 45 123 255 
8.05983 7.03043 -0.875549 70 50 126 255 
7.45924 6.49522 -0.903615 71 47 125 255 
6.93123 6.0289 -0.92664 68 57 131 255 
6.4689 5.64885 -0.936004 66 64 134 255 
6.09925 5.31839 -0.959225 63 72 137 255 
5.76233 5.01584 -0.978652 63 72 137 255 
5.44838 4.73576 -0.993999 58 83 139 255 
5.18985 4.52716 -1.00592 53 95 141 255 
4.93772 4.30253 -1.01856 58 83 139 255 
4.68849 4.07968 -1.02554 54 93 141 255 
4.46445 3.88053 -1.0345 58 84 140 255 
4.27413 3.72313 -1.04033 56 88 140 255 
4.08675 3.55726 -1.04532 57 85 140 255 
3.93467 3.42375 -1.05831 59 82 139 255 
3.76628 3.27483 -1.06359 62 76 138 255 
3.63448 3.1626 -1.06897 60 80 139 255 
3.50252 3.04658 -1.07513 60 80 139 255 
3.37258 2.93258 -1.0804 62 74 137 255 
3.24117 2.82022 -1.08396 61 78 138 255 
3.14441 2.73134 -1.08879 60 79 138 255 
3.05512 2.65368 -1.09795 64 70 136 255 
2.93841 2.55415 -1.0973 66 65 134 255 
2.83925 2.47223 -1.10303 66 65 134 255 
10.2897 8.89963 4.08671 61 78 138 255 
10.534 9.12677 4.03086 70 51 127 255 
10.389 9.00761 3.83136 70 48 126 255 
10.5488 9.14581 3.7488 70 48 126 255 
17.3339 15.0081 5.95101 71 19 101 255 
16.0426 13.8946 5.28367 72 36 117 255 
10.7337 9.29337 3.39026 66 64 134 255 
11.6122 10.0501 3.51731 69 5 89 255 
9.50951 8.23645 2.77522 71 16 99 255 
11.8191 10.2329 3.28593 70 51 127 255 
11.7308 10.146 3.1076 72 31 112 255 
11.7691 10.1716 2.96737 72 41 121 255 
11.6487 10.0893 2.8117 71 42 122 255 
11.6946 10.1216 2.66874 69 56 130 255 
12.1274 10.4816 2.60766 71 47 125 255 
9.90443 8.54492 2.00635 71 46 124 255 
11.705 10.1345 2.24764 68 57 131 255 
11.675 10.1011 2.09007 66 64 134 255 
11.7044 10.1053 1.94522 65 68 135 255 
11.9321 10.287 1.83677 71 42 122 255 
12.5163 10.8369 1.79562 71 46 124 255 
15.4467 13.3502 2.01983 71 44 122 255 
15.2027 13.121 1.79579 72 41 121 255 
15.0291 12.9434 1.58887 72 33 115 255 
14.7468 12.7636 1.40827 72 38 119 255 
15.9818 13.8078 1.32509 72 24 106 255 
0 0 0 68 2 86 255 
0 0 0 68 2 86 255 
38.4172 33.2274 1.82699 69 4 87 255 
37.4539 32.3362 1.31301 69 5 89 255 
26.2659 22.6374 0.593146 69 5 89 255 
14.1018 12.1276 0.146083 70 10 93 255 
17.2503 14.9147 -0.00398005 72 27 109 255 
13.7894 11.8968 -0.17483 71 16 99 255 
13.8145 11.8977 -0.343701 72 24 106 255 
13.8059 11.8648 -0.514835 72 23 105 255 
12.4601 10.7617 -0.597958 72 35 116 255 
11.4481 9.86986 -0.689026 71 45 123 255 
10.4673 9.01169 -0.760126 69 53 129 255 
9.69352 8.32767 -0.82417 71 42 122 255 
8.78741 7.58693 -0.842362 72 41 121 255 
8.09073 6.97044 -0.874243 70 51 127 255 
7.51179 6.46036 -0.905162 70 50 126 255 
6.96507 5.98367 -0.926238 70 51 127 255 
6.52979 5.63178 -0.939796 65 66 135 255 
6.13327 5.28216 -0.95946 62 76 138 255 
5.79826 4.98492 -0.979541 63 71 136 255 
5.46682 4.69321 -0.99209 56 88 140 255 
5.20554 4.4849 -1.00361 59 82 139 255 
4.96403 4.27215 -1.01856 58 83 139 255 
4.69323 4.03347 -1.02114 58 84 140 255 
4.47996 3.846 -1.0326 60 79 138 255 
4.30883 3.7071 -1.04322 56 89 140 255 
4.13083 3.55132 -1.051 58 83 139 255 
3.94223 3.38804 -1.05473 61 77 138 255 
3.79002 3.25484 -1.06463 63 72 137 255 
3.6479 3.13515 -1.06724 56 89 140 255 
3.51819 3.02249 -1.07423 62 73 137 255 
3.40305 2.92259 -1.0844 61 78 138 255 
3.26356 2.8047 -1.08567 62 74 137 255 
3.17139 2.72082 -1.09233 62 76 138 255 
3.0545 2.62043 -1.09192 67 62 133 255 
2.94308 2.52667 -1.09323 66 65 134 255 
2.86382 2.4629 -1.10668 67 61 132 255 
10.3011 8.79962 4.06973 63 72 137 255 
10.4358 8.93018 3.97224 71 45 123 255 
12.6998 10.8754 4.65889 72 29 111 255 
13.0094 11.1401 4.59887 71 44 122 255 
13.4981 11.5428 4.60972 72 23 105 255 
15.8798 13.5839 5.20249 72 35 116 255 
15.9592 13.6473 5.0142 72 35 116 255 
13.6357 11.6558 4.10847 72 24 106 255 
11.7385 10.0417 3.40768 68 59 132 255 
11.7054 10.0095 3.23718 71 46 124 255 
12.0396 10.2846 3.17263 72 36 117 255 
12.0241 10.2637 3.01571 68 59 132 255 
13.9045 11.8945 3.3385 72 23 105 255 
11.6681 9.97411 2.64867 71 44 122 255 
11.5451 9.85523 2.46941 72 27 109 255 
12.5365 10.6822 2.52621 72 33 115 255 
11.8843 10.1628 2.27006 72 40 120 255 
12.4298 10.6215 2.21349 70 50 126 255 
12.2372 10.435 2.02311 71 42 122 255 
15.4957 13.1944 2.37282 69 53 129 255 
15.6797 13.4084 2.2376 71 42 122 255 
15.1476 12.9301 1.97031 71 42 122 255 
15.0441 12.8239 1.76774 70 50 126 255 
16.0893 13.6853 1.69204 71 19 101 255 
14.8339 12.6806 1.40914 72 28 110 255 
15.2152 12.9833 1.25489 70 50 126 255 
16.0444 13.6621 1.12284 72 31 112 255 
15.2882 12.9948 0.879554 70 10 93 255 
55.0644 47.0382 2.6049 69 4 87 255 
37.8601 32.2835 1.32027 70 7 90 255 
0 0 0 69 4 87 255 
12.1509 10.3208 0.125215 72 35 116 255 
17.6929 15.1086 -0.00406068 72 27 109 255 
22.4026 19.0893 -0.282542 70 10 93 255 
18.9731 16.1388 -0.469571 71 14 97 255 
15.1382 12.8491 -0.561567 72 27 109 255 
12.3062 10.4976 -0.587469 72 38 119 255 
11.4955 9.78842 -0.688251 71 44 122 255 
10.5262 8.95053 -0.760401 68 58 131 255 
9.73302 8.25835 -0.823205 70 48 126 255 
8.84746 7.54452 -0.843664 71 45 123 255 
8.1379 6.92454 -0.874733 69 56 130 255 
7.54825 6.41157 -0.904798 70 51 127 255 
7.01759 5.95434 -0.928346 69 56 130 255 
6.57557 5.60127 -0.941422 66 65 134 255 
6.17086 5.24893 -0.960284 63 72 137 255 
5.82874 4.94924 -0.979541 65 68 135 255 
5.49249 4.65701 -0.991544 57 85 140 255 
5.23597 4.45544 -1.00419 53 95 141 255 
4.98187 4.23458 -1.01687 60 80 139 255 
4.73068 4.01545 -1.02391 59 82 139 255 
4.51024 3.82417 -1.03415 58 84 140 255 
4.3165 3.66785 -1.03961 56 89 140 255 
4.13384 3.51002 -1.04627 58 83 139 255 
3.96294 3.36379 -1.05473 57 86 140 255 
3.82185 3.24165 -1.06796 59 81 139 255 
3.66409 3.11018 -1.06637 61 78 138 255 
3.55301 3.01472 -1.07919 59 82 139 255 
3.41647 2.89789 -1.08299 59 82 139 255 
3.28219 2.78588 -1.08616 62 73 137 255 
3.20131 2.71257 -1.09689 58 84 140 255 
3.07052 2.60164 -1.09192 65 68 135 255 
2.96146 2.51105 -1.09431 66 63 133 255 
2.86498 2.43348 -1.10134 66 63 133 255 
10.2437 8.64238 4.026 69 55 129 255 
10.5058 8.879 3.97807 66 63 133 255 
12.528 10.5957 4.57192 72 38 119 255 
10.4626 8.84853 3.6793 66 63 133 255 
11.138 9.40691 3.78395 72 40 120 255 
13.6879 11.5643 4.46108 72 33 115 255 
16.0582 13.5623 5.01908 72 33 115 255 
11.7593 9.92761 3.52467 71 44 122 255 
11.7693 9.94362 3.39885 70 52 128 255 
11.7277 9.90464 3.22648 71 45 123 255 
12.0935 10.2029 3.17027 71 46 124 255 
12.0515 10.16 3.00691 70 52 128 255 
12.2376 10.3392 2.92298 68 58 131 255 
12.3804 10.4522 2.79576 71 13 96 255 
11.828 9.97188 2.51678 72 35 116 255 
11.8705 9.98967 2.37961 72 41 121 255 
12.5762 10.6216 2.38973 72 41 121 255 
12.5243 10.57 2.21872 68 58 131 255 
15.5355 13.0837 2.55506 72 38 119 255 
15.5939 13.1138 2.37549 72 36 117 255 
15.5171 13.1054 2.20288 72 33 115 255 
12.7417 10.742 1.64876 72 35 116 255 
15.297 12.8783 1.78813 71 42 122 255 
15.3074 12.8593 1.60149 72 26 108 255 
14.9122 12.59 1.40921 72 31 112 255 
15.4495 13.0202 1.2676 72 20 103 255 
15.4546 12.9971 1.07596 72 40 120 255 
15.3386 12.8763 0.87789 72 31 112 255 
0 0 0 69 4 87 255 
37.994 31.9971 1.31807 70 11 94 255 
29.3865 24.7049 0.656719 69 5 89 255 
12.0784 10.1323 0.123825 72 23 105 255 
12.195 10.285 -0.00278432 72 38 119 255 
17.4423 14.6788 -0.218842 71 19 101 255 
18.7043 15.7133 -0.460524 71 14 97 255 
15.2857 12.8138 -0.564111 71 16 99 255 
12.7357 10.7297 -0.604818 72 35 116 255 
11.5439 9.70806 -0.687568 71 46 124 255 
10.5717 8.87807 -0.759741 69 55 129 255 
9.77127 8.18822 -0.822175 72 37 118 255 
8.88138 7.47981 -0.842506 71 44 122 255 
8.18024 6.87447 -0.874733 69 55 129 255 
7.58058 6.35938 -0.903979 70 51 127 255 
7.04713 5.90541 -0.927443 70 50 126 255 
6.5946 5.54802 -0.939255 66 64 134 255 
6.21132 5.21799 -0.961579 63 71 136 255 
5.85443 4.90956 -0.978779 66 64 134 255 
5.524 4.62577 -0.99209 55 91 141 255 
5.25336 4.41495 -1.00231 48 106 142 255 
4.99716 4.19503 -1.01472 58 84 140 255 
4.76506 3.99459 -1.02602 56 88 140 255 
4.55099 3.81097 -1.03812 58 84 140 255 
4.32913 3.63308 -1.03726 59 82 139 255 
4.14702 3.47765 -1.04418 57 85 140 255 
3.99477 3.34885 -1.05771 56 88 140 255 
3.84917 3.22442 -1.07005 60 79 138 255 
3.69283 3.09579 -1.06919 61 77 138 255 
3.57593 2.99661 -1.08055 59 82 139 255 
3.4245 2.86875 -1.07993 63 72 137 255 
3.30293 2.7688 -1.08738 63 71 136 255 
3.19118 2.67052 -1.08778 62 74 137 255 
3.10345 2.59699 -1.09795 65 68 135 255 
3.0019 2.51385 -1.10354 65 68 135 255 
2.87398 2.41092 -1.09909 68 58 131 255 
10.2781 8.56404 4.01881 67 61 132 255 
10.3012 8.5983 3.88056 61 77 138 255 
12.8235 10.7113 4.65567 72 28 110 255 
10.5256 8.79159 3.68241 70 52 128 255 
11.2624 9.39419 3.80656 69 55 129 255 
11.361 9.47948 3.68366 72 41 121 255 
13.7121 11.4374 4.26378 72 27 109 255 
11.7466 9.79409 3.50279 71 16 99 255 
11.9059 9.93441 3.42061 70 52 128 255 
11.7236 9.77859 3.20879 60 80 139 255 
20.8157 17.3441 5.42877 71 16 99 255 
12.1099 10.0827 3.00597 72 31 112 255 
21.0288 17.5467 4.99698 72 22 104 255 
11.6012 9.67303 2.60633 65 68 135 255 
12.5041 10.4113 2.647 71 19 101 255 
11.8054 9.81176 2.35444 71 42 122 255 
12.5834 10.496 2.37881 69 55 129 255 
12.8782 10.734 2.2697 68 58 131 255 
15.5522 12.9354 2.5447 68 59 132 255 
12.681 10.5321 1.92188 72 38 119 255 
15.4071 12.8514 2.17603 72 41 121 255 
15.5376 12.9369 2.00024 71 45 123 255 
15.3589 12.7701 1.78617 72 38 119 255 
15.3968 12.774 1.60261 72 41 121 255 
14.9554 12.4702 1.40604 70 11 94 255 
21.8223 18.1632 1.78131 70 8 92 255 
15.6278 12.9799 1.08245 71 42 122 255 
0 0 0 68 2 86 255 
0 0 0 68 1 84 255 
40.3438 33.5552 1.39242 69 4 87 255 
29.3237 24.3466 0.651964 71 16 99 255 
12.0541 9.98656 0.122945 72 33 115 255 
12.0788 10.0609 -0.00274366 72 23 105 255 
12.2842 10.2099 -0.153337 72 22 104 255 
12.4276 10.311 -0.304421 72 36 117 255 
12.4581 10.314 -0.457418 72 28 110 255 
12.8842 10.7203 -0.608738 72 35 116 255 
11.667 9.69002 -0.691348 71 47 125 255 
10.6175 8.80602 -0.759137 69 55 129 255 
9.82902 8.13447 -0.822819 71 45 123 255 
8.92097 7.42007 -0.841928 71 46 124 255 
8.21843 6.82097 -0.874325 71 45 123 255 
7.61409 6.30829 -0.903342 70 50 126 255 
7.0817 5.86079 -0.927242 69 53 129 255 
6.61323 5.49475 -0.937088 68 59 132 255 
6.23787 5.17534 -0.960755 64 70 136 255 
5.88216 4.87165 -0.978397 66 65 134 255 
5.56449 4.60189 -0.994272 58 84 140 255 
5.27122 4.37505 -1.00057 56 89 140 255 
5.02205 4.16366 -1.01457 56 89 140 255 
4.78112 3.95835 -1.02423 60 80 139 255 
4.58871 3.79491 -1.04139 61 78 138 255 
4.35286 3.6077 -1.03762 60 80 139 255 
4.17811 3.46028 -1.04665 58 83 139 255 
4.01524 3.32428 -1.05771 60 80 139 255 
3.86436 3.197 -1.0688 57 85 140 255 
3.6907 3.05564 -1.06312 60 79 138 255 
3.58974 2.97089 -1.07919 62 73 137 255 
3.43605 2.84273 -1.07805 63 72 137 255 
3.32882 2.7559 -1.09032 62 73 137 255 
3.20527 2.64904 -1.08702 63 71 136 255 
3.1223 2.58036 -1.09899 65 68 135 255 
3.01801 2.49599 -1.10381 66 64 134 255 
2.88798 2.39263 -1.09881 69 56 130 255 
10.3756 8.53793 4.03636 68 59 132 255 
10.3961 8.56976 3.89639 71 42 122 255 
11.7394 9.68415 4.24043 69 53 129 255 
11.8682 9.79004 4.13104 71 46 124 255 
11.4745 9.4523 3.85856 71 44 122 255 
11.511 9.4855 3.71338 66 64 134 255 
13.8676 11.4236 4.29026 72 40 120 255 
16.3853 13.4922 4.86127 72 31 112 255 
21.0853 17.3755 6.02716 70 10 93 255 
11.7804 9.70398 3.20797 63 71 136 255 
12.4669 10.2587 3.2349 71 16 99 255 
13.0281 10.7126 3.21752 72 37 118 255 
11.7068 9.6471 2.76772 72 32 113 255 
12.615 10.3878 2.81973 70 50 126 255 
11.8153 9.71565 2.48852 72 40 120 255 
12.7172 10.4384 2.52348 68 57 131 255 
15.997 13.1778 3.00878 72 32 113 255 
15.8848 13.0757 2.78541 71 44 122 255 
12.7033 10.4347 2.06804 72 26 108 255 
12.7316 10.4427 1.9198 72 31 112 255 
15.4189 12.7016 2.16665 72 38 119 255 
15.7497 12.9506 2.01727 70 50 126 255 
15.7972 12.9715 1.82786 70 50 126 255 
15.5127 12.7103 1.60652 72 31 112 255 
21.2251 17.4783 1.98537 70 7 90 255 
29.6457 24.3683 2.40766 70 8 92 255 
51.8011 42.4897 3.56984 69 4 87 255 
0 0 0 68 2 86 255 
0 0 0 68 2 86 255 
0 0 0 68 1 84 255 
29.5235 24.208 0.653093 71 14 97 255 
13.8248 11.3112 0.140294 72 20 103 255 
12.0862 9.94209 -0.00273144 72 27 109 255 
12.2044 10.0176 -0.151571 71 46 124 255 
13.9972 11.4689 -0.341138 71 17 100 255 
12.7023 10.3854 -0.464033 72 26 108 255 
12.2101 10.0333 -0.573967 71 47 125 255 
11.7448 9.63345 -0.692441 69 53 129 255 
10.6768 8.74514 -0.759521 68 57 131 255 
9.90425 8.09485 -0.824943 69 53 129 255 
8.96864 7.36709 -0.842145 70 48 126 255 
8.28094 6.78747 -0.876528 71 46 124 255 
7.64572 6.25578 -0.902524 70 48 126 255 
7.09056 5.79519 -0.923729 71 42 122 255 
6.62915 5.43956 -0.934596 70 52 128 255 
6.25799 5.12753 -0.958989 64 69 136 255 
5.91654 4.83923 -0.97916 64 70 136 255 
5.59799 4.57205 -0.995227 57 85 140 255 
5.29184 4.33761 -0.999417 53 95 141 255 
5.04215 4.12839 -1.01349 58 83 139 255 
4.81219 3.93456 -1.0257 59 82 139 255 
4.59359 3.75172 -1.03726 61 77 138 255 
4.38557 3.58964 -1.04015 59 81 139 255 
4.20078 3.43582 -1.04702 59 81 139 255 
4.02722 3.29275 -1.05552 59 82 139 255 
3.88087 3.17075 -1.06796 59 81 139 255 
3.72903 3.04901 -1.06875 60 79 138 255 
3.59131 2.93524 -1.07423 60 79 138 255 
3.45719 2.82467 -1.07923 62 73 137 255 
3.33516 2.72683 -1.08689 62 74 137 255 
3.22222 2.62993 -1.08728 66 63 133 255 
3.15303 2.57336 -1.10423 64 69 136 255 
3.01612 2.46342 -1.09757 67 61 132 255 
2.91449 2.38459 -1.10331 67 61 132 255 
11.5791 9.4097 4.482 66 63 133 255 
11.6903 9.51681 4.35952 72 37 118 255 
11.2877 9.19577 4.05683 72 35 116 255 
11.6705 9.5072 4.04184 67 62 133 255 
11.4489 9.31392 3.83068 65 68 135 255 
11.8362 9.63212 3.79914 71 45 123 255 
13.9201 11.3241 4.28491 72 35 116 255 
14.1423 11.5003 4.17478 72 27 109 255 
13.2289 10.7658 3.76248 72 33 115 255 
13.6449 11.1001 3.6971 72 40 120 255 
12.6102 10.2476 3.25573 68 59 132 255 
12.8077 10.4002 3.14726 66 63 133 255 
11.6559 9.48567 2.74187 69 56 130 255 
11.7152 9.52683 2.60548 62 74 137 255 
11.8724 9.6411 2.48804 60 79 138 255 
12.7872 10.3651 2.52469 63 71 136 255 
15.8457 12.8907 2.9654 69 53 129 255 
15.9425 12.9599 2.78152 72 35 116 255 
15.7845 12.8042 2.55681 72 35 116 255 
15.9013 12.8802 2.38579 72 33 115 255 
15.8629 12.9048 2.21787 72 35 116 255 
15.7956 12.8268 2.01304 69 56 130 255 
15.9299 12.9176 1.834 72 35 116 255 
16.4474 13.3083 1.69484 71 44 122 255 
21.3297 17.3459 1.98515 72 23 105 255 
29.8303 24.2149 2.41054 70 8 92 255 
52.3983 42.4445 3.59299 69 4 87 255 
52.4965 42.4469 2.95936 69 4 87 255 
0 0 0 68 2 86 255 
52.48 42.5706 1.79312 69 4 87 255 
29.6979 24.0478 0.653675 70 10 93 255 
13.8986 11.2299 0.140341 71 42 122 255 
13.0055 10.5651 -0.00292447 71 17 100 255 
12.9904 10.53 -0.160527 71 13 96 255 
12.2618 9.92184 -0.297353 72 29 111 255 
12.3318 9.95686 -0.448258 72 22 104 255 
12.6625 10.2755 -0.59226 71 47 125 255 
11.8099 9.56624 -0.692805 70 51 127 255 
10.7706 8.71212 -0.762379 69 56 130 255 
9.96227 8.04082 -0.825651 69 53 129 255 
9.04543 7.33768 -0.845112 70 48 126 255 
8.31236 6.72838 -0.875467 71 46 124 255 
7.69248 6.21563 -0.903524 69 53 129 255 
7.12367 5.7497 -0.923428 71 46 124 255 
6.69097 5.42194 -0.938605 66 65 134 255 
6.28315 5.08404 -0.958048 65 66 135 255 
5.96542 4.81842 -0.982336 64 69 136 255 
5.61206 4.52642 -0.992772 58 83 139 255 
5.31836 4.30505 -0.999417 53 94 141 255 
5.06278 4.09364 -1.01257 59 81 139 255 
4.82242 3.8938 -1.02277 62 76 138 255 
4.61346 3.72099 -1.03657 63 72 137 255 
4.40904 3.5639 -1.04051 61 77 138 255 
4.22255 3.4106 -1.04721 63 71 136 255 
4.05574 3.27475 -1.05771 60 79 138 255 
3.90025 3.14688 -1.06796 62 73 137 255 
3.75602 3.03282 -1.07114 62 74 137 255 
3.60774 2.91193 -1.07378 61 77 138 255 
3.4737 2.80279 -1.07899 62 76 138 255 
3.34278 2.69901 -1.08396 63 71 136 255 
3.25788 2.6259 -1.09385 62 74 137 255 
3.16425 2.55033 -1.10266 64 70 136 255 
3.03268 2.44608 -1.09811 65 68 135 255 
2.92459 2.36304 -1.10162 67 61 132 255 
11.6485 9.34807 4.4866 65 68 135 255 
11.4191 9.18006 4.23728 69 55 129 255 
11.4453 9.20786 4.09307 69 55 129 255 
11.4457 9.20779 3.94433 69 53 129 255 
11.57 9.29502 3.85203 72 23 105 255 
12.0411 9.67664 3.84576 71 47 125 255 
13.9294 11.1904 4.26656 72 31 112 255 
14.2346 11.431 4.18125 72 24 106 255 
13.3114 10.6978 3.76721 72 36 117 255 
13.4046 10.7685 3.61401 68 57 131 255 
12.7364 10.221 3.27203 68 57 131 255 
12.9149 10.3565 3.15794 71 47 125 255 
14.134 11.3589 3.30834 72 26 108 255 
11.8971 9.55411 2.63286 69 56 130 255 
11.8559 9.50756 2.4723 70 52 128 255 
12.9208 10.3427 2.53849 71 47 125 255 
12.9187 10.3785 2.40568 69 53 129 255 
16.1561 12.9697 2.80487 72 35 116 255 
12.9039 10.3369 2.0799 72 37 118 255 
16.1127 12.8885 2.4056 72 41 121 255 
15.9464 12.8109 2.21852 71 44 122 255 
15.909 12.7576 2.01747 68 57 131 255 
16.3121 13.0624 1.86874 72 31 112 255 
16.0709 12.8413 1.64788 72 41 121 255 
15.9212 12.7861 1.47446 72 32 113 255 
30.0756 24.1095 2.41837 69 5 89 255 
30.3191 24.2529 2.06876 70 7 90 255 
0 0 0 68 2 86 255 
52.6561 42.2571 2.42848 69 4 87 255 
0 0 0 68 2 86 255 
0 0 0 68 2 86 255 
13.9735 11.1494 0.140404 72 35 116 255 
14.0201 11.2473 -0.00313705 72 35 116 255 
14.3257 11.4675 -0.176154 70 11 94 255 
14.2517 11.388 -0.343909 72 28 110 255 
14.4732 11.5399 -0.523514 72 27 109 255 
13.2759 10.6389 -0.617884 72 24 106 255 
11.8816 9.5042 -0.693579 71 46 124 255 
10.8348 8.65459 -0.763148 69 55 129 255 
10.0239 7.98949 -0.82668 70 52 128 255 
9.08795 7.28017 -0.844895 70 50 126 255 
8.36439 6.68596 -0.87661 69 53 129 255 
7.73748 6.17391 -0.904343 70 50 126 255 
7.17982 5.72263 -0.926138 70 51 127 255 
6.72567 5.38203 -0.938821 67 61 132 255 
6.31113 5.04291 -0.957577 65 66 135 255 
6.0003 4.78606 -0.983226 63 71 136 255 
5.62423 4.47955 -0.990044 57 86 140 255 
5.34081 4.26925 -0.998695 57 86 140 255 
5.08703 4.06188 -1.01242 55 90 140 255 
4.83388 3.8543 -1.02016 59 82 139 255 
4.6416 3.69691 -1.03777 63 72 137 255 
4.42698 3.53372 -1.03961 59 81 139 255 
4.26719 3.40361 -1.05309 58 83 139 255 
4.07422 3.24858 -1.05731 58 83 139 255 
3.9432 3.14178 -1.07442 61 78 138 255 
3.78067 3.01458 -1.07287 60 80 139 255 
3.62096 2.88609 -1.07243 62 73 137 255 
3.49767 2.78688 -1.08111 59 81 139 255 
3.35397 2.67421 -1.08225 67 62 133 255 
3.26333 2.59743 -1.09031 65 66 135 255 
3.16851 2.52185 -1.09873 63 72 137 255 
3.0514 2.43042 -1.09947 65 68 135 255 
2.93978 2.34565 -1.1019 66 64 134 255 
11.2718 8.93261 4.32031 63 71 136 255 
11.6836 9.27527 4.31423 67 61 132 255 
11.4812 9.12128 4.08582 72 31 112 255 
11.7333 9.32122 4.02368 72 31 112 255 
11.9286 9.46328 3.95202 66 65 134 255 
13.8386 10.9821 4.39826 71 44 122 255 
17.4405 13.8358 5.3159 72 20 103 255 
16.8684 13.3767 4.9307 72 35 116 255 
13.3432 10.5893 3.75774 72 31 112 255 
12.9253 10.2537 3.46776 72 27 109 255 
13.0993 10.3807 3.34885 72 35 116 255 
12.8203 10.152 3.11952 72 40 120 255 
12.1197 9.61833 2.823 69 55 129 255 
12.0181 9.53053 2.64663 64 69 136 255 
12.0316 9.52777 2.49671 64 70 136 255 
12.9824 10.262 2.53819 71 45 123 255 
12.9829 10.2997 2.40582 63 72 137 255 
17.0407 13.5087 2.94399 72 26 108 255 
16.4345 13.0004 2.63607 72 36 117 255 
16.3918 12.9476 2.43536 72 41 121 255 
16.1455 12.8086 2.23523 70 50 126 255 
15.866 12.564 2.00221 71 44 122 255 
15.8458 12.5302 1.80648 70 48 126 255 
16.0273 12.6461 1.63543 72 29 111 255 
