ply
format ascii 1.0
comment VTK generated PLY File
obj_info vtkPolyData points and polygons: vtk4.0
element vertex 1221
property float x
property float y
property float z
property uchar red
property uchar green
property uchar blue
property uchar alpha
element face 0
property list uchar int vertex_indices
end_header
6.52487 8.82823 1.89422 54 92 141 255 
6.77517 9.1537 1.85266 66 63 133 255 
5.4236 7.31403 1.39659 44 115 142 255 
6.52388 8.83038 1.59382 53 95 141 255 
6.65017 8.99449 1.51439 48 106 142 255 
18.0414 24.3485 3.81219 71 17 100 255 
18.0479 24.3209 3.53098 70 7 90 255 
17.7557 24.0332 3.24081 71 19 101 255 
17.7956 24.0425 2.95925 71 16 99 255 
17.6554 23.8188 2.65129 71 16 99 255 
23.4243 31.5315 3.14661 70 7 90 255 
22.4778 30.4137 2.73077 71 16 99 255 
22.9954 31.0563 2.42444 70 10 93 255 
21.28 28.6773 1.90275 70 7 90 255 
37.7982 50.8433 2.77718 69 5 89 255 
0 0 0 68 2 86 255 
32.7335 44.1758 1.45895 69 4 87 255 
20.762 27.9691 0.595848 70 10 93 255 
0 0 0 68 2 86 255 
18.2835 24.7115 -0.00536514 70 7 90 255 
14.1998 19.1496 -0.228854 71 13 96 255 
11.7599 15.8305 -0.371767 72 23 105 255 
10.0793 13.5382 -0.477349 72 29 111 255 
9.08926 12.2714 -0.554622 72 37 118 255 
8.46033 11.4011 -0.647177 71 44 122 255 
7.89064 10.6181 -0.728035 72 38 119 255 
7.42297 9.96666 -0.801452 70 50 126 255 
7.03806 9.49861 -0.857776 62 73 137 255 
6.39722 8.61457 -0.878404 70 50 126 255 
5.90963 7.94364 -0.904525 70 48 126 255 
5.54721 7.44812 -0.936776 64 70 136 255 
5.19583 7.00467 -0.950523 58 84 140 255 
4.87074 6.55661 -0.968171 55 90 140 255 
4.58412 6.15966 -0.983607 56 89 140 255 
4.33826 5.82065 -0.999592 57 85 140 255 
4.10761 5.53156 -1.00635 55 90 140 255 
3.9009 5.24725 -1.01687 59 81 139 255 
3.69074 4.95742 -1.01984 57 86 140 255 
3.52138 4.72464 -1.03054 61 78 138 255 
3.38075 4.54609 -1.03979 57 85 140 255 
3.21719 4.32284 -1.03964 62 74 137 255 
3.09885 4.16239 -1.05294 60 80 139 255 
2.98362 4.00458 -1.06421 63 72 137 255 
2.87818 3.86606 -1.0694 61 78 138 255 
2.76931 3.71833 -1.07378 58 84 140 255 
2.6777 3.59408 -1.08346 58 83 139 255 
2.56801 3.44927 -1.08494 62 74 137 255 
2.49126 3.34026 -1.0893 60 80 139 255 
2.41422 3.23683 -1.09559 60 80 139 255 
2.32545 3.12014 -1.09675 64 69 136 255 
2.24029 3.01128 -1.09965 66 64 134 255 
8.89629 11.8753 4.45726 69 55 129 255 
10.6827 14.2854 5.1588 72 33 115 255 
5.94958 7.962 2.76951 71 44 122 255 
11.1474 14.9174 5.0003 72 33 115 255 
8.63628 11.5408 3.74124 72 28 110 255 
5.75691 7.69561 2.39264 50 100 142 255 
6.00071 8.01874 2.39155 46 110 142 255 
5.82482 7.78056 2.22603 51 98 141 255 
5.76926 7.71234 2.12466 63 72 137 255 
6.04871 8.08273 2.12192 70 50 126 255 
5.78299 7.71937 1.93257 52 96 141 255 
5.98662 7.98508 1.90379 72 36 117 255 
6.66648 8.91173 2.03056 67 62 133 255 
6.88069 9.19114 1.98111 70 51 127 255 
5.43158 7.24502 1.47307 54 92 141 255 
6.52501 8.68742 1.66645 72 38 119 255 
6.54118 8.74106 1.58492 47 107 142 255 
5.4085 7.22198 1.22152 44 113 142 255 
17.7903 23.7041 3.72831 72 22 104 255 
17.9187 23.8397 3.47701 70 8 92 255 
17.8236 23.8179 3.22647 72 22 104 255 
17.8282 23.78 2.94035 72 20 103 255 
17.7928 23.6988 2.65004 70 7 90 255 
20.2425 26.902 2.69697 70 7 90 255 
20.4118 27.2666 2.4594 70 10 93 255 
23.3047 31.0735 2.4369 72 20 103 255 
0 0 0 69 4 87 255 
37.919 50.3574 2.7633 70 7 90 255 
37.987 50.7072 2.27894 70 7 90 255 
33.3207 44.3963 1.47296 69 5 89 255 
0 0 0 69 4 87 255 
18.5959 24.678 0.242693 69 4 87 255 
18.3485 24.4837 -0.00534001 71 13 96 255 
14.3273 19.0757 -0.229017 71 13 96 255 
11.793 15.6733 -0.369769 72 24 106 255 
10.1863 13.508 -0.478479 72 26 108 255 
9.17997 12.2362 -0.555566 72 36 117 255 
8.54213 11.3649 -0.648087 71 42 122 255 
7.98147 10.6038 -0.730398 71 47 125 255 
7.47858 9.91376 -0.800873 70 48 126 255 
7.05311 9.39781 -0.852566 62 73 137 255 
6.45774 8.58551 -0.879465 70 50 126 255 
5.97325 7.92711 -0.9068 68 59 132 255 
5.58262 7.40044 -0.93507 61 78 138 255 
5.24946 6.98696 -0.952473 59 82 139 255 
4.91805 6.53612 -0.969583 55 91 141 255 
4.63497 6.14884 -0.986403 56 89 140 255 
4.37747 5.79866 -1.00041 56 88 140 255 
4.14683 5.51337 -1.00766 54 92 141 255 
3.92708 5.21532 -1.01534 59 82 139 255 
3.72525 4.9402 -1.02098 57 85 140 255 
3.53962 4.68879 -1.02744 62 73 137 255 
3.40444 4.51977 -1.03853 55 91 141 255 
3.25252 4.31478 -1.04248 60 79 138 255 
3.11725 4.13391 -1.05055 64 70 136 255 
3.01285 3.99245 -1.06588 60 79 138 255 
2.90596 3.85379 -1.07092 58 83 139 255 
2.79618 3.70671 -1.07536 59 82 139 255 
2.69443 3.5706 -1.08134 60 79 138 255 
2.59438 3.44041 -1.08714 62 74 137 255 
2.51754 3.33263 -1.09183 59 81 139 255 
2.43985 3.22966 -1.09821 60 80 139 255 
2.33469 3.09275 -1.09214 65 68 135 255 
2.25122 2.98751 -1.096 65 66 135 255 
8.82079 11.6251 4.38361 70 48 126 255 
10.7754 14.2265 5.1613 71 42 122 255 
10.8665 14.3575 5.01722 72 37 118 255 
10.3761 13.709 4.6165 71 19 101 255 
10.3089 13.6012 4.4296 71 44 122 255 
6.03492 7.96488 2.48782 68 58 131 255 
6.0545 7.98797 2.39341 57 85 140 255 
5.84712 7.71128 2.21643 56 89 140 255 
5.81235 7.67135 2.12315 45 112 142 255 
5.91907 7.80915 2.05959 52 96 141 255 
5.81187 7.65953 1.92648 52 96 141 255 
5.786 7.61963 1.82509 62 74 137 255 
6.94204 9.16235 2.09733 61 78 138 255 
6.93815 9.15032 1.98145 68 58 131 255 
6.92698 9.12253 1.86342 56 89 140 255 
7.06354 9.28522 1.7894 56 88 140 255 
5.46788 7.21409 1.31411 46 109 142 255 
5.46469 7.20445 1.2242 42 118 142 255 
5.63081 7.40748 1.1705 45 112 142 255 
17.7897 23.3681 3.42409 71 17 100 255 
17.65 23.2866 3.16911 71 19 101 255 
17.7384 23.3603 2.90185 70 8 92 255 
25.8075 33.9381 3.81265 70 8 92 255 
20.3069 26.6457 2.68371 70 10 93 255 
20.0508 26.4446 2.39631 71 14 97 255 
20.3967 26.8513 2.11556 71 14 97 255 
20.4158 26.8186 1.79591 69 5 89 255 
0 0 0 69 4 87 255 
38.1162 50.2344 2.26816 69 5 89 255 
31.8103 41.8465 1.39481 69 4 87 255 
18.8254 24.7205 0.531522 71 16 99 255 
17.6768 23.1612 0.228839 69 4 87 255 
18.3079 24.1197 -0.00528503 69 5 89 255 
14.484 19.0399 -0.22965 71 16 99 255 
11.966 15.7017 -0.372162 72 26 108 255 
10.2714 13.4484 -0.478592 72 26 108 255 
9.26214 12.1892 -0.556001 72 35 116 255 
8.61292 11.3139 -0.648179 72 41 121 255 
8.04275 10.5498 -0.730068 70 48 126 255 
7.52533 9.84945 -0.799392 71 47 125 255 
7.08106 9.31545 -0.84902 61 77 138 255 
6.49399 8.52432 -0.877262 71 45 123 255 
6.01573 7.8824 -0.90589 68 57 131 255 
5.63094 7.37 -0.935572 58 84 140 255 
5.26454 6.91823 -0.947489 58 84 140 255 
4.95686 6.50424 -0.969348 57 85 140 255 
4.64733 6.08718 -0.981066 59 81 139 255 
4.40515 5.76146 -0.998637 56 89 140 255 
4.19257 5.50356 -1.01055 54 92 141 255 
3.95361 5.18406 -1.01395 59 81 139 255 
3.76088 4.92431 -1.02244 59 81 139 255 
3.57251 4.67246 -1.02864 61 78 138 255 
3.42077 4.48393 -1.0351 59 82 139 255 
3.29026 4.30957 -1.04608 60 80 139 255 
3.14791 4.12171 -1.05234 63 72 137 255 
3.03966 3.97699 -1.06671 60 80 139 255 
2.93844 3.84752 -1.07417 58 83 139 255 
2.8236 3.69568 -1.07716 59 82 139 255 
2.71157 3.54782 -1.07946 61 77 138 255 
2.61191 3.41981 -1.08567 60 79 138 255 
2.54676 3.32864 -1.09562 57 86 140 255 
2.46901 3.22689 -1.1024 62 73 137 255 
2.36414 3.09213 -1.09703 60 79 138 255 
2.27882 2.98585 -1.1005 64 69 136 255 
8.88028 11.5556 4.37785 68 57 131 255 
10.5105 13.7013 4.99405 72 36 117 255 
10.9667 14.3066 5.02286 72 37 118 255 
10.386 13.5485 4.58382 72 33 115 255 
10.4234 13.5784 4.44291 71 45 123 255 
8.74861 11.4004 3.57761 70 51 127 255 
5.98435 7.79559 2.34673 52 96 141 255 
6.03266 7.85538 2.26844 49 104 142 255 
6.26713 8.16699 2.27093 68 57 131 255 
6.57769 8.56835 2.27043 71 42 122 255 
5.83606 7.59418 1.91902 48 106 142 255 
5.82127 7.56919 1.82153 63 71 136 255 
7.40358 9.64794 2.21884 68 58 131 255 
5.69112 7.4108 1.6123 71 42 122 255 
7.13025 9.27155 1.90276 68 59 132 255 
6.86338 8.90815 1.72482 71 46 124 255 
5.48251 7.14194 1.30707 55 90 140 255 
5.47559 7.12756 1.21682 46 109 142 255 
5.61745 7.29653 1.1584 62 76 138 255 
17.8672 23.1736 3.41159 71 17 100 255 
17.798 23.185 3.17008 70 11 94 255 
20.4676 26.6138 3.32155 71 16 99 255 
20.3595 26.4355 2.98378 71 13 96 255 
20.322 26.3289 2.66431 70 11 94 255 
20.3323 26.4769 2.4105 71 13 96 255 
20.2836 26.365 2.087 72 22 104 255 
20.383 26.4374 1.77872 72 20 103 255 
20.4341 26.4551 1.46534 71 19 101 255 
20.4197 26.5715 1.20538 71 14 97 255 
20.4158 26.5176 0.888034 70 8 92 255 
17.7658 23.0345 0.497606 70 7 90 255 
0 0 0 68 2 86 255 
17.3615 22.5838 -0.00497174 69 5 89 255 
14.5932 18.9412 -0.229535 71 13 96 255 
12.0401 15.5995 -0.371484 72 20 103 255 
10.3409 13.3686 -0.477999 72 28 110 255 
9.327 12.1194 -0.55542 72 33 115 255 
8.68278 11.2616 -0.648224 71 42 122 255 
8.10428 10.4963 -0.729793 72 40 120 255 
7.59173 9.81098 -0.800036 70 51 127 255 
7.11497 9.24179 -0.84627 63 71 136 255 
6.55044 8.48983 -0.877833 70 50 126 255 
6.05424 7.83273 -0.904434 70 52 128 255 
5.66327 7.31878 -0.933464 65 68 135 255 
5.29901 6.87556 -0.946081 54 92 141 255 
5.00092 6.47921 -0.970172 56 89 140 255 
4.67913 6.05148 -0.979922 59 82 139 255 
4.41979 5.70769 -0.993999 56 88 140 255 
4.2317 5.48478 -1.01185 51 98 141 255 
3.98414 5.15814 -1.01365 58 83 139 255 
3.78197 4.88943 -1.02 61 78 138 255 
3.60352 4.65357 -1.02933 62 73 137 255 
3.46085 4.4792 -1.03889 59 81 139 255 
3.32745 4.30329 -1.04949 60 79 138 255 
3.17194 4.10077 -1.05194 61 78 138 255 
3.05263 3.94357 -1.06275 60 79 138 255 
2.95841 3.82479 -1.07287 60 80 139 255 
2.84802 3.6806 -1.07784 60 80 139 255 
2.72912 3.52573 -1.07782 60 80 139 255 
2.64412 3.41829 -1.09032 61 77 138 255 
2.56654 3.31219 -1.09537 58 84 140 255 
2.49112 3.21473 -1.10345 63 72 137 255 
2.38956 3.08594 -1.10001 62 74 137 255 
2.31236 2.99155 -1.10781 67 61 132 255 
9.13278 11.7344 4.46675 66 63 133 255 
11.0311 14.1987 5.19991 72 29 111 255 
10.9332 14.083 4.96783 72 36 117 255 
10.6004 13.6538 4.64139 71 42 122 255 
10.525 13.5378 4.4507 72 36 117 255 
10.746 13.8267 4.35961 72 24 106 255 
6.04759 7.77869 2.35277 51 99 141 255 
6.08913 7.82899 2.27157 59 81 139 255 
6.61375 8.51005 2.37756 71 45 123 255 
12.0073 15.444 4.11178 71 19 101 255 
5.897 7.5768 1.92373 50 101 142 255 
7.00901 8.99877 2.17587 71 42 122 255 
7.61175 9.79419 2.26318 72 37 118 255 
6.88415 8.85135 1.93486 71 44 122 255 
7.07965 9.08979 1.87434 68 58 131 255 
6.9094 8.85496 1.7227 50 101 142 255 
5.54567 7.13316 1.31166 50 101 142 255 
5.61658 7.21897 1.23829 41 121 142 255 
5.62063 7.20872 1.14991 71 19 101 255 
15.3481 19.6557 2.90749 70 10 93 255 
17.6885 22.752 3.12566 71 19 101 255 
20.2551 26.0057 3.2611 71 13 96 255 
20.4141 26.1727 2.9682 70 10 93 255 
26.4631 33.8537 3.44214 70 8 92 255 
26.276 33.7855 3.09051 71 14 97 255 
26.4331 33.9254 2.69826 71 17 100 255 
26.2744 33.6497 2.27478 70 7 90 255 
0 0 0 69 4 87 255 
20.5216 26.3676 1.20182 70 11 94 255 
20.6057 26.4273 0.889228 71 17 100 255 
20.623 26.4024 0.573083 71 13 96 255 
16.6709 21.2961 0.212417 69 5 89 255 
16.7153 21.4693 -0.00474887 70 7 90 255 
14.7639 18.9215 -0.23039 71 14 97 255 
12.1239 15.5103 -0.371126 72 23 105 255 
10.4005 13.2765 -0.476981 72 24 106 255 
9.4147 12.0793 -0.556219 72 35 116 255 
8.72221 11.1703 -0.646038 71 42 122 255 
8.17468 10.4543 -0.730343 71 42 122 255 
7.66718 9.78385 -0.801645 70 48 126 255 
7.19914 9.23336 -0.849526 65 68 135 255 
6.60547 8.45341 -0.878241 70 48 126 255 
6.10096 7.79387 -0.904252 67 61 132 255 
5.70869 7.28468 -0.933565 68 59 132 255 
5.34476 6.84762 -0.946731 54 93 141 255 
5.03752 6.44449 -0.969583 57 86 140 255 
4.71984 6.02734 -0.980685 58 84 140 255 
4.46451 5.69294 -0.996182 53 95 141 255 
4.2598 5.4517 -1.01055 49 103 142 255 
4.01936 5.13827 -1.01457 57 86 140 255 
3.80034 4.85137 -1.01691 61 78 138 255 
3.63079 4.62982 -1.02899 61 78 138 255 
3.48705 4.45634 -1.03853 61 77 138 255 
3.34047 4.26578 -1.04532 61 77 138 255 
3.19644 4.08046 -1.05174 57 85 140 255 
3.06471 3.90937 -1.05858 59 81 139 255 
2.9752 3.79811 -1.07049 59 82 139 255 
2.87175 3.66459 -1.07829 61 78 138 255 
2.7525 3.51122 -1.07852 61 78 138 255 
2.66624 3.40353 -1.09081 58 84 140 255 
2.58741 3.29714 -1.09562 60 80 139 255 
2.50901 3.19711 -1.10266 61 77 138 255 
2.41973 3.08561 -1.10516 63 71 136 255 
2.33126 2.97806 -1.10809 68 58 131 255 
9.20994 11.685 4.46934 66 63 133 255 
9.31995 11.8454 4.35896 71 19 101 255 
11.1248 14.1497 5.01534 72 32 113 255 
11.3597 14.448 4.93495 72 29 111 255 
10.7707 13.6799 4.51903 69 53 129 255 
11.3281 14.3926 4.55988 72 29 111 255 
6.13131 7.78729 2.3667 66 63 133 255 
6.1093 7.75626 2.2613 72 27 109 255 
6.3536 8.07258 2.26619 68 57 131 255 
6.7901 8.62385 2.30704 48 106 142 255 
5.86083 7.43575 1.89701 54 93 141 255 
5.90398 7.48485 1.81854 61 77 138 255 
7.02372 8.92401 2.07202 68 58 131 255 
5.82798 7.39924 1.62522 47 108 142 255 
5.90298 7.48385 1.55063 56 89 140 255 
6.95502 8.80154 1.72057 58 83 139 255 
5.66953 7.20086 1.33048 60 80 139 255 
5.66752 7.19293 1.23976 46 110 142 255 
5.67029 7.1811 1.15103 55 91 141 255 
15.4671 19.5596 2.90726 72 22 104 255 
15.5246 19.7177 2.72185 71 19 101 255 
17.8813 22.6696 2.85647 71 16 99 255 
16.657 21.0876 2.40306 72 23 105 255 
26.481 33.4515 3.4177 70 11 94 255 
26.4013 33.5202 3.081 71 17 100 255 
26.4379 33.5056 2.67772 72 20 103 255 
0 0 0 68 2 86 255 
39.3996 49.7351 2.78139 70 8 92 255 
39.2404 49.7856 2.28013 69 5 89 255 
34.9665 44.2822 1.4972 69 4 87 255 
33.3501 42.1603 0.919547 70 7 90 255 
0 0 0 68 2 86 255 
16.617 21.075 -0.00468411 69 4 87 255 
14.8283 18.7654 -0.229593 71 14 97 255 
12.212 15.427 -0.370918 71 17 100 255 
10.4793 13.2093 -0.476868 72 22 104 255 
9.47564 12.0048 -0.555457 72 31 112 255 
8.78687 11.1119 -0.645765 71 42 122 255 
8.22565 10.3875 -0.729189 72 40 120 255 
7.74878 9.76398 -0.803898 70 50 126 255 
7.27049 9.2078 -0.851263 65 66 135 255 
6.64671 8.39943 -0.876854 69 55 129 255 
6.14496 7.7516 -0.903706 66 63 133 255 
5.75451 7.25107 -0.933765 65 66 135 255 
5.39038 6.81937 -0.947381 55 90 140 255 
5.06834 6.40256 -0.967935 55 91 141 255 
4.77091 6.01615 -0.983607 58 83 139 255 
4.4969 5.66234 -0.995636 57 86 140 255 
4.28764 5.41847 -1.00925 51 98 141 255 
4.06431 5.13055 -1.01795 57 86 140 255 
3.84169 4.84265 -1.02 59 82 139 255 
3.6573 4.60514 -1.02847 64 70 136 255 
3.52166 4.44411 -1.04069 60 80 139 255 
3.37329 4.25367 -1.0474 58 84 140 255 
3.2068 4.04234 -1.04697 60 80 139 255 
3.10992 3.91731 -1.06588 58 83 139 255 
3.01361 3.7989 -1.0759 59 81 139 255 
2.89539 3.64842 -1.07874 59 82 139 255 
2.78608 3.50949 -1.08322 56 88 140 255 
2.69611 3.3985 -1.09448 59 82 139 255 
2.60338 3.2759 -1.09385 61 77 138 255 
2.52018 3.17108 -1.09899 60 80 139 255 
2.43084 3.06091 -1.10164 63 72 137 255 
2.34293 2.95543 -1.105 66 65 134 255 
9.18408 11.5062 4.42245 68 59 132 255 
9.41102 11.8113 4.36757 71 42 122 255 
9.02431 11.3343 4.03697 71 44 122 255 
10.8911 13.6784 4.69482 72 28 110 255 
8.87339 11.1289 3.69426 71 47 125 255 
11.389 14.2887 4.54901 72 29 111 255 
9.00712 11.2965 3.44995 70 50 126 255 
7.44175 9.32956 2.73325 72 31 112 255 
6.82785 8.56647 2.41655 69 56 130 255 
7.07777 8.87661 2.38623 72 38 119 255 
5.93938 7.44103 1.90762 62 73 137 255 
5.92221 7.41394 1.8101 55 91 141 255 
5.83669 7.32293 1.70856 60 79 138 255 
5.85238 7.33715 1.61944 49 103 142 255 
5.94448 7.44209 1.5495 41 122 142 255 
6.98358 8.72705 1.71436 50 100 142 255 
5.71731 7.17058 1.33135 55 91 141 255 
5.70475 7.1495 1.23829 46 111 142 255 
5.74337 7.1826 1.1569 44 114 142 255 
16.5511 20.6683 3.0871 71 17 100 255 
16.482 20.6715 2.86741 72 23 105 255 
16.5754 20.7509 2.62747 70 11 94 255 
18.1064 22.6355 2.59206 71 13 96 255 
27.028 33.7154 3.46154 70 11 94 255 
26.7433 33.5292 3.09685 71 14 97 255 
26.8007 33.54 2.69357 71 14 97 255 
39.6963 49.5728 3.38388 69 4 87 255 
39.7228 49.5158 2.7827 69 5 89 255 
39.5514 49.5517 2.28049 70 7 90 255 
39.6613 49.5991 1.68516 69 4 87 255 
33.7125 42.0852 0.922403 70 10 93 255 
15.1982 18.9315 0.190677 69 5 89 255 
15.4531 19.3534 -0.00432248 70 7 90 255 
15.015 18.7638 -0.230697 71 13 96 255 
12.3227 15.3721 -0.371408 72 20 103 255 
10.5614 13.1463 -0.476924 72 28 110 255 
9.54663 11.9433 -0.555312 72 33 115 255 
8.90421 11.1194 -0.649363 72 40 120 255 
8.33421 10.3929 -0.733145 72 40 120 255 
7.82667 9.73881 -0.805764 71 45 123 255 
7.33121 9.16846 -0.85177 62 73 137 255 
6.69625 8.35616 -0.87661 70 51 127 255 
6.19677 7.71919 -0.904343 68 59 132 255 
5.78706 7.20089 -0.931859 66 64 134 255 
5.4315 6.78539 -0.947272 56 88 140 255 
5.09946 6.36127 -0.966405 53 95 141 255 
4.81208 5.99217 -0.984497 58 84 140 255 
4.53342 5.63695 -0.996045 51 98 141 255 
4.33071 5.40442 -1.01156 49 103 142 255 
4.09696 5.10705 -1.01826 56 89 140 255 
3.87071 4.81822 -1.01984 60 80 139 255 
3.69289 4.59183 -1.03054 62 74 137 255 
3.55379 4.42855 -1.04214 57 85 140 255 
3.40056 4.23442 -1.04778 57 86 140 255 
3.24382 4.03787 -1.05095 59 82 139 255 
3.13329 3.89739 -1.06567 57 85 140 255 
3.03381 3.77653 -1.07482 56 88 140 255 
2.91101 3.62223 -1.07626 57 85 140 255 
2.80452 3.48854 -1.08205 58 84 140 255 
2.71873 3.38416 -1.09521 60 80 139 255 
2.63132 3.26966 -1.09714 62 76 138 255 
2.52628 3.13901 -1.09323 62 73 137 255 
2.4556 3.05343 -1.10435 62 73 137 255 
2.36102 2.94099 -1.105 66 65 134 255 
10.3261 12.7755 4.93454 72 35 116 255 
10.8768 13.4803 5.00933 70 51 127 255 
10.8078 13.4047 4.79793 72 35 116 255 
9.00282 11.1655 3.85123 64 70 136 255 
8.9336 11.0645 3.69099 58 84 140 255 
9.09463 11.2676 3.6049 65 68 135 255 
10.5116 13.0187 3.99552 72 41 121 255 
7.60053 9.4096 2.77031 66 65 134 255 
6.86924 8.51073 2.41267 61 77 138 255 
6.63844 8.22161 2.22106 62 74 137 255 
7.00994 8.67258 2.23433 60 80 139 255 
5.95091 7.35685 1.80504 47 108 142 255 
5.88151 7.28697 1.70856 50 100 142 255 
5.89295 7.29573 1.61825 46 109 142 255 
7.03844 8.70162 1.82071 69 53 129 255 
7.05317 8.70401 1.7183 61 77 138 255 
6.96852 8.63066 1.61034 60 79 138 255 
5.73854 7.10203 1.23614 67 62 133 255 
5.82292 7.19117 1.16401 41 122 142 255 
15.5321 19.1538 2.87507 72 23 105 255 
16.6547 20.6272 2.87539 71 16 99 255 
18.3252 22.6551 2.88275 70 10 93 255 
18.2625 22.5457 2.59455 71 17 100 255 
31.0591 38.2605 3.94767 69 4 87 255 
26.8633 33.2589 3.08705 71 14 97 255 
26.7743 33.0886 2.67046 70 7 90 255 
34.2071 42.1848 2.89384 69 4 87 255 
34.7314 42.7537 2.41461 69 4 87 255 
39.9188 49.3874 2.28415 70 8 92 255 
0 0 0 68 2 86 255 
33.9809 41.8908 0.922694 70 10 93 255 
14.7678 18.1659 0.183876 69 4 87 255 
15.0277 18.5856 -0.00417151 70 7 90 255 
15.07 18.5975 -0.229785 70 8 92 255 
12.4105 15.2884 -0.37122 71 16 99 255 
10.6097 13.0417 -0.475483 72 26 108 255 
9.6279 11.8946 -0.555783 72 37 118 255 
8.99241 11.0894 -0.65082 71 47 125 255 
8.40286 10.3478 -0.733585 71 46 124 255 
7.89132 9.69679 -0.806279 70 52 128 255 
7.39047 9.12718 -0.852131 66 63 133 255 
6.74488 8.31182 -0.876283 70 52 128 255 
6.22643 7.65938 -0.901796 69 55 129 255 
5.82359 7.15599 -0.930654 67 62 133 255 
5.47553 6.75503 -0.947706 57 86 140 255 
5.14027 6.33217 -0.966758 53 95 141 255 
4.85064 5.96484 -0.984878 56 88 140 255 
4.56729 5.60826 -0.995909 53 94 141 255 
4.36316 5.37697 -1.01141 47 107 142 255 
4.11825 5.06955 -1.0158 56 89 140 255 
3.90456 4.79974 -1.02098 60 79 138 255 
3.72535 4.57443 -1.03174 62 73 137 255 
3.58648 4.41353 -1.04376 56 89 140 255 
3.40851 4.19138 -1.04229 57 86 140 255 
3.26297 4.01105 -1.04916 60 80 139 255 
3.15282 3.87278 -1.06421 58 83 139 255 
3.06124 3.76315 -1.07634 60 80 139 255 
2.93687 3.60884 -1.07761 56 88 140 255 
2.83507 3.48257 -1.08557 57 85 140 255 
2.737 3.3644 -1.09423 62 76 138 255 
2.63238 3.23021 -1.0893 63 71 136 255 
2.55341 3.13318 -1.09664 63 71 136 255 
2.47794 3.04279 -1.10598 66 64 134 255 
2.37842 2.92571 -1.10471 65 66 135 255 
11.1917 13.6738 5.30797 72 41 121 255 
11.3179 13.8523 5.17324 72 26 108 255 
10.8887 13.3367 4.79739 70 50 126 255 
10.7949 13.2212 4.58305 70 48 126 255 
9.10119 11.1316 3.73194 70 52 128 255 
9.15991 11.2071 3.60345 66 65 134 255 
10.5488 12.902 3.9795 71 47 125 255 
10.7648 13.161 3.89415 72 35 116 255 
7.67959 9.39617 2.67699 62 73 137 255 
6.93468 8.48149 2.30272 50 100 142 255 
5.99112 7.31978 1.89525 64 70 136 255 
6.00714 7.33387 1.80842 53 95 141 255 
5.94106 7.26903 1.71286 52 97 141 255 
6.00811 7.34563 1.63746 46 111 142 255 
7.18114 8.76747 1.84367 55 91 141 255 
15.1145 18.4199 3.65461 72 38 119 255 
5.8412 7.14432 1.33968 49 103 142 255 
5.81464 7.10657 1.24312 51 99 141 255 
16.0425 19.5655 3.18288 71 14 97 255 
16.8217 20.4859 3.09046 70 11 94 255 
15.7118 19.217 2.6922 72 28 110 255 
15.7808 19.2665 2.46384 72 33 115 255 
15.8738 19.3528 2.23828 72 24 106 255 
16.0397 19.5128 2.02342 72 26 108 255 
26.9955 33.0062 3.07891 71 16 99 255 
26.844 32.7616 2.65731 70 8 92 255 
34.7644 42.3383 2.91896 69 5 89 255 
40.4956 49.2291 2.7943 70 7 90 255 
40.3559 49.3062 2.29181 70 7 90 255 
35.8339 43.7022 1.49964 69 4 87 255 
34.5444 42.0554 0.930972 70 7 90 255 
14.171 17.2149 0.175126 69 5 89 255 
14.6296 17.8679 -0.00403049 70 7 90 255 
14.4798 17.6467 -0.21913 70 8 92 255 
12.5409 15.2568 -0.372313 72 20 103 255 
10.6933 12.981 -0.475652 72 23 105 255 
9.72225 11.8616 -0.557017 72 33 115 255 
9.05965 11.0332 -0.650774 71 42 122 255 
8.46746 10.2976 -0.733695 70 48 126 255 
7.95003 9.64742 -0.806214 70 48 126 255 
7.44633 9.08167 -0.852131 62 73 137 255 
6.79576 8.27027 -0.876283 70 51 127 255 
6.27647 7.62488 -0.902251 69 55 129 255 
5.8617 7.11321 -0.929751 66 63 133 255 
5.51183 6.71516 -0.946839 55 90 140 255 
5.18092 6.30281 -0.967111 51 99 141 255 
4.89093 5.93956 -0.98564 55 91 141 255 
4.59784 5.57555 -0.995091 51 99 141 255 
4.37974 5.33022 -1.00766 51 99 141 255 
4.14049 5.0335 -1.01365 58 83 139 255 
3.93394 4.77569 -1.02098 58 84 140 255 
3.7615 4.56136 -1.03398 61 77 138 255 
3.59974 4.37473 -1.03979 57 86 140 255 
3.43417 4.17039 -1.04229 55 91 141 255 
3.2844 3.98717 -1.04816 58 84 140 255 
3.18274 3.86091 -1.0663 60 80 139 255 
3.07434 3.73224 -1.07287 60 80 139 255 
2.96453 3.59752 -1.07965 55 90 140 255 
2.86443 3.47486 -1.08863 57 85 140 255 
2.74341 3.33033 -1.08861 62 74 137 255 
2.64784 3.20877 -1.08753 62 73 137 255 
2.56399 3.10703 -1.09297 66 63 133 255 
2.50085 3.03272 -1.10788 62 74 137 255 
2.4006 2.91625 -1.10668 67 61 132 255 
11.6628 14.0724 5.49037 72 22 104 255 
11.0163 13.3155 4.99794 72 31 112 255 
11.3797 13.7648 4.97642 72 24 106 255 
10.8961 13.1793 4.5916 70 52 128 255 
10.8581 13.1154 4.41929 72 28 110 255 
10.8365 13.0936 4.23133 70 48 126 255 
11.8398 14.301 4.43333 72 33 115 255 
7.53076 9.09266 2.70401 72 28 110 255 
7.73274 9.3436 2.67548 57 85 140 255 
7.82036 9.44586 2.57752 71 44 122 255 
6.02403 7.26854 1.89151 57 86 140 255 
6.16553 7.43372 1.84233 63 72 137 255 
5.97049 7.21425 1.70856 47 107 142 255 
6.07444 7.33443 1.64324 47 108 142 255 
7.2222 8.70804 1.84046 57 85 140 255 
15.3612 18.488 3.68675 72 33 115 255 
15.4687 18.6845 3.52138 72 32 113 255 
15.4489 18.6468 3.27831 72 40 120 255 
16.3315 19.6705 3.2162 72 20 103 255 
16.415 19.7423 2.99342 72 22 104 255 
17.881 21.5983 3.04112 70 10 93 255 
16.5092 19.9054 2.55846 69 5 89 255 
15.9191 19.1669 2.22804 72 24 106 255 
16.6566 20.0116 2.08571 71 19 101 255 
16.3442 19.735 1.85026 72 27 109 255 
16.476 19.8582 1.61888 72 33 115 255 
16.7425 20.1369 1.39536 72 24 106 255 
16.8217 20.1957 1.15217 72 23 105 255 
16.8454 20.3257 0.949551 70 7 90 255 
16.8741 20.3237 0.700947 70 10 93 255 
16.9156 20.3379 0.452504 71 14 97 255 
14.2776 17.1292 0.175142 70 7 90 255 
14.0803 16.9833 -0.00385037 70 7 90 255 
14.1686 17.0529 -0.212833 71 14 97 255 
12.6713 15.2241 -0.373406 71 17 100 255 
10.7824 12.9267 -0.476076 72 27 109 255 
9.8325 11.8471 -0.559159 72 27 109 255 
9.11057 10.9575 -0.64959 72 32 113 255 
8.50238 10.2116 -0.731277 71 45 123 255 
7.99054 9.57624 -0.804348 71 47 125 255 
7.50255 9.03657 -0.852204 63 72 137 255 
6.84637 8.22842 -0.876283 69 53 129 255 
6.32186 7.58469 -0.902069 70 51 127 255 
5.90906 7.08169 -0.930353 66 64 134 255 
5.51862 6.63992 -0.940988 59 82 139 255 
5.21251 6.26251 -0.965816 50 101 142 255 
4.92474 5.90639 -0.985132 55 91 141 255 
4.63196 5.54723 -0.995091 53 95 141 255 
4.40414 5.29336 -1.00578 52 97 141 255 
4.16813 5.0042 -1.01288 61 78 138 255 
3.96696 4.75601 -1.02195 58 83 139 255 
3.79888 4.54954 -1.03657 60 80 139 255 
3.6177 4.34198 -1.03726 56 88 140 255 
3.47855 4.17186 -1.04797 54 93 141 255 
3.32575 3.98726 -1.05353 56 88 140 255 
3.21201 3.84806 -1.06817 56 89 140 255 
3.10469 3.7223 -1.07547 58 83 139 255 
2.9878 3.58076 -1.0801 57 86 140 255 
2.88818 3.4602 -1.08957 53 94 141 255 
2.74765 3.29408 -1.08225 62 73 137 255 
2.68237 3.21028 -1.0936 62 74 137 255 
2.59291 3.10309 -1.09716 64 70 136 255 
2.51879 3.01658 -1.10761 64 70 136 255 
2.41107 2.89261 -1.10331 65 66 135 255 
11.0416 13.1577 5.15981 72 35 116 255 
11.2242 13.3986 5.05489 72 33 115 255 
11.4707 13.7028 4.97938 72 36 117 255 
10.9929 13.1315 4.59835 72 41 121 255 
10.9334 13.0426 4.41729 71 42 122 255 
9.13345 10.899 3.54016 69 53 129 255 
7.21211 8.60332 2.68071 71 45 123 255 
7.44862 8.88197 2.65489 69 55 129 255 
7.74414 9.24134 2.65976 51 99 141 255 
7.05018 8.41001 2.30663 60 79 138 255 
6.08743 7.25397 1.89741 54 92 141 255 
6.12196 7.28969 1.81591 72 27 109 255 
6.16819 7.36071 1.75217 63 72 137 255 
15.6098 18.614 4.19176 72 23 105 255 
15.2924 18.21 3.86846 72 32 113 255 
15.4508 18.3654 3.68114 72 27 109 255 
15.4603 18.4428 3.49365 71 19 101 255 
15.4681 18.4385 3.25832 71 46 124 255 
18.3475 21.8248 3.58677 70 11 94 255 
16.8825 20.0531 3.05618 70 11 94 255 
16.6682 19.8836 2.81404 71 19 101 255 
15.9988 19.0508 2.46119 71 19 101 255 
15.9408 18.9553 2.21477 72 24 106 255 
16.8953 20.047 2.10016 72 20 103 255 
16.8745 20.1227 1.89628 72 27 109 255 
16.7965 19.9937 1.63829 72 23 105 255 
16.8824 20.0536 1.39675 72 23 105 255 
16.9981 20.1547 1.15576 72 27 109 255 
16.964 20.2151 0.949227 72 29 111 255 
16.9947 20.2152 0.700788 72 33 115 255 
13.7431 16.3188 0.364952 72 28 110 255 
13.7839 16.3321 0.167854 72 37 118 255 
14.0878 16.7817 -0.00382419 71 19 101 255 
13.8803 16.4989 -0.206977 72 26 108 255 
12.7935 15.1805 -0.374255 72 20 103 255 
10.8673 12.8672 -0.476331 72 27 109 255 
9.88701 11.7651 -0.558143 72 28 110 255 
9.18471 10.9098 -0.650091 72 38 119 255 
8.58611 10.1845 -0.73309 72 40 120 255 
8.06267 9.54304 -0.8057 70 50 126 255 
7.53026 8.95754 -0.849092 66 64 134 255 
6.88389 8.17101 -0.874651 71 47 125 255 
6.35608 7.5313 -0.90034 70 52 128 255 
5.94919 7.0415 -0.929851 66 64 134 255 
5.54902 6.59377 -0.939255 64 70 136 255 
5.26299 6.24483 -0.968053 50 102 142 255 
4.95001 5.86318 -0.982972 58 83 139 255 
4.66847 5.52173 -0.995636 49 103 142 255 
4.44546 5.27683 -1.0078 49 104 142 255 
4.20449 4.98533 -1.01426 60 80 139 255 
3.99734 4.73308 -1.02228 55 91 141 255 
3.82164 4.52012 -1.03519 61 78 138 255 
3.64491 4.32046 -1.03744 54 93 141 255 
3.50535 4.15194 -1.04835 57 86 140 255 
3.37292 3.99373 -1.06069 55 90 140 255 
3.21978 3.80961 -1.06296 59 82 139 255 
3.1155 3.68901 -1.07135 59 82 139 255 
3.00783 3.56012 -1.07942 58 83 139 255 
2.89305 3.42311 -1.08346 57 86 140 255 
2.77094 3.28086 -1.08347 63 71 136 255 
2.68827 3.17751 -1.08803 61 78 138 255 
2.62499 3.10259 -1.10266 66 65 134 255 
2.54223 3.00695 -1.10978 66 63 133 255 
2.44054 2.8917 -1.10865 66 63 133 255 
10.8871 12.8131 5.05077 71 13 96 255 
11.1739 13.1735 4.99572 70 52 128 255 
11.0432 13.0289 4.75901 72 28 110 255 
10.9202 12.8833 4.53481 72 31 112 255 
9.22249 10.8655 3.69903 69 53 129 255 
7.30475 8.6089 2.81082 65 66 135 255 
7.33651 8.64344 2.70719 60 79 138 255 
7.88532 9.28637 2.79018 70 50 126 255 
7.59094 8.94644 2.58824 62 76 138 255 
7.12002 8.38823 2.31259 62 73 137 255 
6.15595 7.24487 1.90487 60 80 139 255 
14.8771 17.4958 4.38098 72 26 108 255 
7.19849 8.48391 2.03002 72 32 113 255 
7.2215 8.50478 1.92516 50 101 142 255 
15.7977 18.579 3.96737 72 24 106 255 
16.3259 19.1657 3.86155 71 19 101 255 
15.4919 18.2518 3.47541 72 26 108 255 
15.5829 18.3455 3.25873 72 24 106 255 
15.3478 18.0308 2.97868 70 8 92 255 
17.0845 20.0421 3.07043 70 8 92 255 
16.9095 19.922 2.83409 71 17 100 255 
15.8188 18.6035 2.4159 71 16 99 255 
15.8851 18.6554 2.19108 71 19 101 255 
21.6929 25.4213 2.67708 71 17 100 255 
27.1292 31.951 3.02656 69 5 89 255 
27.1534 31.9221 2.62932 70 7 90 255 
41.539 48.7315 3.41187 69 4 87 255 
17.1565 20.0911 1.15813 69 5 89 255 
17.0994 20.1243 0.949874 72 24 106 255 
14.0302 16.4826 0.574365 72 28 110 255 
13.3889 15.7016 0.35298 72 23 105 255 
13.4227 15.7075 0.162277 70 48 126 255 
13.5247 15.9117 -0.00364477 72 38 119 255 
13.4716 15.8151 -0.199432 71 42 122 255 
13.2959 15.5816 -0.386148 72 33 115 255 
10.9363 12.7888 -0.475907 72 24 106 255 
9.98362 11.7332 -0.559522 72 31 112 255 
9.26897 10.8737 -0.651321 72 38 119 255 
8.65039 10.1339 -0.733255 72 35 116 255 
8.12432 9.49718 -0.806021 70 48 126 255 
7.58444 8.91041 -0.84902 66 65 134 255 
6.9326 8.1271 -0.874488 70 52 128 255 
6.40605 7.4967 -0.900886 70 52 128 255 
5.98258 6.99353 -0.928346 68 57 131 255 
5.58744 6.55733 -0.93893 62 73 137 255 
5.29412 6.20411 -0.966758 50 102 142 255 
4.99169 5.83948 -0.984115 55 91 141 255 
4.69969 5.48997 -0.995091 49 104 142 255 
4.48032 5.25247 -1.00838 51 99 141 255 
4.23372 4.95794 -1.01395 53 94 141 255 
4.01348 4.69347 -1.01902 54 92 141 255 
3.84226 4.48836 -1.03329 61 77 138 255 
3.67966 4.30773 -1.03979 53 95 141 255 
3.53395 4.13409 -1.0493 58 84 140 255 
3.405 3.9819 -1.06308 56 89 140 255 
3.24945 3.79721 -1.06505 60 80 139 255 
3.15965 3.69505 -1.07872 58 83 139 255 
3.02328 3.5342 -1.07716 55 90 140 255 
2.92032 3.41268 -1.08581 57 85 140 255 
2.79795 3.2719 -1.08616 65 68 135 255 
2.71338 3.16757 -1.09031 60 80 139 255 
2.62828 3.0681 -1.09611 63 71 136 255 
2.54999 2.97887 -1.10516 63 71 136 255 
2.46883 2.88907 -1.11343 66 64 134 255 
10.9811 12.7642 5.05796 72 32 113 255 
11.1531 12.9866 4.95071 71 44 122 255 
11.1895 13.0384 4.78746 72 33 115 255 
9.28321 10.8167 3.82737 66 64 134 255 
9.32873 10.8549 3.71486 66 63 133 255 
7.34668 8.55141 2.80671 71 42 122 255 
7.40082 8.61154 2.71137 57 86 140 255 
10.8558 12.6268 3.81378 72 28 110 255 
7.49679 8.72637 2.53783 58 84 140 255 
7.25746 8.44458 2.34036 50 100 142 255 
6.2054 7.21291 1.90644 52 97 141 255 
15.1079 17.5478 4.41714 72 24 106 255 
7.38824 8.60002 2.06861 65 66 135 255 
7.2819 8.47003 1.92738 49 103 142 255 
15.7452 18.2887 3.92594 72 20 103 255 
15.5317 18.0083 3.64749 71 16 99 255 
15.0147 17.4711 3.34424 72 36 117 255 
15.133 17.5959 3.14201 72 32 113 255 
18.5459 21.519 3.57367 71 16 99 255 
14.9798 17.3562 2.67299 71 13 96 255 
17.0936 19.8902 2.84445 72 27 109 255 
15.9294 18.5023 2.41541 72 26 108 255 
15.8854 18.4255 2.17549 72 22 104 255 
15.7865 18.2715 1.93431 71 13 96 255 
22.4929 26.1636 2.49138 70 7 90 255 
0 0 0 68 2 86 255 
41.7759 48.4047 3.40687 69 5 89 255 
41.8961 48.457 2.80801 70 7 90 255 
41.7747 48.5578 2.304 69 5 89 255 
13.624 15.8078 0.553755 72 40 120 255 
13.4412 15.5685 0.351834 72 27 109 255 
13.4671 15.5651 0.161657 69 55 129 255 
13.4388 15.6154 -0.00359573 70 52 128 255 
13.458 15.6042 -0.19781 68 57 131 255 
13.4638 15.5837 -0.38824 69 56 130 255 
11.0414 12.7525 -0.477066 72 24 106 255 
10.0176 11.6278 -0.557417 72 29 111 255 
9.35836 10.8431 -0.652914 72 35 116 255 
8.72807 10.0987 -0.734574 72 41 121 255 
8.18505 9.45016 -0.806279 71 42 122 255 
7.64157 8.86672 -0.849309 63 72 137 255 
6.98625 8.08894 -0.874978 70 48 126 255 
6.46431 7.47156 -0.902615 70 52 128 255 
6.01235 6.94164 -0.926339 66 65 134 255 
5.62886 6.52442 -0.939146 62 73 137 255 
5.31846 6.15573 -0.964286 49 104 142 255 
5.03197 5.81399 -0.985005 55 90 140 255 
4.73263 5.46028 -0.994954 48 105 142 255 
4.51635 5.22937 -1.00925 50 102 142 255 
4.26083 4.92813 -1.01318 57 85 140 255 
4.05577 4.68442 -1.02244 52 96 141 255 
3.87876 4.47512 -1.0357 58 84 140 255 
3.70666 4.28582 -1.03997 54 93 141 255 
3.56247 4.11604 -1.05025 54 93 141 255 
3.40179 3.92907 -1.05453 60 79 138 255 
3.28422 3.79051 -1.0688 62 73 137 255 
3.18098 3.67412 -1.07828 55 90 140 255 
3.05703 3.52957 -1.08145 57 86 140 255 
2.9482 3.40278 -1.08839 56 89 140 255 
2.80464 3.23928 -1.08102 66 64 134 255 
2.73403 3.15232 -1.09082 63 72 137 255 
2.64643 3.05119 -1.09585 62 74 137 255 
2.55687 2.95007 -1.10028 61 77 138 255 
2.49216 2.8804 -1.11596 66 63 133 255 
11.0504 12.6864 5.05394 72 37 118 255 
11.2363 12.9223 4.95238 72 35 116 255 
11.6054 13.3563 4.93026 72 28 110 255 
9.30697 10.7107 3.81 69 56 130 255 
9.30558 10.6945 3.67944 70 52 128 255 
11.2042 12.8808 4.25017 72 36 117 255 
7.41138 8.51754 2.69604 72 26 108 255 
7.36572 8.46177 2.56939 66 64 134 255 
7.60146 8.73915 2.55506 56 89 140 255 
7.48259 8.59921 2.3959 56 88 140 255 
7.38365 8.4767 2.25241 71 46 124 255 
7.40788 8.49823 2.15058 64 70 136 255 
7.44023 8.55378 2.06843 53 94 141 255 
7.33633 8.42816 1.92806 46 109 142 255 
7.35655 8.43964 1.82135 51 99 141 255 
17.0514 19.5268 3.97617 71 17 100 255 
15.3295 17.6176 3.39021 72 26 108 255 
17.4832 20.0781 3.60432 71 14 97 255 
15.5053 17.7693 2.9667 70 11 94 255 
15.0632 17.2378 2.66893 70 10 93 255 
15.7275 18.075 2.5986 71 16 99 255 
15.7961 18.1214 2.37829 72 40 120 255 
18.5913 21.2984 2.52811 70 8 92 255 
15.893 18.1683 1.93367 72 27 109 255 
23.9575 27.5238 2.63484 70 10 93 255 
30.2626 34.7052 2.88893 69 5 89 255 
42.172 48.2617 3.41496 69 4 87 255 
0 0 0 68 2 86 255 
42.0751 48.3044 2.30418 69 5 89 255 
13.6182 15.6064 0.549617 71 46 124 255 
13.5286 15.4767 0.351629 71 17 100 255 
13.5584 15.4776 0.16161 69 56 130 255 
13.5331 15.5311 -0.00359538 67 62 133 255 
13.5384 15.504 -0.197589 69 55 129 255 
13.5658 15.5083 -0.388429 71 47 125 255 
11.0713 12.6296 -0.475002 72 29 111 255 
10.0907 11.5684 -0.557526 72 32 113 255 
9.40368 10.7614 -0.651457 72 31 112 255 
8.80631 10.0638 -0.735948 72 41 121 255 
8.2771 9.43878 -0.809625 70 50 126 255 
7.68796 8.81065 -0.848441 66 63 133 255 
7.02328 8.03166 -0.873428 70 50 126 255 
6.50675 7.42801 -0.90216 69 55 129 255 
6.05746 6.90761 -0.92674 67 61 132 255 
5.66879 6.48976 -0.939146 62 76 138 255 
5.35024 6.11626 -0.963227 50 102 142 255 
5.06298 5.77779 -0.984115 55 90 140 255 
4.76736 5.43263 -0.995227 50 102 142 255 
4.53923 5.19113 -1.00722 52 97 141 255 
4.28643 4.89669 -1.01211 56 89 140 255 
4.08573 4.66093 -1.02277 54 93 141 255 
3.91329 4.45938 -1.0376 59 82 139 255 
3.73678 4.26743 -1.04105 53 94 141 255 
3.58701 4.09336 -1.05006 58 84 140 255 
3.43488 3.91844 -1.05731 58 84 140 255 
3.32096 3.78572 -1.07317 59 81 139 255 
3.19896 3.64939 -1.07677 58 83 139 255 
3.07799 3.51001 -1.08122 56 88 140 255 
2.96903 3.38463 -1.08839 58 83 139 255 
2.8462 3.2468 -1.08934 62 74 137 255 
2.75141 3.13331 -1.09006 63 72 137 255 
2.66701 3.03707 -1.09664 63 71 136 255 
2.5762 2.93577 -1.10082 64 69 136 255 
2.47944 2.83041 -1.10246 67 62 133 255 
11.0951 12.581 5.03898 71 42 122 255 
11.1352 12.6483 4.87348 68 57 131 255 
11.5917 13.1764 4.88999 72 28 110 255 
9.46055 10.7535 3.84579 66 63 133 255 
9.47339 10.7535 3.71963 72 35 116 255 
11.5986 13.1701 4.36903 72 32 113 255 
7.41978 8.42227 2.68025 71 42 122 255 
7.39237 8.38789 2.56068 56 88 140 255 
7.26771 8.25263 2.42581 59 81 139 255 
7.23828 8.2161 2.30149 60 79 138 255 
7.43034 8.42536 2.25084 69 55 129 255 
7.42349 8.41137 2.14008 56 88 140 255 
7.48607 8.50059 2.06664 62 76 138 255 
7.39702 8.39333 1.93044 47 107 142 255 
7.38468 8.3677 1.81557 56 89 140 255 
15.6271 17.6756 3.61868 72 20 103 255 
15.5177 17.6145 3.40789 72 33 115 255 
15.5051 17.5873 3.17421 72 40 120 255 
15.6062 17.6649 2.9652 72 37 118 255 
15.2233 17.2068 2.67855 72 23 105 255 
15.8321 17.9714 2.59763 72 22 104 255 
15.8478 17.957 2.36943 72 26 108 255 
15.9046 17.9964 2.1477 72 20 103 255 
15.9507 18.01 1.9272 71 19 101 255 
16.0985 18.2673 1.75814 70 11 94 255 
25.7528 29.1701 2.44129 70 7 90 255 
30.6638 34.6602 2.46579 70 7 90 255 
0 0 0 68 1 84 255 
42.3674 48.0415 2.304 69 5 89 255 
13.7091 15.5173 0.549431 72 36 117 255 
13.6458 15.4188 0.35221 71 19 101 255 
13.6684 15.4113 0.16179 70 52 128 255 
13.6347 15.4553 -0.00359712 67 62 133 255 
13.6478 15.4371 -0.1978 69 56 130 255 
13.6733 15.439 -0.388787 71 44 122 255 
11.1791 12.5958 -0.476303 72 23 105 255 
10.1761 11.5227 -0.558324 72 28 110 255 
9.46226 10.6953 -0.650956 72 37 118 255 
8.86525 10.0066 -0.735728 72 36 117 255 
8.32956 9.38185 -0.809111 71 47 125 255 
7.73792 8.75883 -0.848006 67 61 132 255 
7.0797 7.99663 -0.874325 70 52 128 255 
6.54956 7.38497 -0.901796 69 55 129 255 
6.0984 6.86883 -0.926539 67 62 133 255 
5.69731 6.4422 -0.937304 64 70 136 255 
5.39162 6.08777 -0.963933 47 107 142 255 
5.10031 5.74884 -0.984497 57 86 140 255 
4.79139 5.39291 -0.993317 51 98 141 255 
4.55722 5.14762 -1.00419 51 99 141 255 
4.31181 4.86512 -1.01103 57 85 140 255 
4.1136 4.63503 -1.02261 56 89 140 255 
3.92815 4.42129 -1.03433 59 81 139 255 
3.75115 4.23118 -1.0378 58 84 140 255 
3.59055 4.04704 -1.0438 58 83 139 255 
3.46471 3.90389 -1.0591 57 86 140 255 
3.33049 3.74992 -1.0688 62 76 138 255 
3.22194 3.63042 -1.07699 57 85 140 255 
3.07877 3.46775 -1.074 60 79 138 255 
2.98393 3.35981 -1.08628 60 80 139 255 
2.86413 3.2271 -1.08861 64 70 136 255 
2.78023 3.12721 -1.09385 60 80 139 255 
2.72022 3.0596 -1.11078 66 63 133 255 
2.59288 2.91847 -1.10028 65 68 135 255 
2.49103 2.80868 -1.09993 66 63 133 255 
11.0936 12.4248 5.00359 72 29 111 255 
11.1678 12.5295 4.85403 66 63 133 255 
11.2815 12.6662 4.72626 71 16 99 255 
11.7078 13.1444 4.72645 72 35 116 255 
9.51407 10.667 3.70984 72 40 120 255 
9.59069 10.7563 3.58775 72 36 117 255 
7.48039 8.38675 2.6835 71 47 125 255 
7.44435 8.3431 2.5609 51 98 141 255 
7.29676 8.18383 2.4187 58 84 140 255 
7.29246 8.17591 2.30272 61 78 138 255 
7.14689 8.0044 2.15005 53 94 141 255 
7.21251 8.07194 2.06494 49 104 142 255 
12.9157 14.4859 3.54096 72 33 115 255 
7.46413 8.36544 1.93452 46 111 142 255 
7.42734 8.31266 1.81348 72 27 109 255 
15.7214 17.5639 3.6155 72 32 113 255 
17.4897 19.6091 3.81446 71 14 97 255 
15.5969 17.4741 3.17099 72 31 112 255 
15.5092 17.3396 2.92651 72 35 116 255 
15.3498 17.1367 2.68225 71 17 100 255 
15.3009 17.155 2.49315 72 31 112 255 
15.8363 17.7236 2.35141 72 31 112 255 
16.0446 17.9318 2.15171 72 27 109 255 
16.0822 17.9355 1.92976 72 29 111 255 
16.2023 18.1592 1.75728 72 27 109 255 
25.8941 28.9699 2.43778 70 8 92 255 
25.963 28.9863 2.07344 69 5 89 255 
30.7358 34.2537 2.0174 70 10 93 255 
0 0 0 68 2 86 255 
30.8183 34.4549 1.22664 69 5 89 255 
13.7555 15.3519 0.352604 70 8 92 255 
13.7847 15.3517 0.16205 71 16 99 255 
13.7633 15.4094 -0.00360602 70 48 126 255 
13.797 15.4142 -0.198587 72 35 116 255 
13.7818 15.3705 -0.389183 72 23 105 255 
11.1086 12.3627 -0.470055 72 23 105 255 
10.2526 11.4667 -0.558651 72 27 109 255 
9.5417 10.6526 -0.651913 72 37 118 255 
8.92381 9.94901 -0.735508 72 41 121 255 
8.39364 9.33798 -0.809754 72 38 119 255 
7.78819 8.70747 -0.847645 70 51 127 255 
7.12464 7.94858 -0.873835 70 48 126 255 
6.58344 7.33204 -0.900249 67 61 132 255 
6.1411 6.83202 -0.92664 67 62 133 255 
5.74137 6.4123 -0.938063 60 79 138 255 
5.43152 6.05753 -0.964404 50 102 142 255 
5.12886 5.71005 -0.983226 57 86 140 255 
4.81909 5.35751 -0.992226 55 90 140 255 
4.58014 5.10999 -1.00231 53 94 141 255 
4.33234 4.82827 -1.00888 60 79 138 255 
4.13339 4.60016 -1.02049 57 86 140 255 
3.9664 4.40956 -1.03726 57 85 140 255 
3.79675 4.23004 -1.04322 56 88 140 255 
3.62713 4.03808 -1.04721 59 81 139 255 
3.49384 3.88839 -1.06069 55 91 141 255 
3.35017 3.72578 -1.06776 59 82 139 255 
3.23502 3.60042 -1.07395 56 88 140 255 
3.10455 3.45387 -1.07558 60 80 139 255 
3.00059 3.3371 -1.08487 62 76 138 255 
2.87092 3.19504 -1.08371 64 70 136 255 
2.80907 3.12088 -1.09765 63 71 136 255 
2.71312 3.01416 -1.1003 64 70 136 255 
2.61525 2.90752 -1.10218 65 68 135 255 
2.51014 2.79548 -1.10078 67 61 132 255 
11.0265 12.1981 4.93943 72 35 116 255 
11.1923 12.403 4.83153 68 57 131 255 
11.9699 13.2742 4.98045 72 23 105 255 
9.61896 10.6667 3.85668 70 50 126 255 
9.55404 10.5804 3.70004 65 68 135 255 
9.65326 10.6937 3.58654 65 66 135 255 
7.53953 8.34935 2.68629 55 90 140 255 
7.49605 8.29799 2.56113 57 85 140 255 
7.35731 8.1505 2.42215 56 89 140 255 
7.7898 8.62635 2.443 52 97 141 255 
7.47202 8.26589 2.23257 69 55 129 255 
7.2072 7.96707 2.04939 48 106 142 255 
7.19959 7.97577 1.96038 71 45 123 255 
7.51664 8.32094 1.93486 50 102 142 255 
15.5848 17.2285 3.77934 72 36 117 255 
11.498 12.688 2.62627 72 35 116 255 
15.8176 17.5168 3.42627 72 36 117 255 
10.8689 12.0277 2.19471 71 14 97 255 
15.2877 16.8823 2.8651 72 40 120 255 
15.5047 17.0974 2.69094 72 28 110 255 
15.4658 17.1272 2.50285 72 31 112 255 
15.4748 17.1066 2.2821 72 36 117 255 
16.1202 17.7954 2.14717 72 26 108 255 
16.0043 17.6299 1.9074 72 35 116 255 
25.951 28.7286 2.79544 70 11 94 255 
30.55 33.7597 2.85656 70 7 90 255 
30.9359 34.1148 2.45382 69 4 87 255 
30.766 33.8671 2.00571 70 7 90 255 
30.9387 34.2262 1.65952 70 10 93 255 
30.9762 34.2066 1.22454 69 4 87 255 
0 0 0 68 2 86 255 
21.8192 24.0017 0.254765 69 4 87 255 
19.6049 21.6805 -0.0051016 70 7 90 255 
18.3136 20.2093 -0.261808 71 16 99 255 
15.7165 17.3133 -0.440808 72 26 108 255 
10.9252 12.0096 -0.459171 72 29 111 255 
10.3469 11.4303 -0.559957 72 28 110 255 
9.63775 10.6279 -0.654007 72 35 116 255 
9.03839 9.9532 -0.739904 71 44 122 255 
8.48637 9.32542 -0.813165 71 44 122 255 
7.8408 8.65877 -0.847572 71 47 125 255 
7.16323 7.89365 -0.872612 71 46 124 255 
6.63367 7.29741 -0.900977 69 55 129 255 
6.18692 6.79863 -0.927242 68 59 132 255 
5.79663 6.39463 -0.940663 60 80 139 255 
5.45791 6.01233 -0.962521 58 84 140 255 
5.17581 5.69169 -0.985513 55 90 140 255 
4.85721 5.3337 -0.993317 49 103 142 255 
4.60808 5.07812 -1.00159 51 99 141 255 
4.36521 4.80526 -1.00965 58 84 140 255 
4.17349 4.58785 -1.02342 54 92 141 255 
3.98145 4.37203 -1.03415 59 82 139 255 
3.82329 4.20739 -1.0434 54 93 141 255 
3.64721 4.01066 -1.04589 58 84 140 255 
3.51697 3.86615 -1.06049 54 92 141 255 
3.39206 3.72613 -1.0738 61 77 138 255 
3.25048 3.57328 -1.07179 58 84 140 255 
3.14207 3.45276 -1.08122 55 91 141 255 
3.02297 3.32078 -1.08557 59 81 139 255 
2.88786 3.1745 -1.08273 65 68 135 255 
2.83403 3.11002 -1.09992 63 71 136 255 
2.73546 3.00173 -1.10187 63 71 136 255 
2.61878 2.87576 -1.09621 67 62 133 255 
2.53693 2.79068 -1.105 68 57 131 255 
10.772 11.7706 4.793 71 46 124 255 
11.2494 12.3135 4.82347 64 69 136 255 
11.4354 12.5261 4.72599 71 44 122 255 
12.0421 13.1901 4.79569 72 35 116 255 
9.5796 10.4787 3.68497 68 57 131 255 
9.70495 10.6192 3.58147 72 33 115 255 
7.68381 8.40487 2.71927 67 62 133 255 
7.46788 8.16552 2.53434 58 84 140 255 
7.4388 8.13981 2.43249 52 96 141 255 
7.83796 8.57334 2.44156 53 94 141 255 
7.67221 8.38336 2.27697 72 37 118 255 
7.27785 7.9466 2.05557 57 85 140 255 
7.31874 8.00842 1.97941 51 98 141 255 
7.57155 8.27903 1.93588 58 84 140 255 
7.41946 8.10152 1.78715 67 61 132 255 
15.5723 16.9735 3.53302 71 17 100 255 
10.8888 11.9107 2.34275 71 16 99 255 
15.4369 16.8734 3.09612 70 10 93 255 
10.8853 11.8735 2.02635 72 28 110 255 
15.612 17.0049 2.6914 72 28 110 255 
15.5767 17.0386 2.50382 72 37 118 255 
15.5989 17.0326 2.28496 71 44 122 255 
16.0965 17.5515 2.12962 71 16 99 255 
15.9969 17.4058 1.89375 70 10 93 255 
15.769 17.2429 1.68721 70 7 90 255 
26.0015 28.3814 2.41492 70 11 94 255 
0 0 0 68 2 86 255 
43.6347 47.4446 2.82562 69 4 87 255 
31.0625 33.9421 1.65496 70 8 92 255 
30.997 33.8103 1.21714 71 13 96 255 
24.3148 26.4757 0.614901 69 4 87 255 
22.3318 24.2647 0.259006 69 5 89 255 
17.5524 19.1729 -0.00453681 70 7 90 255 
17.3989 18.9648 -0.247063 71 16 99 255 
15.6458 17.0244 -0.435889 72 28 110 255 
10.9865 11.9291 -0.458662 72 29 111 255 
10.4202 11.3703 -0.560139 72 27 109 255 
9.71224 10.5789 -0.654645 72 37 118 255 
9.10267 9.90123 -0.740179 72 40 120 255 
8.52382 9.25189 -0.811299 72 41 121 255 
7.87963 8.59506 -0.846053 69 53 129 255 
7.21221 7.85028 -0.872693 69 55 129 255 
6.69315 7.27269 -0.902979 68 57 131 255 
6.23055 6.76273 -0.927543 68 58 131 255 
5.83576 6.35894 -0.940663 61 77 138 255 
5.48596 5.96922 -0.96099 61 78 138 255 
5.21735 5.66712 -0.986784 52 96 141 255 
4.89924 5.314 -0.995227 48 105 142 255 
4.64785 5.05923 -1.00346 51 99 141 255 
4.42538 4.81184 -1.01672 58 83 139 255 
4.21159 4.57305 -1.02586 51 98 141 255 
4.00219 4.341 -1.0326 59 82 139 255 
3.86236 4.19833 -1.04701 53 95 141 255 
3.67441 3.9911 -1.04665 59 82 139 255 
3.53532 3.83874 -1.0589 57 86 140 255 
3.41353 3.7038 -1.07338 61 77 138 255 
3.26441 3.54465 -1.06919 57 85 140 255 
3.16518 3.43557 -1.0819 59 82 139 255 
3.02155 3.27858 -1.07782 63 71 136 255 
2.93619 3.1881 -1.0935 65 68 135 255 
2.85437 3.094 -1.10043 61 78 138 255 
2.75252 2.98347 -1.10135 63 71 136 255 
2.6553 2.88016 -1.10408 67 62 133 255 
2.5527 2.77365 -1.10443 69 56 130 255 
11.3797 12.2825 5.02977 66 64 134 255 
11.3594 12.2817 4.83819 72 20 103 255 
11.9057 12.8816 4.88758 72 38 119 255 
7.6016 8.22436 3.00713 72 23 105 255 
7.53982 8.14651 2.88105 66 65 134 255 
7.62153 8.23745 2.79391 72 40 120 255 
9.76617 10.5519 3.43323 71 46 124 255 
7.54103 8.14458 2.54215 61 78 138 255 
7.83147 8.46459 2.54386 52 97 141 255 
7.87446 8.50784 2.43663 59 82 139 255 
7.73483 8.34836 2.28031 61 78 138 255 
7.39259 7.97311 2.07412 57 85 140 255 
7.33567 7.9287 1.97079 48 106 142 255 
7.70522 8.32208 1.95696 54 93 141 255 
15.838 17.0823 3.78962 71 14 97 255 
7.64029 8.22588 1.72194 72 26 108 255 
15.7444 17.0112 3.36493 72 28 110 255 
15.8 17.059 3.14791 72 24 106 255 
11.0119 11.8646 2.03634 72 38 119 255 
15.7275 16.9211 2.69337 72 33 115 255 
15.7782 17.0477 2.51935 72 23 105 255 
15.6017 16.8271 2.27019 72 32 113 255 
15.5566 16.7554 2.04456 72 26 108 255 
15.6871 16.86 1.8448 71 19 101 255 
15.472 16.7111 1.64443 71 42 122 255 
15.4864 16.697 1.42878 72 36 117 255 
15.4415 16.614 1.20855 72 33 115 255 
43.9331 47.1848 2.82614 70 8 92 255 
43.8536 47.3326 2.32093 70 7 90 255 
0 0 0 68 2 86 255 
24.0519 25.869 0.604229 70 10 93 255 
21.8095 23.4073 0.251278 70 7 90 255 
15.4272 16.6453 -0.00396102 71 16 99 255 
15.3843 16.5636 -0.217008 71 17 100 255 
15.8311 17.0152 -0.438132 72 26 108 255 
13.4331 14.4072 -0.5571 72 32 113 255 
10.4911 11.3076 -0.560211 72 28 110 255 
9.78717 10.5301 -0.655328 72 36 117 255 
9.15917 9.84081 -0.739849 72 41 121 255 
8.60153 9.22204 -0.813294 72 38 119 255 
7.8983 8.51 -0.842434 71 42 122 255 
7.27042 7.81682 -0.873917 70 51 127 255 
6.71525 7.20744 -0.899976 69 55 129 255 
6.27192 6.72437 -0.927543 68 59 132 255 
5.85843 6.30554 -0.938063 63 71 136 255 
5.5279 5.94126 -0.961932 56 88 140 255 
5.24932 5.6321 -0.986275 54 92 141 255 
4.93041 5.28239 -0.994954 52 97 141 255 
4.6815 5.03351 -1.00404 53 95 141 255 
4.45347 4.78315 -1.01641 53 94 141 255 
4.24293 4.55073 -1.02668 51 98 141 255 
4.04017 4.3286 -1.03553 58 83 139 255 
3.89073 4.17743 -1.04773 56 89 140 255 
3.72695 3.99864 -1.0546 58 84 140 255 
3.55546 3.81339 -1.05791 56 88 140 255 
3.43352 3.67993 -1.07255 59 81 139 255 
3.29342 3.53241 -1.07157 56 89 140 255 
3.18886 3.41893 -1.0828 58 84 140 255 
3.05222 3.27135 -1.08158 62 76 138 255 
2.93123 3.14378 -1.08445 61 77 138 255 
2.86934 3.07218 -1.09891 62 74 137 255 
2.77538 2.97146 -1.10318 64 70 136 255 
2.67883 2.87014 -1.10652 67 62 133 255 
2.5592 2.7467 -1.09993 67 61 132 255 
9.36149 9.98061 4.11058 70 51 127 255 
9.52318 10.1705 4.02947 72 37 118 255 
9.45056 10.1002 3.85418 69 55 129 255 
7.66973 8.1966 3.01413 68 58 131 255 
7.61415 8.12623 2.89034 58 83 139 255 
7.64208 8.15866 2.78304 65 68 135 255 
7.55627 8.06437 2.63891 72 27 109 255 
7.57886 8.08535 2.53813 60 80 139 255 
11.1456 11.8994 3.5966 71 46 124 255 
11.0072 11.7471 3.38363 72 38 119 255 
7.8067 8.32291 2.2864 64 69 136 255 
7.44339 7.92974 2.07469 69 56 130 255 
7.45681 7.96109 1.99017 42 119 142 255 
7.44681 7.94463 1.87891 49 103 142 255 
7.3812 7.86377 1.75455 47 108 142 255 
14.2647 15.1702 3.19388 72 24 106 255 
10.9231 11.6577 2.31919 70 11 94 255 
15.735 16.781 3.11437 72 20 103 255 
