ply
format ascii 1.0
comment VTK generated PLY File
obj_info vtkPolyData points and polygons: vtk4.0
element vertex 1202
property float x
property float y
property float z
property uchar red
property uchar green
property uchar blue
property uchar alpha
element face 0
property list uchar int vertex_indices
end_header
-0.887474 4.24845 -1.13457 59 81 139 255 
-0.858172 4.10859 -1.1388 56 88 140 255 
-0.831299 3.97283 -1.14396 62 76 138 255 
-0.804218 3.82702 -1.14576 64 70 136 255 
-2.13223 10.3169 3.16464 65 68 135 255 
-2.09059 10.0718 2.97487 72 40 120 255 
-2.07294 9.96887 2.83715 71 42 122 255 
-2.1068 10.1327 2.77892 53 95 141 255 
-2.10797 10.1727 2.6964 68 59 132 255 
-2.12756 10.2589 2.60837 65 68 135 255 
-0 0 0 68 2 86 255 
-0 0 0 68 1 84 255 
-0 0 0 68 1 84 255 
-0 0 0 68 1 84 255 
-6.58922 31.8831 6.52324 71 19 101 255 
-6.44934 31.2641 6.08952 71 16 99 255 
-6.50706 31.3744 5.84614 71 13 96 255 
-6.50018 31.3984 5.53268 71 14 97 255 
-6.63674 32.1697 5.34362 71 19 101 255 
-6.55877 31.9352 5.00042 72 20 103 255 
-3.19097 15.399 2.28299 68 59 132 255 
-6.7015 32.3994 4.47917 70 11 94 255 
-9.44433 45.9001 5.89508 70 7 90 255 
-0 0 0 69 4 87 255 
-9.9499 48.0164 5.3184 69 5 89 255 
-0 0 0 68 2 86 255 
-0 0 0 68 2 86 255 
-3.15642 15.4371 1.2622 64 69 136 255 
-3.19999 15.4561 1.13971 62 76 138 255 
-3.18147 15.4356 0.988774 60 79 138 255 
-3.11061 15.1714 0.825194 65 66 135 255 
-3.00626 14.7289 0.658965 66 63 133 255 
-2.85842 13.8306 0.507989 71 47 125 255 
-2.85343 13.8685 0.375713 69 55 129 255 
-2.84043 13.866 0.242116 71 45 123 255 
-2.82265 13.8539 0.111046 71 47 125 255 
-2.58586 12.5228 -0.00223175 70 50 126 255 
-2.55615 12.4456 -0.121967 69 56 130 255 
-2.54506 12.4462 -0.239488 68 58 131 255 
-2.41216 11.8604 -0.3423 63 72 137 255 
-2.39619 11.635 -0.431437 55 90 140 255 
-2.2744 11.0935 -0.516211 69 56 130 255 
-2.26748 11.0986 -0.62341 68 57 131 255 
-2.2449 11.0478 -0.727054 66 65 134 255 
-2.18221 10.6054 -0.785625 65 68 135 255 
-2.12483 10.3823 -0.867553 57 86 140 255 
-2.08709 10.243 -0.955019 58 83 139 255 
-2.01651 9.92381 -1.02148 67 62 133 255 
-1.89255 9.22206 -1.02604 56 88 140 255 
-1.76279 8.62102 -1.04303 52 96 141 255 
-1.64943 8.10224 -1.05921 57 86 140 255 
-1.53901 7.58744 -1.06602 54 92 141 255 
-1.47719 7.21721 -1.07602 49 104 142 255 
-1.39021 6.811 -1.08111 52 96 141 255 
-1.31916 6.4857 -1.09213 53 94 141 255 
-1.2542 6.18332 -1.10341 55 90 140 255 
-1.20349 5.90093 -1.10532 50 102 142 255 
-1.14306 5.61516 -1.10556 51 98 141 255 
-1.09269 5.37228 -1.11239 58 84 140 255 
-1.04358 5.14036 -1.11778 56 89 140 255 
-1.00565 4.94406 -1.11944 54 92 141 255 
-0.966891 4.75823 -1.12455 51 99 141 255 
-0.929485 4.57804 -1.12928 60 80 139 255 
-0.88738 4.36315 -1.12334 62 76 138 255 
-0.857741 4.2358 -1.12977 56 88 140 255 
-0.833329 4.11567 -1.13932 59 81 139 255 
-0.806141 3.97408 -1.14287 61 77 138 255 
-0.780146 3.82906 -1.14492 64 69 136 255 
-2.03297 10.1504 3.10969 50 101 142 255 
-2.35311 11.6967 3.4505 69 55 129 255 
-2.62896 13.0438 3.70762 71 45 123 255 
-2.00433 9.94567 2.72421 65 66 135 255 
-2.37617 11.8319 3.13227 72 38 119 255 
-2.0661 10.2794 2.61031 72 31 112 255 
-0 0 0 68 1 84 255 
-2.74913 13.7031 3.20096 69 5 89 255 
-0 0 0 68 1 84 255 
-0 0 0 68 1 84 255 
-6.39212 31.9162 6.52187 72 22 104 255 
-6.25796 31.306 6.09008 71 16 99 255 
-6.3881 31.7802 5.91434 71 19 101 255 
-6.24672 31.1353 5.47946 71 19 101 255 
-6.36976 31.8624 5.28597 70 10 93 255 
-6.30965 31.7082 4.95872 72 22 104 255 
-3.09233 15.3979 2.27997 65 68 135 255 
-3.07727 15.3518 2.11971 71 19 101 255 
-3.05346 15.3155 1.96457 72 24 106 255 
-3.0569 15.3901 1.82936 72 24 106 255 
-0 0 0 69 4 87 255 
-0 0 0 68 2 86 255 
-0 0 0 69 4 87 255 
-3.05583 15.4269 1.25981 64 70 136 255 
-3.10274 15.4637 1.13885 62 76 138 255 
-3.08474 15.445 0.988148 59 82 139 255 
-3.03419 15.2745 0.829769 67 61 132 255 
-2.9356 14.847 0.663432 66 63 133 255 
-2.79469 13.9537 0.511872 68 57 131 255 
-2.7892 13.9907 0.378551 70 51 127 255 
-2.77885 14.0018 0.244185 70 51 127 255 
-2.73991 13.8828 0.111141 69 56 130 255 
-2.51741 12.5806 -0.00223926 70 50 126 255 
-2.50472 12.5866 -0.123196 68 58 131 255 
-2.4669 12.4527 -0.239319 68 57 131 255 
-2.32427 11.7984 -0.340095 60 79 138 255 
-2.30969 11.574 -0.428642 54 92 141 255 
-2.22186 11.1856 -0.519854 68 59 132 255 
-2.20826 11.1574 -0.625938 69 53 129 255 
-2.10712 10.7059 -0.703692 62 73 137 255 
-2.10891 10.5775 -0.782586 60 80 139 255 
-2.05624 10.3707 -0.865513 55 90 140 255 
-2.02883 10.2791 -0.957203 52 97 141 255 
-1.9502 9.90866 -1.01867 62 76 138 255 
-1.83186 9.21302 -1.02376 59 82 139 255 
-1.71141 8.63947 -1.04398 54 92 141 255 
-1.60141 8.12097 -1.06035 59 81 139 255 
-1.49108 7.58994 -1.06507 52 96 141 255 
-1.43114 7.2174 -1.07472 49 103 142 255 
-1.34839 6.8194 -1.08111 52 97 141 255 
-1.27495 6.47141 -1.08838 54 93 141 255 
-1.21358 6.17737 -1.101 56 88 140 255 
-1.16555 5.89952 -1.10369 48 105 142 255 
-1.10612 5.60955 -1.1031 53 94 141 255 
-1.05687 5.36446 -1.10941 58 83 139 255 
-1.00806 5.12651 -1.1134 61 77 138 255 
-0.978123 4.96451 -1.12269 55 90 140 255 
-0.940875 4.78033 -1.12838 52 96 141 255 
-0.899501 4.57412 -1.12693 62 73 137 255 
-0.854969 4.33998 -1.116 62 74 137 255 
-0.832851 4.24668 -1.13128 57 86 140 255 
-0.811031 4.13586 -1.14351 61 77 138 255 
-0.783783 3.98935 -1.14585 57 85 140 255 
-0.759238 3.84696 -1.14886 64 70 136 255 
-1.96317 10.1242 3.0979 67 61 132 255 
-2.30554 11.8354 3.48717 72 40 120 255 
-2.50828 12.8517 3.64857 72 38 119 255 
-2.34913 12.0375 3.29317 70 52 128 255 
-2.36265 12.1503 3.21266 63 71 136 255 
-2.62975 13.5123 3.4271 71 44 122 255 
-2.66374 13.6991 3.33243 69 55 129 255 
-2.65943 13.691 3.19426 71 16 99 255 
-0 0 0 68 1 84 255 
-0 0 0 68 1 84 255 
-6.19187 31.9327 6.51735 70 8 92 255 
-6.05866 31.3071 6.08296 71 16 99 255 
-6.0601 31.1361 5.78745 71 17 100 255 
-6.0674 31.2339 5.49017 72 23 105 255 
-6.13006 31.6731 5.24824 71 16 99 255 
-6.33689 32.8985 5.13868 70 10 93 255 
-2.99042 15.3787 2.27437 72 32 113 255 
-2.98471 15.3791 2.12092 71 44 122 255 
-2.97259 15.4021 1.97331 72 38 119 255 
-2.9671 15.4329 1.83225 72 36 117 255 
-3.01117 15.4854 1.71098 54 92 141 255 
-2.98714 15.4349 1.55533 56 89 140 255 
-2.97802 15.4447 1.40656 60 80 139 255 
-2.95905 15.4346 1.25893 62 73 137 255 
-3 15.4423 1.13589 61 78 138 255 
-2.97267 15.3745 0.98245 62 76 138 255 
-2.95173 15.3516 0.832962 69 55 129 255 
-2.86435 14.9688 0.668074 69 56 130 255 
-2.72938 14.0755 0.515718 71 46 124 255 
-2.72129 14.1008 0.381071 70 52 128 255 
-2.70835 14.0991 0.245588 69 55 129 255 
-2.67832 14.0231 0.11213 68 58 131 255 
-2.45576 12.6763 -0.00225357 67 61 132 255 
-2.44787 12.7078 -0.124232 64 69 136 255 
-2.36522 12.3361 -0.236793 68 59 132 255 
-2.24641 11.784 -0.339275 61 77 138 255 
-2.23996 11.5948 -0.428897 53 94 141 255 
-2.1679 11.2756 -0.523406 68 59 132 255 
-2.15554 11.2531 -0.630553 67 62 133 255 
-2.03915 10.7069 -0.70292 62 74 137 255 
-2.04718 10.6068 -0.783816 52 96 141 255 
-1.97754 10.3049 -0.858986 55 90 140 255 
-1.96815 10.304 -0.958385 52 97 141 255 
-1.89495 9.94976 -1.02168 64 69 136 255 
-1.77642 9.22995 -1.02442 59 82 139 255 
-1.65818 8.64883 -1.04386 53 94 141 255 
-1.55322 8.13941 -1.0615 56 89 140 255 
-1.44412 7.597 -1.06479 56 88 140 255 
-1.38851 7.23479 -1.07602 51 98 141 255 
-1.30652 6.82755 -1.08111 51 99 141 255 
-1.23503 6.47814 -1.08822 54 93 141 255 
-1.16737 6.14115 -1.09324 57 86 140 255 
-1.12582 5.88821 -1.10026 50 101 142 255 
-1.06818 5.5979 -1.0995 55 91 141 255 
-1.0232 5.367 -1.10862 57 86 140 255 
-0.980241 5.15182 -1.11757 59 81 139 255 
-0.94618 4.96274 -1.12096 55 91 141 255 
-0.904053 4.74677 -1.11913 57 85 140 255 
-0.866149 4.55186 -1.12011 62 76 138 255 
-0.833952 4.37467 -1.12359 61 78 138 255 
-0.808943 4.26312 -1.13432 61 78 138 255 
-0.778982 4.10567 -1.13382 60 79 138 255 
-0.757672 3.98557 -1.14341 58 83 139 255 
-0.730758 3.82609 -1.14127 63 71 136 255 
-2.31218 12.3283 3.76794 72 37 118 255 
-2.23768 11.8748 3.49467 67 62 133 255 
-2.35003 12.4466 3.5294 71 44 122 255 
-2.38344 12.6249 3.4498 72 40 120 255 
-1.92573 10.2383 2.70393 72 32 113 255 
-2.32686 12.36 3.13116 65 66 135 255 
-2.54655 13.5393 3.28969 72 32 113 255 
-0 0 0 68 1 84 255 
-0 0 0 68 1 84 255 
-0 0 0 68 1 84 255 
-5.85593 31.2242 6.36529 69 4 87 255 
-5.83699 31.1863 6.05242 71 17 100 255 
-5.90826 31.3815 5.82621 71 19 101 255 
-5.8367 31.0633 5.45378 72 22 104 255 
-5.86533 31.3347 5.1861 71 19 101 255 
-5.80857 31.1847 4.86534 70 10 93 255 
-2.90003 15.4182 2.27753 51 99 141 255 
-2.90053 15.4517 2.12843 54 92 141 255 
-2.88349 15.4493 1.97705 57 85 140 255 
-2.87326 15.4557 1.83283 59 82 139 255 
-2.90342 15.4362 1.70354 64 69 136 255 
-2.89055 15.4431 1.55435 62 76 138 255 
-2.87699 15.4294 1.40354 62 73 137 255 
-2.8603 15.4309 1.25717 66 65 134 255 
-2.90003 15.433 1.13388 60 79 138 255 
-2.88415 15.4238 0.984454 56 89 140 255 
-2.85839 15.3744 0.833228 69 56 130 255 
-2.79571 15.1118 0.673679 70 52 128 255 
-2.66507 14.2099 0.520031 72 40 120 255 
-2.6527 14.2135 0.383671 71 47 125 255 
-2.64407 14.2354 0.247674 71 46 124 255 
-2.51923 13.6439 0.108973 66 64 134 255 
-2.3947 12.7806 -0.00226945 68 58 131 255 
-2.37735 12.7629 -0.124626 69 56 130 255 
-2.30369 12.427 -0.238263 63 72 137 255 
-2.17152 11.7838 -0.338879 62 76 138 255 
-2.17189 11.6251 -0.429514 53 95 141 255 
-2.13044 11.4595 -0.53133 60 80 139 255 
-2.07972 11.2298 -0.62852 60 79 138 255 
-1.96727 10.6858 -0.700731 57 86 140 255 
-1.98261 10.6222 -0.784033 57 86 140 255 
-1.91173 10.3031 -0.857844 55 91 141 255 
-1.90616 10.3228 -0.959022 55 91 141 255 
-1.82702 9.92402 -1.01787 64 69 136 255 
-1.71648 9.22308 -1.02246 61 78 138 255 
-1.60309 8.6481 -1.04256 52 97 141 255 
-1.50163 8.14001 -1.06035 57 85 140 255 
-1.40034 7.62131 -1.06698 55 91 141 255 
-1.34319 7.23831 -1.0753 54 93 141 255 
-1.26658 6.84612 -1.0828 49 103 142 255 
-1.19473 6.48269 -1.08773 56 88 140 255 
-1.12949 6.14723 -1.09307 62 76 138 255 
-1.08752 5.8834 -1.0981 53 94 141 255 
-1.03417 5.60628 -1.09988 59 82 139 255 
-0.996287 5.40594 -1.11538 52 96 141 255 
-0.94525 5.13946 -1.11361 59 82 139 255 
-0.915358 4.96654 -1.12052 57 86 140 255 
-0.871912 4.73594 -1.1153 57 85 140 255 
-0.834686 4.53797 -1.11541 61 77 138 255 
-0.81096 4.40068 -1.12897 60 80 139 255 
-0.780501 4.25563 -1.13103 59 82 139 255 
-0.75395 4.11132 -1.13408 58 83 139 255 
-0.727463 3.9589 -1.13446 63 72 137 255 
-0.710056 3.8456 -1.14576 61 77 138 255 
-1.84698 10.1927 3.11171 68 59 132 255 
-2.26304 12.428 3.6533 71 42 122 255 
-2.0924 11.4676 3.2481 70 51 127 255 
-1.83462 10.0559 2.74469 63 71 136 255 
-2.54863 14.023 3.69928 65 66 135 255 
-2.26922 12.4743 3.15653 66 63 133 255 
-2.2662 12.4694 3.02631 61 78 138 255 
-0 0 0 68 2 86 255 
-0 0 0 68 1 84 255 
-0 0 0 68 1 84 255 
-0 0 0 68 1 84 255 
-5.67874 31.4052 6.08802 71 17 100 255 
-5.73937 31.5478 5.85045 71 17 100 255 
-5.69158 31.3497 5.49782 71 17 100 255 
-5.68103 31.4148 5.19349 71 13 96 255 
-5.60714 31.1643 4.85669 70 10 93 255 
-2.80077 15.4104 2.27379 67 61 132 255 
-5.84406 32.2216 4.43342 70 7 90 255 
-8.25764 45.7997 5.85439 70 8 92 255 
-3.82831 21.3203 2.52545 70 11 94 255 
-8.60479 47.3452 5.21909 69 5 89 255 
-0 0 0 69 4 87 255 
-0 0 0 68 2 86 255 
-2.75941 15.4138 1.25438 66 65 134 255 
-2.80261 15.4358 1.1328 57 85 140 255 
-2.78804 15.4334 0.983953 56 88 140 255 
-2.76541 15.3995 0.833654 69 53 129 255 
-2.73948 15.3332 0.682788 70 51 127 255 
-2.69098 14.8504 0.542857 71 46 124 255 
-2.61864 14.5246 0.391628 70 51 127 255 
-2.44456 13.6264 0.236814 65 68 135 255 
-2.43512 13.6572 0.108957 66 65 134 255 
-2.3401 12.9269 -0.00229284 69 55 129 255 
-2.24534 12.479 -0.121717 58 83 139 255 
-2.22176 12.4094 -0.23766 58 83 139 255 
-2.10268 11.8166 -0.339445 58 83 139 255 
-2.1078 11.6785 -0.431002 56 89 140 255 
-2.06044 11.4744 -0.531421 57 86 140 255 
-1.93114 10.7971 -0.603628 64 70 136 255 
-1.88822 10.6221 -0.695776 60 80 139 255 
-1.91598 10.6263 -0.783454 52 97 141 255 
-1.85129 10.3303 -0.859149 57 86 140 255 
-1.83964 10.3166 -0.957385 57 86 140 255 
-1.75843 9.89194 -1.01345 62 74 137 255 
-1.65775 9.2217 -1.02116 62 76 138 255 
-1.54912 8.65289 -1.04198 53 95 141 255 
-1.44765 8.12661 -1.05743 58 84 140 255 
-1.35355 7.62975 -1.06698 55 91 141 255 
-1.29124 7.20454 -1.06908 54 92 141 255 
-1.22421 6.85182 -1.08249 52 97 141 255 
-1.15216 6.47435 -1.08512 57 86 140 255 
-1.09691 6.18314 -1.09824 56 89 140 255 
-1.0514 5.88996 -1.0981 55 91 141 255 
-0.997512 5.59996 -1.09742 57 86 140 255 
-0.959836 5.39362 -1.1116 53 95 141 255 
-0.911816 5.13457 -1.11132 62 76 138 255 
-0.884866 4.97206 -1.12052 56 88 140 255 
-0.846246 4.76039 -1.11981 55 91 141 255 
-0.807676 4.54779 -1.11659 59 81 139 255 
-0.783603 4.40367 -1.12848 60 79 138 255 
-0.758423 4.2832 -1.1371 58 83 139 255 
-0.729719 4.12157 -1.13565 57 86 140 255 
-0.703662 3.96614 -1.13528 61 78 138 255 
-0.687289 3.85461 -1.14717 62 76 138 255 
-1.76626 10.1001 3.08006 72 33 115 255 
-1.93181 10.9912 3.22741 70 52 128 255 
-1.79224 10.1758 2.87902 70 52 128 255 
-1.77288 10.067 2.74469 65 68 135 255 
-2.43996 13.9097 3.66537 69 53 129 255 
-2.26966 12.9267 3.26741 71 46 124 255 
-2.41113 13.7458 3.33243 72 27 109 255 
-2.41555 13.7866 3.20565 69 4 87 255 
-0 0 0 68 2 86 255 
-0 0 0 68 1 84 255 
-0 0 0 68 1 84 255 
-5.46753 31.334 6.06759 69 4 87 255 
-5.44105 30.9866 5.74006 72 26 108 255 
-5.5469 31.6568 5.5456 72 20 103 255 
-5.54671 31.7845 5.24888 70 11 94 255 
-5.38944 31.0462 4.83304 72 24 106 255 
-2.70719 15.4331 2.27465 54 93 141 255 
-6.0235 34.4121 4.72965 70 10 93 255 
-3.72269 21.3984 2.7323 71 47 125 255 
-3.70302 21.3757 2.52927 70 10 93 255 
-3.74731 21.3626 2.35233 70 52 128 255 
-3.72124 21.3251 2.14161 72 40 120 255 
-3.70728 21.3319 1.93616 72 38 119 255 
-2.66258 15.4177 1.25334 63 71 136 255 
-2.70216 15.4203 1.13042 69 55 129 255 
-2.69072 15.4354 0.983014 59 82 139 255 
-2.67309 15.4289 0.834345 62 74 137 255 
-2.65009 15.3773 0.684015 70 51 127 255 
-2.65851 15.2023 0.555115 62 76 138 255 
-2.41194 13.8648 0.373432 66 64 134 255 
-2.38511 13.7811 0.239242 66 65 134 255 
-2.33381 13.5704 0.108148 68 58 131 255 
-2.26728 12.9784 -0.00229947 69 53 129 255 
-2.16924 12.4955 -0.121746 61 78 138 255 
-2.11648 12.2544 -0.234437 62 74 137 255 
-2.03048 11.8312 -0.339501 59 82 139 255 
-2.0397 11.7119 -0.431764 57 86 140 255 
-1.95214 11.2683 -0.521311 57 86 140 255 
-1.88506 10.9258 -0.610167 61 78 138 255 
-1.81946 10.6128 -0.694424 57 85 140 255 
-1.81928 10.457 -0.770139 58 83 139 255 
-1.78566 10.3287 -0.858088 55 91 141 255 
-1.77664 10.3297 -0.957567 53 95 141 255 
-1.69568 9.89077 -1.01225 64 70 136 255 
-1.60198 9.23659 -1.02171 62 74 137 255 
-1.49312 8.64559 -1.03997 54 92 141 255 
-1.39407 8.11383 -1.05464 57 86 140 255 
-1.30604 7.63401 -1.06643 54 93 141 255 
-1.24516 7.2016 -1.06749 56 88 140 255 
-1.17778 6.83389 -1.0785 48 105 142 255 
-1.11124 6.47449 -1.08398 55 91 141 255 
-1.05447 6.16354 -1.09359 57 85 140 255 
-1.01624 5.90212 -1.09918 52 96 141 255 
-0.964795 5.61565 -1.09931 56 88 140 255 
-0.923739 5.38202 -1.10802 57 86 140 255 
-0.880789 5.14296 -1.11194 59 81 139 255 
-0.848891 4.94564 -1.11338 56 89 140 255 
-0.818009 4.77125 -1.12116 55 90 140 255 
-0.780741 4.55841 -1.118 59 82 139 255 
-0.75706 4.41126 -1.12921 62 73 137 255 
-0.730336 4.27728 -1.13432 60 80 139 255 
-0.706202 4.13644 -1.13853 59 81 139 255 
-0.678664 3.96658 -1.13419 60 79 138 255 
-0.660046 3.83795 -1.14098 62 74 137 255 
-1.7189 10.1976 3.10653 62 73 137 255 
-1.71878 10.1438 2.97543 59 81 139 255 
-2.14101 12.6083 3.56348 72 35 116 255 
-1.71108 10.0777 2.74469 68 59 132 255 
-2.24724 13.2897 3.49831 65 68 135 255 
-2.2656 13.3852 3.37975 64 69 136 255 
-2.33826 13.8284 3.34892 72 35 116 255 
-2.33951 13.8521 3.21748 71 42 122 255 
-0 0 0 68 2 86 255 
-0 0 0 68 1 84 255 
-0 0 0 68 1 84 255 
-5.21065 30.9834 5.99339 70 11 94 255 
-5.24343 30.9757 5.73198 72 24 106 255 
-5.36372 31.7563 5.55717 71 17 100 255 
-5.35878 31.8608 5.25595 70 11 94 255 
-5.19982 31.0845 4.83395 72 24 106 255 
-2.6131 15.4533 2.27523 46 111 142 255 
-2.85847 16.9418 2.32605 72 26 108 255 
-2.8475 16.9842 2.16639 71 45 123 255 
-2.83719 16.9971 2.00908 70 50 126 255 
-2.86561 16.9466 1.86409 70 7 90 255 
-2.84876 16.9383 1.69927 72 20 103 255 
-2.83779 16.9445 1.53634 72 33 115 255 
-2.56057 15.3895 1.24975 63 71 136 255 
-2.60318 15.411 1.12855 57 86 140 255 
-2.59298 15.4339 0.981887 53 95 141 255 
-2.56965 15.3929 0.831525 59 81 139 255 
-2.55455 15.3864 0.683708 68 57 131 255 
-2.39426 14.2043 0.518126 69 56 130 255 
-2.34104 13.9641 0.375713 65 66 135 255 
-2.28719 13.7156 0.237857 64 70 136 255 
-2.15816 13.027 0.103711 66 63 133 255 
-2.13845 12.7002 -0.00224781 62 74 137 255 
-2.0663 12.3518 -0.12022 61 78 138 255 
-2.04043 12.2622 -0.234343 62 73 137 255 
-1.94627 11.7734 -0.337494 60 79 138 255 
-1.93141 11.5073 -0.423779 57 85 140 255 
-1.87639 11.2406 -0.51949 56 88 140 255 
-1.79621 10.8062 -0.602858 57 85 140 255 
-1.74813 10.5863 -0.691979 58 84 140 255 
-1.76284 10.5142 -0.77354 59 82 139 255 
-1.71881 10.3188 -0.856375 52 97 141 255 
-1.71159 10.3306 -0.956657 50 100 142 255 
-1.63998 9.93142 -1.01536 62 74 137 255 
-1.54938 9.27076 -1.02442 61 77 138 255 
-1.43956 8.65165 -1.03962 55 90 140 255 
-1.34426 8.12224 -1.05464 56 89 140 255 
-1.25917 7.64188 -1.06643 54 92 141 255 
-1.20225 7.21691 -1.06865 53 95 141 255 
-1.13388 6.82929 -1.07665 50 101 142 255 
-1.07246 6.48703 -1.08496 53 95 141 255 
-1.01519 6.16115 -1.09204 57 85 140 255 
-0.98049 5.91115 -1.09972 54 92 141 255 
-0.927755 5.60596 -1.09628 60 80 139 255 
-0.891018 5.38952 -1.10842 56 88 140 255 
-0.848579 5.14441 -1.11111 61 77 138 255 
-0.817415 4.94402 -1.11186 59 82 139 255 
-0.7884 4.77426 -1.12071 51 99 141 255 
-0.751649 4.5564 -1.11635 60 80 139 255 
-0.729504 4.41295 -1.12848 62 73 137 255 
-0.702193 4.27023 -1.13128 59 81 139 255 
-0.678616 4.12736 -1.13487 62 74 137 255 
-0.657755 3.99157 -1.14016 63 72 137 255 
-0.63868 3.85518 -1.14492 64 70 136 255 
-1.65629 10.208 3.10653 66 63 133 255 
-1.81674 11.1364 3.26325 56 89 140 255 
-1.7448 10.6714 3.01296 72 32 113 255 
-2.03425 12.4432 3.38548 71 46 124 255 
-2.18121 13.3988 3.52343 72 38 119 255 
-2.18421 13.4037 3.38096 64 70 136 255 
-2.23899 13.7542 3.32755 72 29 111 255 
-2.25103 13.845 3.21257 72 36 117 255 
-0 0 0 68 1 84 255 
-0 0 0 68 1 84 255 
-0 0 0 68 1 84 255 
-0 0 0 68 2 86 255 
-5.22337 32.0511 5.92493 71 17 100 255 
-5.13476 31.5795 5.52061 72 27 109 255 
-5.16208 31.8862 5.25482 71 16 99 255 
-5.06837 31.4847 4.89126 72 20 103 255 
-2.51441 15.4456 2.27178 41 122 142 255 
-2.74668 16.9111 2.31948 54 93 141 255 
-2.72869 16.9113 2.15491 58 83 139 255 
-2.71347 16.8936 1.99484 62 74 137 255 
-2.76333 16.9747 1.86528 53 94 141 255 
-2.74398 16.9505 1.69878 55 91 141 255 
-2.72521 16.9084 1.53153 60 80 139 255 
-2.46042 15.3694 1.24687 65 68 135 255 
-2.50505 15.405 1.12696 56 88 140 255 
-2.49234 15.4131 0.97957 53 94 141 255 
-2.47278 15.3935 0.830727 58 83 139 255 
-2.29448 14.3649 0.637681 67 61 132 255 
-2.31218 14.2503 0.519276 65 66 135 255 
-2.262 14.0197 0.376827 63 71 136 255 
-2.12489 13.2426 0.229425 64 70 136 255 
-2.07882 13.044 0.103742 65 68 135 255 
-2.02897 12.5186 -0.00221343 59 82 139 255 
-1.99508 12.3929 -0.120498 61 77 138 255 
-1.96673 12.2843 -0.234531 60 79 138 255 
-1.87148 11.7694 -0.337042 62 74 137 255 
-1.8528 11.4697 -0.421964 58 84 140 255 
-1.80136 11.2145 -0.51776 56 88 140 255 
-1.73365 10.8406 -0.604177 59 82 139 255 
-1.68048 10.5801 -0.690885 59 81 139 255 
-1.69591 10.5101 -0.772454 60 79 138 255 
-1.64568 10.2682 -0.851316 54 93 141 255 
-1.643 10.3084 -0.953654 54 92 141 255 
-1.57839 9.93737 -1.01496 66 64 134 255 
-1.49167 9.27519 -1.02387 61 77 138 255 
-1.38581 8.6564 -1.03915 57 85 140 255 
-1.29081 8.1078 -1.05171 57 86 140 255 
-1.21428 7.66218 -1.0682 53 95 141 255 
-1.15763 7.2222 -1.06836 51 99 141 255 
-1.09476 6.85368 -1.07942 49 104 142 255 
-1.03124 6.48472 -1.0835 55 90 140 255 
-0.975517 6.15559 -1.08997 58 84 140 255 
-0.943892 5.91511 -1.09936 53 95 141 255 
-0.893031 5.60961 -1.0959 55 91 141 255 
-0.857932 5.39489 -1.10842 57 86 140 255 
-0.817611 5.15338 -1.11194 64 70 136 255 
-0.788137 4.95569 -1.11338 58 83 139 255 
-0.758327 4.77419 -1.11958 53 95 141 255 
-0.722001 4.55037 -1.11377 60 79 138 255 
-0.702109 4.41543 -1.12799 64 69 136 255 
-0.675374 4.27063 -1.13027 62 76 138 255 
-0.652072 4.12382 -1.13277 61 78 138 255 
-0.629635 3.97271 -1.13365 61 78 138 255 
-0.615315 3.86092 -1.14548 64 69 136 255 
-1.6258 10.4242 3.16925 65 66 135 255 
-1.74004 11.0942 3.24769 70 51 127 255 
-1.60808 10.2289 2.8852 72 37 118 255 
-1.61518 10.2754 2.79293 64 69 136 255 
-1.64848 10.5335 2.76724 66 63 133 255 
-2.13542 13.6306 3.43483 71 42 122 255 
-2.09665 13.3977 3.23813 61 78 138 255 
-1.87056 11.9681 2.77433 63 71 136 255 
-0 0 0 68 1 84 255 
-0 0 0 68 1 84 255 
-0 0 0 68 1 84 255 
-5.52665 35.5224 6.85778 70 7 90 255 
-5.13838 32.7959 6.05668 71 17 100 255 
-4.9902 31.9258 5.5757 72 20 103 255 
-4.98333 32.0265 5.27281 71 13 96 255 
-5.14663 33.2706 5.1637 71 14 97 255 
-2.41592 15.4373 2.26833 44 114 142 255 
-2.63645 16.8865 2.31384 62 76 138 255 
-5.50015 35.4702 4.51539 70 10 93 255 
-7.27008 47.1064 5.55709 69 5 89 255 
-2.66742 17.0444 1.8711 71 46 124 255 
-0 0 0 68 2 86 255 
-0 0 0 68 2 86 255 
-2.36516 15.3783 1.24639 66 65 134 255 
-2.40493 15.3846 1.12437 62 76 138 255 
-2.39434 15.4064 0.978192 53 95 141 255 
-2.37447 15.3837 0.829397 60 80 139 255 
-2.23614 14.5733 0.646308 70 51 127 255 
-2.23994 14.362 0.522835 67 61 132 255 
-2.15663 13.9088 0.373485 67 62 133 255 
-2.09326 13.5776 0.235001 67 62 133 255 
-1.96364 12.8272 0.10192 65 66 135 255 
-1.9358 12.4261 -0.00219493 58 83 139 255 
-1.90234 12.2972 -0.119452 61 78 138 255 
-1.87384 12.1825 -0.232364 61 78 138 255 
-1.85733 12.1611 -0.347926 62 73 137 255 
-1.81535 11.6931 -0.429768 57 85 140 255 
-1.73114 11.2164 -0.51735 56 89 140 255 
-1.65906 10.7988 -0.601265 62 74 137 255 
-1.61282 10.5725 -0.689726 57 86 140 255 
-1.62115 10.4542 -0.767606 57 86 140 255 
-1.57855 10.2515 -0.849114 55 91 141 255 
-1.57475 10.2858 -0.950652 56 89 140 255 
-1.51514 9.93211 -1.01345 65 66 135 255 
-1.43413 9.28024 -1.02344 56 88 140 255 
-1.33192 8.65983 -1.03856 57 85 140 255 
-1.23759 8.09302 -1.04879 54 93 141 255 
-1.16545 7.65774 -1.06657 55 90 140 255 
-1.11269 7.22526 -1.06778 56 88 140 255 
-1.05089 6.84855 -1.07757 52 97 141 255 
-0.991137 6.48898 -1.08317 56 89 140 255 
-0.940396 6.17899 -1.09307 59 82 139 255 
-0.905493 5.90718 -1.09683 52 96 141 255 
-0.860524 5.6276 -1.09836 50 100 142 255 
-0.822889 5.38746 -1.10583 58 83 139 255 
-0.789953 5.18441 -1.11757 60 80 139 255 
-0.761695 4.98649 -1.11922 52 96 141 255 
-0.728725 4.77683 -1.11913 56 89 140 255 
-0.693482 4.55087 -1.11283 58 84 140 255 
-0.668562 4.37748 -1.11723 62 76 138 255 
-0.648286 4.26896 -1.12875 63 71 136 255 
-0.628061 4.13633 -1.13513 62 74 137 255 
-0.604813 3.97365 -1.13283 62 73 137 255 
-0.589871 3.85324 -1.14211 67 61 132 255 
-1.92135 12.836 3.89884 72 22 104 255 
-1.53949 10.225 2.99043 66 64 134 255 
-1.97743 13.1019 3.69205 69 56 130 255 
-1.55656 10.3147 2.80097 63 71 136 255 
-1.87643 12.4913 3.27848 66 64 134 255 
-1.8552 12.3365 3.10579 71 44 122 255 
-2.01065 13.3853 3.23209 69 53 129 255 
-2.00794 13.3848 3.09983 70 11 94 255 
-0 0 0 68 1 84 255 
-0 0 0 68 2 86 255 
-0 0 0 68 1 84 255 
-5.31279 35.5838 6.86322 70 8 92 255 
-5.32901 35.433 6.53753 70 11 94 255 
-4.85343 32.3505 5.64457 70 11 94 255 
-4.79635 32.1209 5.28341 71 16 99 255 
-4.94296 33.3055 5.1643 69 5 89 255 
-2.31851 15.4342 2.26575 46 109 142 255 
-2.52955 16.8808 2.31089 53 95 141 255 
-7.01064 47.1189 5.99268 69 5 89 255 
-7.82728 52.8667 6.23083 69 5 89 255 
-2.63058 17.5117 1.92059 70 10 93 255 
-0 0 0 68 2 86 255 
-2.92072 19.6539 1.77682 70 7 90 255 
-2.26464 15.3511 1.24304 68 58 131 255 
-2.30989 15.3951 1.12408 60 79 138 255 
-2.29594 15.3951 0.976564 54 93 141 255 
-2.28018 15.399 0.82945 56 88 140 255 
-2.15468 14.6411 0.648717 69 55 129 255 
-2.12737 14.2124 0.516904 62 73 137 255 
-2.0639 13.8724 0.372158 62 74 137 255 
-1.9634 13.2756 0.229562 66 64 134 255 
-1.87023 12.7391 0.101127 68 59 132 255 
-1.85627 12.416 -0.00219109 51 98 141 255 
-1.82083 12.268 -0.119058 61 78 138 255 
-1.7938 12.1582 -0.231685 67 62 133 255 
-1.73125 11.8211 -0.33789 66 63 133 255 
-1.72634 11.5884 -0.425521 57 85 140 255 
-1.65717 11.1922 -0.515756 56 88 140 255 
-1.58011 10.7228 -0.596484 60 80 139 255 
-1.5381 10.515 -0.68535 58 84 140 255 
-1.54816 10.4048 -0.763264 56 89 140 255 
-1.51781 10.2758 -0.850337 54 93 141 255 
-1.5103 10.2864 -0.949833 54 92 141 255 
-1.45762 9.96485 -1.01586 65 68 135 255 
-1.37584 9.28001 -1.02246 58 84 140 255 
-1.27774 8.66097 -1.03774 54 92 141 255 
-1.18632 8.08966 -1.04739 57 86 140 255 
-1.11515 7.6422 -1.06343 57 86 140 255 
-1.06761 7.22705 -1.06706 50 102 142 255 
-1.00856 6.85291 -1.07727 50 100 142 255 
-0.95216 6.50079 -1.08415 55 90 140 255 
-0.900331 6.17002 -1.09049 58 83 139 255 
-0.866941 5.89706 -1.09395 51 98 141 255 
-0.825407 5.62889 -1.0976 50 101 142 255 
-0.786834 5.37204 -1.10166 60 80 139 255 
-0.759541 5.19883 -1.11965 62 76 138 255 
-0.728396 4.97271 -1.11511 60 80 139 255 
-0.697286 4.76675 -1.11575 59 82 139 255 
-0.668215 4.57331 -1.11729 58 84 140 255 
-0.651946 4.45153 -1.13509 61 78 138 255 
-0.62208 4.27286 -1.12875 62 76 138 255 
-0.604476 4.15252 -1.13853 56 88 140 255 
-0.579863 3.97347 -1.13175 63 71 136 255 
-0.566217 3.85679 -1.14211 64 69 136 255 
-1.77566 12.3812 3.75729 66 65 134 255 
-1.88926 13.0933 3.82583 69 55 129 255 
-1.89617 13.108 3.69044 59 82 139 255 
-1.50583 10.4111 2.82457 71 47 125 255 
-1.96124 13.6245 3.57267 68 57 131 255 
-1.79276 12.4398 3.12899 62 73 137 255 
-1.93015 13.4089 3.23488 72 22 104 255 
-0 0 0 68 1 84 255 
-0 0 0 68 1 84 255 
-0 0 0 68 1 84 255 
-0 0 0 69 4 87 255 
-1.73776 12.149 2.34114 71 47 125 255 
-5.08034 35.2489 6.49768 71 14 97 255 
-4.62076 32.1427 5.60325 70 10 93 255 
-5.00381 34.9784 5.74826 70 11 94 255 
-4.95093 34.8295 5.3958 70 11 94 255 
-2.21953 15.4188 2.26144 59 82 139 255 
-2.421 16.8617 2.3062 48 106 142 255 
-4.93105 34.5989 4.39644 70 11 94 255 
-6.68031 47.1134 5.54782 70 7 90 255 
-2.21173 15.3646 1.68359 71 17 100 255 
-6.71592 46.9496 4.69209 70 7 90 255 
-2.79334 19.6241 1.77254 71 13 96 255 
-2.16859 15.3519 1.242 69 55 129 255 
-2.21241 15.3883 1.12257 59 82 139 255 
-2.19776 15.3832 0.974936 53 95 141 255 
-2.1799 15.3722 0.827269 60 80 139 255 
-2.05463 14.5818 0.64552 67 62 133 255 
-2.0177 14.0689 0.511225 64 69 136 255 
-1.94644 13.6581 0.366084 68 59 132 255 
-1.88022 13.2756 0.229356 63 71 136 255 
-1.79996 12.8067 0.101575 59 81 139 255 
-1.77608 12.3994 -0.0021862 58 83 139 255 
-1.72962 12.1671 -0.117974 61 78 138 255 
-1.71385 12.1314 -0.230969 60 79 138 255 
-1.64703 11.7484 -0.335515 63 71 136 255 
-1.63289 11.4425 -0.419787 61 78 138 255 
-1.56855 11.0617 -0.50929 55 90 140 255 
-1.5115 10.7125 -0.595385 56 88 140 255 
-1.48005 10.5707 -0.688375 58 83 139 255 
-1.47979 10.3825 -0.760948 59 81 139 255 
-1.45794 10.3076 -0.852214 54 92 141 255 
-1.44688 10.2935 -0.949651 59 82 139 255 
-1.39714 9.97853 -1.01636 65 66 135 255 
-1.31468 9.25875 -1.01921 52 97 141 255 
-1.2236 8.66176 -1.03691 57 85 140 255 
-1.13708 8.09974 -1.04777 54 92 141 255 
-1.06536 7.62829 -1.06057 57 86 140 255 
-1.02311 7.23249 -1.06691 49 103 142 255 
-0.965527 6.85212 -1.07619 49 104 142 255 
-0.912254 6.50651 -1.08415 56 88 140 255 
-0.86123 6.16665 -1.08894 59 81 139 255 
-0.833346 5.92077 -1.09738 52 96 141 255 
-0.790171 5.62899 -1.09666 51 99 141 255 
-0.752905 5.36998 -1.10026 61 78 138 255 
-0.725324 5.18693 -1.11611 60 80 139 255 
-0.697057 4.97129 -1.11381 58 84 140 255 
-0.669511 4.78155 -1.11823 58 84 140 255 
-0.639737 4.57444 -1.11659 61 77 138 255 
-0.619908 4.42184 -1.12652 61 77 138 255 
-0.594649 4.26797 -1.12648 59 82 139 255 
-0.576721 4.1399 -1.13408 63 71 136 255 
-0.556271 3.98268 -1.13338 67 61 132 255 
-0.541473 3.85259 -1.13986 65 66 135 255 
-1.73258 12.6319 3.83008 69 53 129 255 
-1.70551 12.3557 3.60718 60 80 139 255 
-1.81558 13.1185 3.69018 72 28 110 255 
-1.8854 13.625 3.6933 66 65 134 255 
-1.71125 12.4281 3.25612 63 71 136 255 
-1.71745 12.4583 3.13092 70 48 126 255 
-1.78402 12.957 3.12316 71 47 125 255 
-0 0 0 68 1 84 255 
-0 0 0 68 1 84 255 
-0 0 0 68 1 84 255 
-1.7343 12.6449 2.55731 60 79 138 255 
-1.66092 12.1429 2.33796 71 19 101 255 
-4.94015 35.8319 6.59945 70 7 90 255 
-4.76213 34.6335 6.03225 71 14 97 255 
-4.66763 34.1205 5.60246 70 8 92 255 
-4.83828 35.6036 5.51102 69 4 87 255 
-2.12164 15.4086 2.25799 71 47 125 255 
-2.31574 16.8635 2.30445 47 108 142 255 
-4.71839 34.6266 4.39619 72 20 103 255 
-0 0 0 69 4 87 255 
-2.11931 15.3917 1.6851 70 50 126 255 
-0 0 0 68 2 86 255 
-2.67274 19.6399 1.77246 72 26 108 255 
-2.06675 15.3086 1.23745 72 32 113 255 
-2.10979 15.3423 1.11825 60 79 138 255 
-2.10009 15.3727 0.973433 53 95 141 255 
-2.0842 15.3754 0.826737 59 82 139 255 
-1.95338 14.507 0.641666 66 64 134 255 
-1.91559 13.9661 0.507055 65 66 135 255 
-1.84019 13.5054 0.361681 62 76 138 255 
-1.75272 12.947 0.22349 63 72 137 255 
-1.69872 12.6491 0.100239 63 72 137 255 
-1.69603 12.3814 -0.00218114 63 71 136 255 
-1.65399 12.1706 -0.117907 65 68 135 255 
-1.63055 12.0763 -0.229725 62 74 137 255 
-1.58699 11.8484 -0.338088 65 68 135 255 
-1.56401 11.4622 -0.420149 57 85 140 255 
-1.52077 11.2196 -0.51612 59 81 139 255 
-1.43746 10.6602 -0.591978 61 77 138 255 
-1.40829 10.5282 -0.685028 56 88 140 255 
-1.40542 10.3133 -0.755231 55 90 140 255 
-1.38451 10.2413 -0.846013 54 93 141 255 
-1.37958 10.2716 -0.946831 50 101 142 255 
-1.33536 9.98297 -1.01596 63 72 137 255 
-1.26226 9.29915 -1.02279 54 92 141 255 
-1.16857 8.65533 -1.03527 55 91 141 255 
-1.08894 8.11836 -1.0493 52 97 141 255 
-1.01788 7.62978 -1.05988 58 84 140 255 
-0.977918 7.23274 -1.06605 50 102 142 255 
-0.921619 6.84421 -1.07404 52 97 141 255 
-0.870611 6.49927 -1.08203 54 93 141 255 
-0.821812 6.1601 -1.08687 62 76 138 255 
-0.795035 5.91115 -1.09467 52 96 141 255 
-0.756792 5.64249 -1.09836 50 101 142 255 
-0.720982 5.38227 -1.10185 60 79 138 255 
-0.691283 5.1748 -1.11257 61 77 138 255 
-0.668744 4.99192 -1.11749 58 84 140 255 
-0.638351 4.77205 -1.11507 56 88 140 255 
-0.611013 4.57346 -1.11541 59 81 139 255 
-0.592121 4.42076 -1.1253 61 77 138 255 
-0.569981 4.28305 -1.12951 60 80 139 255 
-0.551945 4.14815 -1.13539 60 79 138 255 
-0.536405 4.02036 -1.14314 64 69 136 255 
-0.51693 3.84918 -1.13789 65 66 135 255 
-1.65554 12.6461 3.83123 65 66 135 255 
-1.62213 12.3088 3.59052 56 89 140 255 
-1.76811 13.3796 3.7605 69 53 129 255 
-1.78506 13.5099 3.65907 64 69 136 255 
-1.57731 11.9998 3.14131 62 73 137 255 
-1.77912 13.5182 3.39449 71 45 123 255 
-1.64389 12.5068 3.01214 65 68 135 255 
-1.75082 13.3402 3.08152 72 37 118 255 
-1.75386 13.3249 2.96479 69 4 87 255 
-1.6457 12.5214 2.65445 70 8 92 255 
-1.64599 12.5737 2.54081 54 93 141 255 
-4.62195 35.4077 6.81169 70 8 92 255 
-4.61364 35.052 6.45048 70 7 90 255 
-4.60147 35.0578 6.10112 70 8 92 255 
-4.49102 34.4 5.64372 70 11 94 255 
-4.44219 34.2632 5.29923 70 7 90 255 
-2.00462 15.2506 2.23299 70 11 94 255 
-2.20977 16.8587 2.3019 51 99 141 255 
-2.5634 19.7154 2.50102 62 76 138 255 
-2.55481 19.7596 2.32291 66 65 134 255 
-2.02691 15.4201 1.68683 56 88 140 255 
-2.57569 19.7305 1.96853 62 76 138 255 
-2.55039 19.6421 1.77121 71 42 122 255 
-2.50681 19.4684 1.57243 72 32 113 255 
-2.01509 15.351 1.11796 57 85 140 255 
-2.00302 15.3645 0.972118 53 95 141 255 
-1.98674 15.3641 0.82546 60 80 139 255 
-1.86255 14.5049 0.641053 68 59 132 255 
-1.82337 13.9281 0.505257 64 70 136 255 
-1.75304 13.4837 0.360805 63 72 137 255 
-1.68643 13.0596 0.225252 62 73 137 255 
-1.62971 12.7267 0.100773 65 66 135 255 
-1.61302 12.338 -0.00217171 53 94 141 255 
-1.58468 12.2221 -0.11831 59 81 139 255 
-1.55757 12.095 -0.229894 59 82 139 255 
-1.50426 11.7796 -0.335854 63 71 136 255 
-1.49197 11.4587 -0.419678 58 83 139 255 
-1.43268 11.0802 -0.50929 57 85 140 255 
-1.37215 10.6699 -0.592033 59 82 139 255 
-1.3371 10.4851 -0.681681 59 82 139 255 
-1.33684 10.2812 -0.752264 57 86 140 255 
-1.3205 10.2407 -0.845279 54 92 141 255 
-1.31514 10.269 -0.94583 53 95 141 255 
-1.27496 9.99789 -1.01666 66 64 134 255 
-1.20352 9.2939 -1.02138 57 85 140 255 
-1.11506 8.65938 -1.03491 56 88 140 255 
-1.03533 8.09537 -1.04549 57 86 140 255 
-0.973045 7.6516 -1.06207 58 84 140 255 
-0.934027 7.24253 -1.06662 53 94 141 255 
-0.877844 6.83601 -1.07189 57 86 140 255 
-0.827341 6.47807 -1.07764 57 86 140 255 
-0.782011 6.14939 -1.08411 65 68 135 255 
-0.754871 5.88568 -1.08907 53 94 141 255 
-0.722032 5.64605 -1.09817 55 90 140 255 
-0.686329 5.37395 -1.09927 59 82 139 255 
-0.660259 5.18477 -1.11382 63 72 137 255 
-0.636617 4.98431 -1.11489 59 82 139 255 
-0.610907 4.79038 -1.11845 55 91 141 255 
-0.584782 4.59158 -1.11894 61 78 138 255 
-0.565845 4.43104 -1.12701 59 82 139 255 
-0.543568 4.2855 -1.12926 59 81 139 255 
-0.524782 4.13805 -1.13173 62 74 137 255 
-0.507355 3.9892 -1.13338 63 71 136 255 
-0.493302 3.85228 -1.13789 61 78 138 255 
-1.55422 12.4659 3.77369 66 64 134 255 
-1.55124 12.3557 3.60135 64 70 136 255 
-1.69068 13.4274 3.77097 71 13 96 255 
-1.68042 13.3481 3.61239 72 40 120 255 
-1.55007 12.3799 3.23829 71 44 122 255 
-1.69928 13.5539 3.40077 67 61 132 255 
-1.63503 13.059 3.14267 71 44 122 255 
-1.5739 12.5905 2.90605 66 63 133 255 
-1.67486 13.3577 2.96974 62 76 138 255 
-1.64871 13.1692 2.78959 70 52 128 255 
-1.56408 12.5456 2.53315 59 82 139 255 
-0 0 0 68 2 86 255 
-4.45429 35.5248 6.53232 70 8 92 255 
-4.40534 35.2379 6.12764 70 11 94 255 
-4.3299 34.8295 5.70972 71 14 97 255 
-4.22788 34.2574 5.29423 70 10 93 255 
-4.46712 35.6775 5.21979 70 11 94 255 
-2.10273 16.8434 2.29801 65 66 135 255 
-4.31225 34.8365 4.41579 71 13 96 255 
-4.36126 35.4398 4.16304 70 11 94 255 
-1.93151 15.4264 1.68618 45 113 142 255 
-6.45457 51.9239 5.17647 70 7 90 255 
-2.46281 19.9243 1.79526 71 19 101 255 
-2.45483 20.0345 1.6169 72 28 110 255 
-1.91987 15.3552 1.11739 57 85 140 255 
-1.90379 15.3369 0.969614 57 86 140 255 
-1.89024 15.3582 0.824502 60 80 139 255 
-1.77291 14.5111 0.640834 64 70 136 255 
-1.73009 13.8765 0.502993 59 81 139 255 
-1.66806 13.4764 0.360328 58 84 140 255 
-1.6092 13.0936 0.225662 60 80 139 255 
-1.54071 12.6471 0.100067 65 66 135 255 
-1.55903 12.5223 -0.00220243 60 80 139 255 
-1.50427 12.188 -0.117887 65 68 135 255 
-1.48454 12.1142 -0.230083 64 69 136 255 
-1.44846 11.9245 -0.339727 64 70 136 255 
-1.40012 11.294 -0.413326 57 85 140 255 
-1.33807 10.8726 -0.499362 55 90 140 255 
-1.3086 10.6939 -0.592912 55 90 140 255 
-1.28199 10.5694 -0.686637 60 80 139 255 
-1.279 10.3318 -0.755376 53 95 141 255 
-1.26153 10.2802 -0.84789 57 86 140 255 
-1.25066 10.265 -0.944738 54 92 141 255 
-1.21395 10.0085 -1.01697 65 66 135 255 
-1.14513 9.29026 -1.02019 55 90 140 255 
-1.06239 8.67 -1.03538 55 90 140 255 
-0.985398 8.0996 -1.04523 56 88 140 255 
-0.926316 7.65939 -1.06234 57 86 140 255 
-0.888365 7.23831 -1.06518 53 95 141 255 
-0.835763 6.84029 -1.07173 57 85 140 255 
-0.786982 6.47813 -1.07682 60 80 139 255 
-0.744028 6.15212 -1.08377 62 76 138 255 
-0.719576 5.89703 -1.09034 55 91 141 255 
-0.686782 5.6455 -1.09723 56 89 140 255 
-0.652279 5.3693 -1.09748 59 81 139 255 
-0.626787 5.17513 -1.1109 60 79 138 255 
-0.604609 4.97649 -1.11229 57 85 140 255 
-0.583613 4.81144 -1.12252 55 91 141 255 
-0.557182 4.59991 -1.12011 59 82 139 255 
-0.53923 4.43924 -1.12824 59 81 139 255 
-0.515062 4.27051 -1.12445 58 84 140 255 
-0.498111 4.13066 -1.12885 62 76 138 255 
-0.482637 3.99033 -1.13283 65 66 135 255 
-0.468727 3.84761 -1.13564 64 70 136 255 
-1.47781 12.4762 3.77398 70 50 126 255 
-1.47973 12.4012 3.61191 65 66 135 255 
-1.49493 12.4906 3.50524 68 57 131 255 
-1.53331 12.8135 3.4651 72 29 111 255 
-1.54475 12.9832 3.39354 72 32 113 255 
-1.49646 12.5601 3.14904 72 28 110 255 
-1.61003 13.5324 3.25416 69 55 129 255 
-1.49627 12.597 2.90538 69 56 130 255 
-1.46785 12.3186 2.73666 56 89 140 255 
-1.59932 13.4434 2.84554 56 89 140 255 
-1.48073 12.5014 2.52234 56 89 140 255 
-0 0 0 68 2 86 255 
-1.43916 12.0778 2.2192 72 37 118 255 
-4.19497 35.3142 6.13631 70 11 94 255 
-4.03543 34.1722 5.5978 70 11 94 255 
-4.0184 34.2896 5.29529 70 8 92 255 
-4.24485 35.6767 5.21577 70 11 94 255 
-1.99175 16.792 2.28929 72 23 105 255 
-2.47789 21.0776 2.66977 72 24 106 255 
-2.45829 21.0404 2.46975 72 29 111 255 
-1.83518 15.4241 1.68467 44 114 142 255 
-0 0 0 68 2 86 255 
-2.47857 21.1152 1.90116 70 7 90 255 
-2.396 20.6007 1.66138 72 24 106 255 
-1.82186 15.335 1.11508 61 77 138 255 
-1.81023 15.3533 0.969927 57 85 140 255 
-1.79446 15.3566 0.82381 59 82 139 255 
-1.6782 14.473 0.638688 64 70 136 255 
-1.64338 13.874 0.502526 62 74 137 255 
-1.59584 13.5757 0.362715 62 76 138 255 
-1.53752 13.1777 0.226945 67 62 133 255 
-1.45791 12.6116 0.0997131 63 71 136 255 
-1.48687 12.5714 -0.00220941 58 84 140 255 
-1.43027 12.2039 -0.117955 62 76 138 255 
-1.40568 12.0844 -0.229348 64 70 136 255 
-1.37836 11.96 -0.340491 66 63 133 255 
-1.32892 11.2865 -0.412745 56 88 140 255 
-1.29707 11.1009 -0.509472 59 81 139 255 
-1.2463 10.7305 -0.594506 59 81 139 255 
-1.22202 10.6197 -0.689404 59 82 139 255 
-1.21057 10.2968 -0.752264 56 89 140 255 
-1.18978 10.2135 -0.84177 51 99 141 255 
-1.18399 10.2409 -0.941827 54 93 141 255 
-1.15024 9.99598 -1.01496 57 86 140 255 
-1.08568 9.27638 -1.01791 57 86 140 255 
-1.00895 8.67438 -1.03515 54 92 141 255 
-0.936136 8.10944 -1.04574 56 89 140 255 
-0.879301 7.66493 -1.06234 57 85 140 255 
-0.842904 7.23478 -1.06388 53 95 141 255 
-0.792979 6.83842 -1.07066 57 86 140 255 
-0.750042 6.50734 -1.08089 57 85 140 255 
-0.7075 6.16733 -1.08566 61 77 138 255 
-0.68304 5.8984 -1.08979 56 89 140 255 
-0.651791 5.64668 -1.09666 55 90 140 255 
-0.619995 5.37905 -1.09867 59 82 139 255 
-0.596026 5.18762 -1.11277 57 85 140 255 
-0.573839 4.97817 -1.11186 57 86 140 255 
-0.553189 4.80719 -1.12071 54 92 141 255 
-0.526838 4.5849 -1.11565 58 84 140 255 
-0.51287 4.45017 -1.13019 59 82 139 255 
-0.490168 4.28512 -1.12749 59 81 139 255 
-0.472646 4.13268 -1.12858 61 77 138 255 
-0.459351 4.00373 -1.13582 64 70 136 255 
-0.44555 3.85423 -1.13677 65 68 135 255 
-1.40882 12.5526 3.79441 68 59 132 255 
-1.42153 12.5685 3.65803 68 58 131 255 
-1.40653 12.3962 3.47625 61 78 138 255 
-1.43604 12.6585 3.42075 66 64 134 255 
-1.42124 12.6039 3.29205 63 71 136 255 
-1.42622 12.6298 3.16426 66 65 134 255 
-1.5261 13.5343 3.2523 69 55 129 255 
-1.41001 12.5265 2.88707 62 74 137 255 
-1.42589 12.6253 2.80279 60 79 138 255 
-1.50057 13.309 2.8151 72 31 112 255 
-1.49727 13.3414 2.68992 72 26 108 255 
-1.35608 12.1234 2.32709 70 11 94 255 
-1.36624 12.0971 2.22118 71 16 99 255 
-4.05879 36.0551 6.26061 70 8 92 255 
-3.77531 33.7461 5.5241 70 11 94 255 
-3.87901 34.9542 5.39414 70 8 92 255 
-4.02442 35.6893 5.2139 71 14 97 255 
-3.77548 33.5911 4.5763 70 8 92 255 
-2.35477 21.1486 2.67688 72 27 109 255 
-2.33919 21.1459 2.48041 71 17 100 255 
-1.7395 15.4262 1.6837 47 107 142 255 
-2.36586 21.1492 2.10538 71 46 124 255 
-2.34875 21.128 1.90098 72 31 112 255 
-2.31951 21.0688 1.69795 71 19 101 255 
-1.72561 15.327 1.11371 62 74 137 255 
-1.712 15.3284 0.967673 55 91 141 255 
-1.68197 15.2025 0.814978 60 79 138 255 
-1.60222 14.6002 0.643856 69 56 130 255 
-1.55967 13.8967 0.502993 62 76 138 255 
-1.51351 13.5942 0.362954 61 78 138 255 
-1.49747 13.5566 0.233307 62 74 137 255 
-1.38017 12.6173 0.0996896 64 69 136 255 
-1.38732 12.3805 -0.00217433 63 71 136 255 
-1.35966 12.2512 -0.118329 60 80 139 255 
-1.3245 12.0292 -0.228142 68 59 132 255 
-1.28339 11.7705 -0.334865 66 63 133 255 
-1.25189 11.225 -0.410205 58 83 139 255 
-1.2052 10.8942 -0.499636 56 88 140 255 
-1.18022 10.736 -0.594396 56 88 140 255 
-1.14873 10.5526 -0.684578 57 86 140 255 
-1.14074 10.2446 -0.747922 53 94 141 255 
-1.12413 10.1939 -0.839567 55 91 141 255 
-1.11799 10.2192 -0.939189 55 91 141 255 
-1.08824 9.99691 -1.01436 67 61 132 255 
-1.02819 9.27792 -1.01737 57 85 140 255 
-0.955375 8.67745 -1.03479 57 85 140 255 
-0.886144 8.11306 -1.04549 54 92 141 255 
-0.830864 7.65738 -1.06057 57 85 140 255 
-0.797195 7.22801 -1.06214 55 91 141 255 
-0.750573 6.83923 -1.07004 57 85 140 255 
-0.709672 6.50789 -1.08024 58 84 140 255 
-0.671132 6.18527 -1.08808 59 82 139 255 
-0.644585 5.88195 -1.086 57 86 140 255 
-0.617771 5.65643 -1.09779 52 97 141 255 
-0.587828 5.39054 -1.10026 59 81 139 255 
-0.560591 5.15812 -1.10569 62 73 137 255 
-0.543283 4.9816 -1.11186 57 86 140 255 
-0.521574 4.79112 -1.1162 55 91 141 255 
-0.499431 4.59481 -1.11729 56 89 140 255 
-0.485029 4.44842 -1.12897 60 79 138 255 
-0.461681 4.26785 -1.12218 60 79 138 255 
-0.447591 4.13838 -1.12937 61 78 138 255 
-0.433737 3.99691 -1.13311 63 72 137 255 
-0.420849 3.84735 -1.13396 66 63 133 255 
-1.41326 13.3296 4.02658 72 22 104 255 
-1.38818 12.9868 3.77721 72 28 110 255 
-1.32952 12.396 3.47383 60 79 138 255 
-1.35927 12.6758 3.42309 69 53 129 255 
-1.34296 12.6037 3.28979 63 71 136 255 
-1.35127 12.6624 3.1703 64 69 136 255 
-1.33688 12.5472 3.01307 66 63 133 255 
-1.33209 12.5252 2.88484 65 68 135 255 
-1.34228 12.5765 2.79008 69 56 130 255 
-1.35347 12.7039 2.68531 69 56 130 255 
-1.39988 13.2041 2.66046 72 37 118 255 
-1.43162 13.5509 2.59935 70 11 94 255 
-3.66329 34.3232 6.29791 71 16 99 255 
-3.68438 34.6398 6.01083 70 10 93 255 
-3.56787 33.7657 5.52362 71 17 100 255 
-3.6142 34.4976 5.32015 70 7 90 255 
-3.87247 36.3432 5.30585 69 5 89 255 
-3.61042 34.0009 4.62903 71 14 97 255 
-3.71698 35.354 4.47195 70 10 93 255 
-3.69839 35.4202 4.15204 70 11 94 255 
-1.63723 15.3654 1.67594 60 79 138 255 
-1.7628 16.6842 1.65979 70 10 93 255 
-3.72207 35.4619 3.18855 70 7 90 255 
-3.68256 35.4481 2.85491 70 10 93 255 
-1.62942 15.3175 1.11227 62 74 137 255 
-1.61823 15.3416 0.967861 55 90 140 255 
-1.58109 15.1401 0.811094 66 65 134 255 
-1.51569 14.6396 0.64517 69 56 130 255 
-1.48196 13.9776 0.505581 66 64 134 255 
-1.46027 13.8905 0.37062 67 62 133 255 
-1.4381 13.7942 0.237241 67 61 132 255 
-1.29236 12.5251 0.0988963 64 70 136 255 
-1.30849 12.3619 -0.00216962 58 83 139 255 
-1.27592 12.1778 -0.117542 60 80 139 255 
-1.25242 12.054 -0.228462 62 73 137 255 
-1.23108 11.9721 -0.340378 62 73 137 255 
-1.17922 11.1967 -0.408898 62 76 138 255 
-1.1511 11.0236 -0.505237 60 79 138 255 
-1.12102 10.8076 -0.597968 59 81 139 255 
-1.10414 10.756 -0.69732 56 88 140 255 
-1.08506 10.3198 -0.752915 55 90 140 255 
-1.06311 10.2155 -0.840791 54 92 141 255 
-1.05169 10.1912 -0.936004 56 89 140 255 
-1.02739 10.0084 -1.01486 64 70 136 255 
-0.969178 9.26428 -1.01521 59 82 139 255 
-0.900266 8.66537 -1.03268 61 78 138 255 
-0.833501 8.09071 -1.04193 54 93 141 255 
-0.78346 7.65839 -1.06002 60 79 138 255 
-0.752522 7.22981 -1.06171 55 91 141 255 
-0.709511 6.85255 -1.07143 56 89 140 255 
-0.668112 6.49642 -1.07764 59 82 139 255 
-0.632566 6.18339 -1.08704 58 83 139 255 
-0.608684 5.88775 -1.08636 57 85 140 255 
-0.58114 5.64156 -1.0942 51 99 141 255 
-0.556946 5.4155 -1.10464 57 86 140 255 
-0.530227 5.17411 -1.1084 59 82 139 255 
-0.513006 4.98775 -1.11251 56 88 140 255 
-0.49137 4.78648 -1.11439 57 86 140 255 
-0.473013 4.61519 -1.12152 58 84 140 255 
-0.454452 4.41948 -1.1209 59 82 139 255 
-0.435191 4.26771 -1.12142 58 84 140 255 
-0.42033 4.1228 -1.12439 60 79 138 255 
-0.409596 4.00332 -1.13419 64 70 136 255 
-0.399795 3.87468 -1.14127 62 74 137 255 
-1.25191 12.5413 3.78606 70 11 94 255 
-1.20752 11.9924 3.48578 53 95 141 255 
-1.20491 11.9237 3.33936 68 59 132 255 
-1.35253 13.3872 3.61291 72 27 109 255 
-1.30522 13.0066 3.39279 72 26 108 255 
-1.27559 12.6907 3.17537 71 46 124 255 
-1.24637 12.4207 2.98079 66 64 134 255 
-1.26745 12.6554 2.91297 69 53 129 255 
-1.26489 12.5825 2.78965 69 56 130 255 
-1.25429 12.5007 2.64067 62 73 137 255 
-1.23177 12.3402 2.48482 62 76 138 255 
-1.35399 13.6151 2.61003 72 28 110 255 
-3.45262 34.3451 6.29791 70 11 94 255 
-1.40373 14.0147 2.43035 72 26 108 255 
-3.59869 36.1805 5.91493 70 8 92 255 
-3.40683 34.5634 5.32698 70 8 92 255 
-3.52005 35.0773 5.11779 71 13 96 255 
-3.3621 33.626 4.5751 72 24 106 255 
-3.56856 36.0692 4.55957 69 5 89 255 
-3.6405 37.0664 4.3423 70 11 94 255 
-1.54182 15.3643 1.67475 72 32 113 255 
-1.66325 16.7234 1.66265 72 35 116 255 
-0 0 0 68 2 86 255 
-0 0 0 68 2 86 255 
-1.53332 15.3063 1.11076 61 77 138 255 
-1.5216 15.3264 0.966295 55 91 141 255 
-1.50036 15.2737 0.817745 60 80 139 255 
-1.43707 14.764 0.65025 70 52 128 255 
-1.40242 14.049 0.507846 64 70 136 255 
-1.38072 13.9569 0.372158 65 68 135 255 
-1.35675 13.8366 0.237823 71 45 123 255 
-1.21326 12.5099 0.0987157 68 57 131 255 
-1.2335 12.3787 -0.00217119 56 88 140 255 
-1.20078 12.1814 -0.117503 63 72 137 255 
-1.17708 12.0475 -0.228198 57 86 140 255 
-1.15721 11.9754 -0.340265 58 84 140 255 
-1.10941 11.1927 -0.408499 61 77 138 255 
-1.08558 11.0523 -0.506239 53 94 141 255 
-1.06292 10.8987 -0.602639 60 79 138 255 
-1.03036 10.6821 -0.692107 58 84 140 255 
-1.02024 10.3114 -0.75183 58 84 140 255 
-0.998955 10.2069 -0.839567 53 94 141 255 
-0.988177 10.1876 -0.935095 55 91 141 255 
-0.966819 10.0234 -1.01576 61 77 138 255 
-0.909102 9.23741 -1.01163 62 74 137 255 
-0.849976 8.70038 -1.03621 56 88 140 255 
-0.783555 8.09271 -1.04155 56 88 140 255 
-0.738066 7.67982 -1.06234 59 81 139 255 
-0.707183 7.22445 -1.06026 57 86 140 255 
-0.666972 6.85186 -1.07066 54 93 141 255 
-0.627384 6.49156 -1.07617 60 79 138 255 
-0.593294 6.17343 -1.08463 59 82 139 255 
-0.573307 5.89921 -1.08781 55 91 141 255 
-0.545662 5.63622 -1.09249 51 98 141 255 
-0.523613 5.41784 -1.10444 56 89 140 255 
-0.500532 5.19869 -1.11298 58 83 139 255 
-0.482579 4.99275 -1.11294 59 82 139 255 
-0.463395 4.80395 -1.11778 54 93 141 255 
-0.445151 4.62284 -1.1227 56 89 140 255 
-0.427885 4.42797 -1.12236 57 86 140 255 
-0.412594 4.30786 -1.13128 59 82 139 255 
-0.395945 4.13491 -1.12701 61 78 138 255 
-0.385025 4.00576 -1.13419 63 71 136 255 
-0.376013 3.87706 -1.14127 62 73 137 255 
-1.08565 11.5952 3.49837 72 27 109 255 
-1.16916 12.3726 3.59413 70 7 90 255 
-1.10298 11.6279 3.25454 67 61 132 255 
-1.2679 13.3693 3.60591 72 23 105 255 
-1.22349 12.9941 3.38751 61 78 138 255 
-1.25702 13.3272 3.33264 62 76 138 255 
-1.14934 12.2073 2.92783 67 61 132 255 
-1.1813 12.5727 2.89221 72 32 113 255 
-1.18968 12.6115 2.79439 71 45 123 255 
-1.19325 12.6748 2.67584 70 52 128 255 
-1.16133 12.4041 2.49622 64 70 136 255 
-1.18633 12.7214 2.43727 69 53 129 255 
-1.2373 13.1163 2.40372 72 31 112 255 
-1.34758 14.341 2.48544 61 78 138 255 
-3.11438 33.3902 5.45554 70 10 93 255 
-3.36925 36.4734 5.61806 70 8 92 255 
-3.30169 35.0657 5.11305 70 8 92 255 
-3.19624 34.0782 4.63386 70 11 94 255 
-3.30237 35.6073 4.49854 70 11 94 255 
-3.26545 35.4847 4.15458 69 4 87 255 
-1.42068 15.0884 1.6437 69 4 87 255 
-1.5631 16.7601 1.6653 62 73 137 255 
-0 0 0 68 2 86 255 
-0 0 0 68 2 86 255 
-1.43825 15.3035 1.1099 57 85 140 255 
-1.42457 15.3036 0.964291 53 94 141 255 
-1.40863 15.3045 0.818915 59 81 139 255 
-1.31834 14.4641 0.636674 68 59 132 255 
-1.31451 14.0395 0.507199 66 64 134 255 
-1.29783 13.995 0.372954 64 70 136 255 
-1.27293 13.8566 0.238028 72 23 105 255 
-1.13268 12.4753 0.0983858 64 70 136 255 
-1.15278 12.3353 -0.00216229 59 82 139 255 
-1.12666 12.1955 -0.117571 61 77 138 255 
-1.10104 12.0316 -0.227765 58 84 140 255 
-1.0802 11.9435 -0.339162 61 78 138 255 
-1.0409 11.2013 -0.408571 55 91 141 255 
-1.014 11.0179 -0.504372 56 89 140 255 
-0.995389 10.8981 -0.602254 60 80 139 255 
-0.933844 10.3454 -0.669904 62 73 137 255 
-0.95281 10.2728 -0.748573 62 73 137 255 
-0.935307 10.2019 -0.83867 56 88 140 255 
-0.924388 10.1795 -0.933821 56 88 140 255 
-0.903777 10.0123 -1.01405 62 74 137 255 
-0.852314 9.24182 -1.01152 62 74 137 255 
-0.792685 8.66291 -1.03115 57 86 140 255 
