ply
format ascii 1.0
comment VTK generated PLY File
obj_info vtkPolyData points and polygons: vtk4.0
element vertex 1172
property float x
property float y
property float z
property uchar red
property uchar green
property uchar blue
property uchar alpha
element face 0
property list uchar int vertex_indices
end_header
-6.39131 5.26681 -0.534108 55 91 141 255 
-6.39843 5.24627 -0.600364 57 85 140 255 
-6.38829 5.24931 -0.676876 62 74 137 255 
-5.76652 4.74675 -0.682352 65 68 135 255 
-5.70731 4.70315 -0.745989 50 101 142 255 
-5.69701 4.67613 -0.80328 52 97 141 255 
-5.69524 4.68149 -0.873884 49 103 142 255 
-5.68535 4.6816 -0.943455 53 94 141 255 
-5.68178 4.68545 -1.01405 51 99 141 255 
-5.69719 4.68127 -1.07703 48 106 142 255 
-5.69207 4.68221 -1.14627 49 104 142 255 
-5.60045 4.61333 -1.1973 60 80 139 255 
-5.33046 4.39573 -1.20832 52 96 141 255 
-5.08259 4.1822 -1.20803 47 107 142 255 
-4.81922 3.96845 -1.20445 55 91 141 255 
-4.62257 3.80781 -1.2152 52 97 141 255 
-4.43144 3.65306 -1.22386 50 101 142 255 
-4.25067 3.50138 -1.2219 54 92 141 255 
-4.07418 3.35733 -1.2227 63 71 136 255 
-3.90987 3.22302 -1.22491 64 70 136 255 
-3.7659 3.10222 -1.23098 63 71 136 255 
-3.61919 2.98652 -1.22663 66 65 134 255 
-3.48294 2.8742 -1.22521 66 63 133 255 
-3.37506 2.78314 -1.23293 64 69 136 255 
-3.22965 2.65859 -1.22562 68 59 132 255 
-19.1509 15.8717 7.47172 72 32 113 255 
-19.5358 16.1625 7.33272 72 31 112 255 
-20.2329 16.727 7.31486 72 33 115 255 
-24.774 20.482 8.63111 72 20 103 255 
-24.7113 20.4583 8.32659 70 10 93 255 
-24.7847 20.5123 8.00945 70 8 92 255 
-24.703 20.4516 7.65798 71 14 97 255 
-24.7278 20.4802 7.35364 71 14 97 255 
-24.4122 20.2035 6.99029 71 13 96 255 
-24.4894 20.2751 6.68252 71 19 101 255 
-24.7453 20.5085 6.43955 72 27 109 255 
-24.6601 20.4531 6.11163 72 22 104 255 
-24.813 20.5351 5.87647 71 19 101 255 
-24.8926 20.6162 5.57706 72 24 106 255 
-25.0157 20.7473 5.2871 71 14 97 255 
-24.859 20.6547 4.95721 70 8 92 255 
-19.7006 16.3099 3.71289 71 42 122 255 
-19.6487 16.279 3.45446 72 36 117 255 
-11.3406 9.41559 1.85423 61 78 138 255 
-10.6383 8.84538 1.61303 64 69 136 255 
-10.6529 8.81942 1.49997 65 66 135 255 
-10.6493 8.83241 1.36877 61 77 138 255 
-9.9179 8.23731 1.1529 63 72 137 255 
-9.8993 8.23964 1.03175 60 80 139 255 
-9.93933 8.2316 0.931863 59 82 139 255 
-9.23016 7.65808 0.75246 55 91 141 255 
-9.21036 7.65781 0.638223 60 79 138 255 
-9.1763 7.64327 0.523511 64 70 136 255 
-7.8199 6.48092 0.36532 48 105 142 255 
-7.81107 6.48529 0.269397 52 97 141 255 
-7.09063 5.89748 0.157762 56 89 140 255 
-7.08979 5.90953 0.0724915 56 89 140 255 
-7.11327 5.89737 -0.00161268 47 107 142 255 
-7.0813 5.88356 -0.0883795 52 96 141 255 
-7.0676 5.8825 -0.173349 60 79 138 255 
-6.40884 5.34573 -0.236031 64 69 136 255 
-6.37649 5.29217 -0.300957 55 91 141 255 
-6.37015 5.29646 -0.377641 57 86 140 255 
-6.37806 5.31047 -0.456746 52 96 141 255 
-6.36347 5.30976 -0.534494 59 82 139 255 
-6.37916 5.29626 -0.601594 53 94 141 255 
-6.36515 5.29606 -0.677855 60 79 138 255 
-5.73499 4.78013 -0.682079 63 72 137 255 
-5.6707 4.73171 -0.744985 51 99 141 255 
-5.66897 4.71164 -0.803388 50 102 142 255 
-5.67251 4.72143 -0.874826 52 96 141 255 
-5.66109 4.7202 -0.944217 52 97 141 255 
-5.66053 4.72657 -1.01542 51 99 141 255 
-5.68129 4.7269 -1.07949 47 108 142 255 
-5.67006 4.72274 -1.14765 49 103 142 255 
-5.57204 4.6476 -1.1973 62 76 138 255 
-5.27238 4.40246 -1.20126 58 84 140 255 
-5.06968 4.22401 -1.2111 44 114 142 255 
-4.78799 3.99229 -1.20274 54 93 141 255 
-4.58633 3.82543 -1.21182 51 99 141 255 
-4.39993 3.67266 -1.22136 53 94 141 255 
-4.22011 3.5199 -1.2193 58 83 139 255 
-4.06547 3.39225 -1.22631 62 76 138 255 
-3.87958 3.23823 -1.22162 64 70 136 255 
-3.73934 3.11905 -1.22853 64 69 136 255 
-3.57779 2.98944 -1.21879 63 71 136 255 
-3.4682 2.89799 -1.22625 66 64 134 255 
-3.34905 2.7964 -1.22968 68 59 132 255 
-3.21254 2.67774 -1.22534 69 53 129 255 
-19.012 15.9544 7.45561 72 31 112 255 
-19.4621 16.3036 7.34244 72 31 112 255 
-20.0967 16.823 7.30278 72 27 109 255 
-24.633 20.6213 8.62592 71 13 96 255 
-23.5884 19.7738 7.98895 71 19 101 255 
-24.8384 20.8148 8.06791 71 16 99 255 
-24.6061 20.6272 7.66704 71 14 97 255 
-23.5389 19.7402 7.03595 71 13 96 255 
-23.5304 19.7182 6.77228 71 13 96 255 
-23.5666 19.7561 6.46366 72 33 115 255 
-24.4147 20.4885 6.38611 72 20 103 255 
-24.4657 20.5466 6.09458 71 13 96 255 
-24.9527 20.91 5.93983 71 17 100 255 
-24.8162 20.811 5.58845 72 26 108 255 
-24.9 20.9105 5.28967 72 24 106 255 
-24.7363 20.8106 4.95812 70 7 90 255 
-19.3954 16.2589 3.6741 72 41 121 255 
-19.4042 16.2782 3.42897 72 41 121 255 
-11.2674 9.47223 1.85174 60 79 138 255 
-10.5915 8.91688 1.61419 63 72 137 255 
-10.6085 8.89292 1.50137 62 76 138 255 
-10.6079 8.90847 1.37044 59 82 139 255 
-9.87403 8.30378 1.1537 63 71 136 255 
-9.87675 8.32399 1.03471 62 76 138 255 
-9.89016 8.29371 0.932007 62 73 137 255 
-9.19064 7.72099 0.753087 55 91 141 255 
-9.15708 7.70903 0.637797 65 68 135 255 
-9.172 7.7355 0.525963 67 61 132 255 
-7.79683 6.54291 0.36611 48 105 142 255 
-7.76807 6.53052 0.269291 56 88 140 255 
-7.05507 5.94152 0.157779 55 91 141 255 
-7.0534 5.95292 0.0724915 55 90 140 255 
-7.07389 5.93834 -0.00161199 52 97 141 255 
-7.0573 5.9372 -0.0885331 57 86 140 255 
-7.04436 5.93671 -0.17367 62 73 137 255 
-6.3721 5.38173 -0.23589 62 73 137 255 
-6.3745 5.35691 -0.302409 49 104 142 255 
-6.34899 5.34509 -0.378324 54 93 141 255 
-6.35528 5.35787 -0.45746 53 94 141 255 
-6.3483 5.36352 -0.535975 55 91 141 255 
-6.34884 5.33722 -0.601811 53 95 141 255 
-6.33711 5.33887 -0.678344 56 88 140 255 
-5.69262 4.80431 -0.680532 60 80 139 255 
-5.63548 4.76128 -0.744182 51 98 141 255 
-5.63615 4.74313 -0.802847 54 93 141 255 
-5.65331 4.76447 -0.876356 49 103 142 255 
-5.6449 4.76573 -0.946377 51 98 141 255 
-5.64655 4.774 -1.01814 52 96 141 255 
-5.65975 4.76805 -1.08093 50 102 142 255 
-5.63871 4.75554 -1.14719 50 102 142 255 
-5.53663 4.67598 -1.19583 57 86 140 255 
-5.2212 4.41438 -1.19575 59 82 139 255 
-5.03539 4.24806 -1.20912 44 114 142 255 
-4.7589 4.01779 -1.20161 50 101 142 255 
-4.55154 3.84401 -1.20884 54 93 141 255 
-4.37059 3.69391 -1.21949 53 94 141 255 
-4.19545 3.5432 -1.21843 58 84 140 255 
-4.04756 3.41965 -1.22721 63 72 137 255 
-3.85592 3.25884 -1.22045 62 73 137 255 
-3.69347 3.11942 -1.21973 64 70 136 255 
-3.54904 3.00259 -1.21525 64 70 136 255 
-3.4533 2.92171 -1.2273 66 65 134 255 
-3.32595 2.81192 -1.22751 69 56 130 255 
-3.17918 2.68317 -1.21887 70 52 128 255 
-18.8897 16.0503 7.44612 72 35 116 255 
-19.3507 16.4134 7.33828 72 27 109 255 
-20.0129 16.9628 7.31003 72 24 106 255 
-24.3358 20.6278 8.56602 71 14 97 255 
-24.1396 20.4894 8.21807 69 5 89 255 
-24.0376 20.3962 7.84831 70 11 94 255 
-24.1795 20.5235 7.57321 71 13 96 255 
-23.6669 20.0963 7.11096 71 13 96 255 
-24.9972 21.2098 7.23177 71 13 96 255 
-23.7329 20.1448 6.54306 71 19 101 255 
-24.5516 20.8614 6.45527 72 20 103 255 
-23.5669 20.0396 5.9012 70 8 92 255 
-24.5876 20.8623 5.88329 72 20 103 255 
-24.6467 20.9278 5.5791 71 19 101 255 
-24.7712 21.0629 5.28967 72 29 111 255 
-19.0664 16.2413 3.84154 71 16 99 255 
-19.1534 16.2572 3.64709 71 42 122 255 
-19.1544 16.27 3.40241 72 40 120 255 
-11.2733 9.59585 1.86235 56 89 140 255 
-10.5963 9.03261 1.62334 69 53 129 255 
-10.562 8.96492 1.50255 63 71 136 255 
-10.5538 8.97403 1.37054 58 83 139 255 
-9.84109 8.3797 1.15584 62 73 137 255 
-9.84824 8.40385 1.0371 58 84 140 255 
-9.83832 8.35359 0.931935 61 78 138 255 
-9.15374 7.78629 0.753963 53 95 141 255 
-9.12785 7.78062 0.639074 65 68 135 255 
-9.13955 7.80461 0.526839 66 65 134 255 
-7.76339 6.59645 0.366434 50 101 142 255 
-7.73013 6.58001 0.26937 54 92 141 255 
-7.0375 6.00092 0.158206 59 81 139 255 
-7.02586 6.00388 0.0725858 53 95 141 255 
-7.03579 5.98033 -0.00161164 57 86 140 255 
-7.03064 5.98882 -0.0886579 58 83 139 255 
-7.01313 5.98437 -0.173801 65 68 135 255 
-6.33668 5.41878 -0.235805 59 82 139 255 
-6.34228 5.39657 -0.302445 50 101 142 255 
-6.34344 5.40728 -0.379964 54 92 141 255 
-6.33595 5.40844 -0.458449 53 95 141 255 
-6.31907 5.40562 -0.536296 55 91 141 255 
-6.32052 5.37996 -0.602245 57 86 140 255 
-6.3103 5.38283 -0.678997 55 90 140 255 
-5.64864 4.82686 -0.678803 60 80 139 255 
-5.61145 4.80029 -0.744885 51 99 141 255 
-5.62284 4.79117 -0.805122 50 100 142 255 
-5.62548 4.80036 -0.876592 51 99 141 255 
-5.62535 4.80865 -0.948029 51 98 141 255 
-5.63296 4.82209 -1.02101 48 105 142 255 
-5.63265 4.80461 -1.08137 48 106 142 255 
-5.6207 4.79967 -1.14949 47 107 142 255 
-5.50933 4.71114 -1.19616 56 88 140 255 
-5.20599 4.45658 -1.1985 59 82 139 255 
-4.98381 4.25716 -1.20298 49 103 142 255 
-4.73267 4.04564 -1.20123 50 102 142 255 
-4.52042 3.8655 -1.20685 51 99 141 255 
-4.35007 3.72257 -1.22011 54 93 141 255 
-4.14098 3.54096 -1.2089 62 73 137 255 
-4.00281 3.42415 -1.21999 63 71 136 255 
-3.83216 3.27927 -1.21927 61 78 138 255 
-3.69047 3.15588 -1.22511 63 71 136 255 
-3.55038 3.0413 -1.22208 65 68 135 255 
-3.42505 2.93406 -1.22364 68 58 131 255 
-3.31375 2.83666 -1.22941 69 56 130 255 
-3.16047 2.70075 -1.21803 69 53 129 255 
-18.6253 16.0235 7.38052 72 31 112 255 
-19.2561 16.5375 7.34078 72 29 111 255 
-0 0 0 68 1 84 255 
-24.8134 21.2956 8.77996 71 13 96 255 
-24.5772 21.1217 8.41101 72 20 103 255 
-24.2653 20.8468 7.96427 70 11 94 255 
-24.658 21.1913 7.76366 71 16 99 255 
-23.5321 20.2316 7.10761 70 10 93 255 
-23.877 20.5126 6.94397 70 11 94 255 
-24.6428 21.1785 6.82959 71 14 97 255 
-24.4216 21.0104 6.45488 71 17 100 255 
-23.8418 20.5267 6.00145 71 17 100 255 
-24.2666 20.8473 5.83698 71 16 99 255 
-24.5978 21.1474 5.59729 72 22 104 255 
-24.946 21.4766 5.35502 72 27 109 255 
-18.8144 16.227 3.81077 72 33 115 255 
-18.8491 16.1989 3.60801 71 44 122 255 
-18.8409 16.2037 3.36431 72 41 121 255 
-11.233 9.68103 1.86547 56 89 140 255 
-10.952 9.45245 1.68669 69 53 129 255 
-10.7707 9.25636 1.54029 68 59 132 255 
-10.4865 9.02823 1.36897 64 69 136 255 
-9.81212 8.45944 1.15851 63 71 136 255 
-9.80931 8.4752 1.03846 62 76 138 255 
-9.82016 8.44241 0.935104 59 81 139 255 
-9.11864 7.85338 0.755028 55 91 141 255 
-9.10942 7.86193 0.641149 62 74 137 255 
-9.09225 7.86119 0.526883 65 66 135 255 
-7.73186 6.65178 0.366865 51 99 141 255 
-7.70627 6.64167 0.269954 53 94 141 255 
-7.0066 6.04922 0.158343 62 76 138 255 
-7.00023 6.05669 0.0727036 59 82 139 255 
-7.00654 6.02991 -0.00161338 60 79 138 255 
-6.99452 6.0325 -0.0886675 59 82 139 255 
-6.98157 6.03186 -0.173933 63 72 137 255 
-6.30483 5.45886 -0.235861 59 81 139 255 
-6.31359 5.4393 -0.302663 50 100 142 255 
-6.31544 5.45067 -0.380282 55 91 141 255 
-6.32531 5.4668 -0.460098 50 100 142 255 
-6.29408 5.45147 -0.537004 58 83 139 255 
-6.30704 5.43557 -0.604127 55 91 141 255 
-6.27715 5.42144 -0.678997 54 93 141 255 
-5.61591 4.85882 -0.678439 60 79 138 255 
-5.58716 4.83919 -0.745587 54 93 141 255 
-5.61215 4.84181 -0.807831 52 97 141 255 
-5.59742 4.83608 -0.876827 49 104 142 255 
-5.59274 4.84048 -0.947521 53 95 141 255 
-5.60401 4.85721 -1.02114 51 98 141 255 
-5.61279 4.84749 -1.08324 47 107 142 255 
-5.61282 4.85281 -1.15395 47 107 142 255 
-5.47585 4.74098 -1.19518 56 89 140 255 
-5.1711 4.48199 -1.19678 60 80 139 255 
-4.96726 4.29602 -1.20533 46 110 142 255 
-4.70998 4.07653 -1.2018 52 97 141 255 
-4.49884 3.89509 -1.20745 51 98 141 255 
-4.32272 3.74534 -1.21886 53 94 141 255 
-4.13836 3.58292 -1.21453 64 70 136 255 
-3.99424 3.45949 -1.22382 62 76 138 255 
-3.81197 3.30273 -1.21927 62 76 138 255 
-3.67397 3.18101 -1.22609 63 71 136 255 
-3.52946 3.06113 -1.22132 61 77 138 255 
-3.40479 2.95312 -1.22285 68 58 131 255 
-3.29847 2.85883 -1.23022 67 62 133 255 
-3.1482 2.72386 -1.21971 69 55 129 255 
-18.5028 16.1167 7.37103 72 28 110 255 
-19.1637 16.6635 7.34439 72 32 113 255 
-24.4374 21.2338 9.02064 69 5 89 255 
-24.4753 21.2675 8.70631 70 10 93 255 
-24.2785 21.1253 8.35297 71 14 97 255 
-23.7767 20.682 7.84541 72 22 104 255 
-23.8716 20.7714 7.55602 71 16 99 255 
-24.0251 20.9132 7.29514 71 13 96 255 
-25.1152 21.8456 7.34292 71 17 100 255 
-24.0295 20.9092 6.69506 71 17 100 255 
-24.0512 20.9499 6.39083 71 13 96 255 
-23.3851 20.3847 5.91788 71 13 96 255 
-23.94 20.8235 5.78906 72 20 103 255 
-24.6988 21.4991 5.65018 72 20 103 255 
-25.0377 21.8245 5.40335 72 20 103 255 
-18.5351 16.1854 3.77423 72 38 119 255 
-18.6411 16.2201 3.58718 72 40 120 255 
-18.5737 16.1732 3.33426 71 42 122 255 
-11.1689 9.74586 1.86472 59 81 139 255 
-10.9252 9.54692 1.69155 70 51 127 255 
-10.7175 9.32553 1.54083 66 65 134 255 
-10.4429 9.10287 1.37054 68 59 132 255 
-9.77354 8.53128 1.16011 64 69 136 255 
-9.76163 8.53917 1.03894 63 71 136 255 
-9.77946 8.51233 0.936184 63 71 136 255 
-9.09135 7.92755 0.756781 59 81 139 255 
-9.08357 7.93739 0.642745 61 78 138 255 
-9.06188 7.93263 0.527934 64 70 136 255 
-7.70295 6.7096 0.36744 52 97 141 255 
-7.67215 6.69475 0.270193 54 93 141 255 
-6.98516 6.10591 0.158702 57 85 140 255 
-6.97648 6.11139 0.0728449 59 82 139 255 
-6.98902 6.08987 -0.00161792 54 93 141 255 
-6.97846 6.09372 -0.0889362 51 99 141 255 
-6.95346 6.08249 -0.17416 64 69 136 255 
-6.29451 5.51787 -0.236738 56 89 140 255 
-6.28988 5.48647 -0.303135 54 92 141 255 
-6.2879 5.49458 -0.380647 53 94 141 255 
-6.29841 5.51142 -0.460592 51 98 141 255 
-6.27251 5.50052 -0.538034 53 95 141 255 
-6.27958 5.47941 -0.604706 50 102 142 255 
-6.23251 5.45002 -0.677773 61 77 138 255 
-5.58374 4.89122 -0.678166 60 80 139 255 
-5.57083 4.88519 -0.747394 51 98 141 255 
-5.59057 4.88335 -0.809022 54 93 141 255 
-5.57586 4.87753 -0.878122 50 100 142 255 
-5.56592 4.87732 -0.948029 51 99 141 255 
-5.57336 4.89085 -1.02101 49 103 142 255 
-5.5889 4.88705 -1.0844 45 113 142 255 
-5.58888 4.89236 -1.15518 47 107 142 255 
-5.42588 4.75628 -1.19062 58 84 140 255 
-5.14276 4.51299 -1.19661 58 83 139 255 
-4.93193 4.31865 -1.20316 47 107 142 255 
-4.66863 4.09112 -1.19763 50 100 142 255 
-4.4837 3.93037 -1.20983 50 100 142 255 
-4.29745 3.76986 -1.21824 53 94 141 255 
-4.12731 3.6179 -1.21778 57 85 140 255 
-3.96195 3.4743 -1.22044 62 76 138 255 
-3.78213 3.31772 -1.21622 63 72 137 255 
-3.66094 3.20924 -1.22829 63 72 137 255 
-3.50262 3.07571 -1.21854 66 63 133 255 
-3.38733 2.97459 -1.22311 67 61 132 255 
-3.26205 2.86251 -1.22317 68 57 131 255 
-3.13359 2.74502 -1.22056 68 59 132 255 
-18.3382 16.1723 7.34485 72 31 112 255 
-19.0676 16.7865 7.34689 72 23 105 255 
-24.6249 21.6633 9.13874 69 4 87 255 
-24.2653 21.3478 8.67804 71 14 97 255 
-23.6248 20.8125 8.17184 71 13 96 255 
-23.8358 20.9916 7.90726 71 19 101 255 
-23.5152 20.7162 7.48333 71 14 97 255 
-23.8971 21.0608 7.29537 70 7 90 255 
-23.663 20.8389 6.9556 70 8 92 255 
-24.3883 21.4858 6.83164 71 17 100 255 
-23.7406 20.9369 6.3423 71 13 96 255 
-23.3561 20.613 5.94242 71 16 99 255 
-23.7365 20.9037 5.77075 72 22 104 255 
-24.1228 21.2594 5.54815 71 17 100 255 
-24.571 21.6845 5.33125 71 16 99 255 
-18.2903 16.1705 3.74451 71 44 122 255 
-18.3482 16.1641 3.54983 71 44 122 255 
-18.3165 16.148 3.30582 71 46 124 255 
-11.1312 9.83392 1.86846 58 83 139 255 
-10.885 9.63023 1.69444 68 57 131 255 
-10.6705 9.40032 1.54234 69 55 129 255 
-10.4532 9.22538 1.3793 65 68 135 255 
-10.1337 8.95584 1.20937 69 55 129 255 
-9.91948 8.78527 1.06146 68 58 131 255 
-9.74425 8.58734 0.93784 68 59 132 255 
-9.05076 7.99045 0.75747 55 91 141 255 
-9.04217 7.99959 0.643278 62 76 138 255 
-9.02949 8.00266 0.528897 66 65 134 255 
-7.66689 6.76137 0.367692 52 97 141 255 
-7.63468 6.74501 0.270325 56 89 140 255 
-6.95655 6.15661 0.158908 63 71 136 255 
-6.94633 6.16072 0.0729235 62 76 138 255 
-6.96202 6.1419 -0.00162036 59 82 139 255 
-6.95217 6.14636 -0.0890802 61 78 138 255 
-6.94071 6.14691 -0.174782 62 73 137 255 
-6.26203 5.55772 -0.236794 57 86 140 255 
-6.26359 5.53158 -0.303498 50 100 142 255 
-6.2608 5.53901 -0.381056 52 96 141 255 
-6.26672 5.55195 -0.460757 50 102 142 255 
-6.26028 5.55812 -0.5399 52 97 141 255 
-6.25032 5.5218 -0.60514 48 106 142 255 
-6.18925 5.47957 -0.676713 60 79 138 255 
-5.54841 4.92076 -0.67753 60 80 139 255 
-5.55042 4.92787 -0.748698 57 85 140 255 
-5.57018 4.92612 -0.810431 50 100 142 255 
-5.55624 4.92087 -0.87977 50 101 142 255 
-5.54405 4.91862 -0.949427 52 96 141 255 
-5.54621 4.92759 -1.02155 50 102 142 255 
-5.5677 4.92912 -1.08613 45 112 142 255 
-5.54545 4.91477 -1.15241 48 106 142 255 
-5.39954 4.7921 -1.19128 63 72 137 255 
-5.09509 4.52679 -1.19196 58 83 139 255 
-4.90239 4.34622 -1.20244 46 110 142 255 
-4.64124 4.11773 -1.19706 54 92 141 255 
-4.45656 3.95521 -1.20904 52 97 141 255 
-4.26765 3.79031 -1.21636 53 94 141 255 
-4.10723 3.6451 -1.21843 63 72 137 255 
-3.93837 3.4966 -1.21976 61 78 138 255 
-3.76025 3.33957 -1.21575 62 73 137 255 
-3.62813 3.22006 -1.22389 65 66 135 255 
-3.48006 3.09392 -1.21727 66 63 133 255 
-3.34882 2.97737 -1.21578 69 56 130 255 
-3.23219 2.8716 -1.21856 66 63 133 255 
-3.12171 2.76866 -1.22252 65 68 135 255 
-17.8793 15.9637 7.20014 72 37 118 255 
-17.8771 15.9342 6.92572 72 31 112 255 
-17.9246 15.965 6.68838 72 37 118 255 
-17.9316 15.9719 6.44785 72 36 117 255 
-17.9078 15.9723 6.22811 72 40 120 255 
-17.9485 16.0034 5.98667 71 44 122 255 
-17.9349 15.9967 5.73861 72 38 119 255 
-17.9277 15.9965 5.50289 72 35 116 255 
-17.9056 15.9648 5.29194 72 41 121 255 
-17.9651 16.0239 5.05981 71 47 125 255 
-17.955 16.0315 4.82289 72 37 118 255 
-17.9157 16.0082 4.58316 72 36 117 255 
-17.9311 15.9875 4.38312 72 31 112 255 
-17.9059 15.9767 4.14075 72 37 118 255 
-17.9274 16.018 3.91101 72 32 113 255 
-17.9543 16.0708 3.69585 71 45 123 255 
-18.0722 16.1189 3.51549 70 52 128 255 
-17.9864 16.0542 3.26396 70 51 127 255 
-11.0914 9.92055 1.87196 59 82 139 255 
-10.8605 9.72799 1.69989 68 58 131 255 
-10.6223 9.47422 1.54374 68 58 131 255 
-10.3994 9.292 1.3797 66 63 133 255 
-10.1409 9.07364 1.21685 69 55 129 255 
-9.89582 8.87326 1.06473 69 53 129 255 
-9.69957 8.65428 0.938633 67 62 133 255 
-9.0038 8.04783 0.757658 57 85 140 255 
-9.0011 8.06225 0.643863 61 78 138 255 
-8.9936 8.06992 0.529685 66 65 134 255 
-7.63569 6.8176 0.368195 50 102 142 255 
-7.58569 6.78506 0.27006 57 86 140 255 
-6.93726 6.21586 0.159335 55 90 140 255 
-6.91732 6.21124 0.0730177 57 86 140 255 
-6.92867 6.1885 -0.00162141 52 97 141 255 
-6.92104 6.1949 -0.0891666 61 77 138 255 
-6.91477 6.20006 -0.175083 61 77 138 255 
-6.23525 5.60272 -0.237077 56 88 140 255 
-6.23549 5.57524 -0.303788 48 105 142 255 
-6.2319 5.58199 -0.381375 57 85 140 255 
-6.23551 5.59297 -0.460977 55 91 141 255 
-6.23052 5.60043 -0.540287 52 97 141 255 
-6.22673 5.56936 -0.606153 48 105 142 255 
-6.1429 5.50613 -0.675326 65 68 135 255 
-5.52775 4.96336 -0.678712 57 85 140 255 
-5.52008 4.96183 -0.748698 55 91 141 255 
-5.54059 4.96087 -0.810539 52 96 141 255 
-5.53037 4.95884 -0.880476 52 97 141 255 
-5.52484 4.96249 -0.951333 57 86 140 255 
-5.51955 4.96484 -1.02224 55 91 141 255 
-5.52335 4.95064 -1.08339 51 99 141 255 
-5.53578 4.96718 -1.15672 51 99 141 255 
-5.36197 4.81789 -1.18949 62 74 137 255 
-5.0804 4.56983 -1.19506 59 82 139 255 
-4.86319 4.36505 -1.19937 48 106 142 255 
-4.59616 4.12842 -1.19195 53 94 141 255 
-4.42419 3.97527 -1.20685 50 100 142 255 
-4.21959 3.7942 -1.20928 54 92 141 255 
-4.08043 3.66632 -1.21713 62 76 138 255 
-3.90887 3.51354 -1.21728 62 74 137 255 
-3.74258 3.36518 -1.21669 64 69 136 255 
-3.58378 3.22023 -1.21557 66 65 134 255 
-3.46677 3.1204 -1.2193 65 66 135 255 
-3.3348 3.00173 -1.21735 64 69 136 255 
-3.22668 2.90232 -1.22317 63 72 137 255 
-3.11752 2.7993 -1.22758 64 69 136 255 
-17.6339 15.9402 7.14059 72 38 119 255 
-17.6742 15.949 6.88488 70 50 126 255 
-17.7068 15.967 6.64355 71 44 122 255 
-17.7343 15.9924 6.41206 72 36 117 255 
-17.6572 15.9444 6.17485 72 40 120 255 
-17.7188 15.9949 5.9427 71 47 125 255 
-17.7137 15.9956 5.69913 71 42 122 255 
-17.6868 15.9775 5.45891 71 45 123 255 
-17.7152 15.9912 5.26458 71 47 125 255 
-17.7008 15.9843 5.01292 71 47 125 255 
-17.7618 16.0559 4.79735 70 51 127 255 
-17.6919 16.0045 4.55093 71 44 122 255 
-17.7319 16.0063 4.35835 71 46 124 255 
-17.7563 16.04 4.12885 70 48 126 255 
-17.6911 16.0033 3.88082 70 51 127 255 
-17.6905 16.0313 3.66174 69 55 129 255 
-17.7673 16.0438 3.47526 69 53 129 255 
-17.7707 16.0586 3.24263 69 56 130 255 
-11.0531 10.0091 1.87583 53 94 141 255 
-10.7984 9.79244 1.69954 69 53 129 255 
-10.5949 9.5672 1.54827 69 53 129 255 
-10.3444 9.35763 1.37999 66 64 134 255 
-10.0976 9.14706 1.21836 69 53 129 255 
-9.85373 8.9452 1.06609 69 56 130 255 
-9.65886 8.72499 0.939857 66 65 134 255 
-8.96831 8.11565 0.758847 63 71 136 255 
-8.96478 8.1294 0.644821 63 72 137 255 
-8.96166 8.14108 0.530737 69 56 130 255 
-7.62337 6.89113 0.369633 50 102 142 255 
-7.44685 6.74358 0.266585 61 77 138 255 
-6.91084 6.26906 0.159609 53 94 141 255 
-6.88352 6.2576 0.0730648 59 81 139 255 
-6.90021 6.23962 -0.00162368 55 91 141 255 
-6.89475 6.248 -0.0893202 60 80 139 255 
-6.88474 6.24977 -0.17529 58 84 140 255 
-6.19336 5.63414 -0.236794 62 76 138 255 
-6.2145 5.62546 -0.304441 47 107 142 255 
-6.20863 5.63019 -0.382058 53 95 141 255 
-6.20994 5.63918 -0.461636 53 94 141 255 
-6.19677 5.63922 -0.540351 52 96 141 255 
-6.19836 5.61281 -0.606732 56 89 140 255 
-6.07652 5.51425 -0.671736 65 68 135 255 
-5.51487 5.01326 -0.680896 55 91 141 255 
-5.5094 5.01369 -0.751408 56 88 140 255 
-5.51594 5.00011 -0.811406 51 99 141 255 
-5.51675 5.00804 -0.883184 51 99 141 255 
-5.5163 5.01632 -0.955145 51 98 141 255 
-5.49264 5.00195 -1.02292 55 90 140 255 
-5.49507 4.98643 -1.08382 53 95 141 255 
-5.50886 5.00437 -1.15749 46 109 142 255 
-5.30603 4.8268 -1.18362 59 82 139 255 
-5.04935 4.59826 -1.19437 59 82 139 255 
-4.82248 4.38224 -1.19594 46 109 142 255 
-4.58963 4.17372 -1.19687 52 97 141 255 
-4.39029 3.99377 -1.20426 50 101 142 255 
-4.21214 3.8345 -1.21386 53 94 141 255 
-4.03619 3.67158 -1.21063 62 73 137 255 
-3.88508 3.53549 -1.2166 65 68 135 255 
-3.71539 3.3822 -1.21457 64 69 136 255 
-3.57113 3.24868 -1.21802 66 63 133 255 
-3.43611 3.13118 -1.21525 63 72 137 255 
-3.33771 3.04164 -1.22521 63 72 137 255 
-3.23087 2.94216 -1.23158 61 78 138 255 
-3.09105 2.80998 -1.22393 63 72 137 255 
-17.3563 15.8838 7.06751 72 36 117 255 
-17.4462 15.9386 6.83404 72 40 120 255 
-17.4748 15.9532 6.59309 71 47 125 255 
-17.4468 15.9283 6.34334 72 40 120 255 
-17.4197 15.9251 6.12586 71 44 122 255 
-17.4399 15.9384 5.88183 71 45 123 255 
-17.4666 15.9681 5.65105 71 44 122 255 
-17.4632 15.9712 5.42007 72 40 120 255 
-17.4971 15.9903 5.22882 70 48 126 255 
-17.4832 15.9836 4.97898 69 56 130 255 
-17.4799 15.9971 4.74764 70 50 126 255 
-17.476 16.0053 4.52057 72 41 121 255 
-17.4845 15.9787 4.32156 70 48 126 255 
-17.5129 16.0163 4.09501 69 56 130 255 
-17.4863 16.0142 3.85738 69 56 130 255 
-17.4549 16.014 3.63323 70 48 126 255 
-17.5319 16.0276 3.4484 69 56 130 255 
-17.5212 16.0295 3.21499 67 61 132 255 
-11.0068 10.0908 1.87845 58 84 140 255 
-10.7549 9.87396 1.7022 70 52 128 255 
-10.547 9.64209 1.54989 69 56 130 255 
-10.3029 9.43571 1.38216 67 61 132 255 
-10.0633 9.22904 1.22104 65 66 135 255 
-9.83536 9.03922 1.07008 69 56 130 255 
-9.61766 8.79554 0.941081 64 69 136 255 
-9.14279 8.37616 0.777945 67 61 132 255 
-9.09715 8.35174 0.658016 68 57 131 255 
-9.1167 8.38459 0.542955 68 57 131 255 
-7.5979 6.95329 0.37046 47 107 142 255 
-7.16659 6.57027 0.257991 65 68 135 255 
-6.88329 6.32149 0.159865 50 101 142 255 
-6.86045 6.31394 0.0732298 58 83 139 255 
-6.8795 6.29805 -0.00162787 56 88 140 255 
-6.86881 6.30168 -0.0894834 60 79 138 255 
-6.85436 6.29934 -0.175498 61 77 138 255 
-6.17853 5.69032 -0.237558 58 84 140 255 
-6.18502 5.66821 -0.304695 50 101 142 255 
-6.18354 5.67696 -0.38265 59 82 139 255 
-6.19139 5.69204 -0.462845 53 95 141 255 
-6.17086 5.68525 -0.541123 48 106 142 255 
-6.17336 5.6595 -0.607673 53 94 141 255 
-6.04037 5.54941 -0.671491 62 74 137 255 
-5.4994 5.06117 -0.682806 55 90 140 255 
-5.49024 5.05819 -0.753014 51 98 141 255 
-5.48955 5.0379 -0.812056 51 99 141 255 
-5.48812 5.04381 -0.883537 52 97 141 255 
-5.48979 5.0541 -0.955907 52 96 141 255 
-5.48443 5.05637 -1.02715 51 98 141 255 
-5.49716 5.05018 -1.09033 49 104 142 255 
-5.48677 5.04611 -1.15933 48 106 142 255 
-5.27051 4.85392 -1.18232 57 85 140 255 
-5.00801 4.61714 -1.19127 54 92 141 255 
-4.78899 4.40575 -1.19431 49 104 142 255 
-4.5726 4.20978 -1.19914 47 107 142 255 
-4.35778 4.01333 -1.20208 51 99 141 255 
-4.19285 3.86425 -1.21511 54 92 141 255 
-4.01574 3.69826 -1.21128 61 78 138 255 
-3.84182 3.53946 -1.20983 64 70 136 255 
-3.70029 3.4102 -1.21645 66 64 134 255 
-3.55612 3.27513 -1.21973 65 68 135 255 
-3.42324 3.15811 -1.21753 60 79 138 255 
-3.30906 3.0529 -1.22154 60 79 138 255 
-3.1887 2.93974 -1.22235 61 77 138 255 
-3.0674 2.82305 -1.2214 66 64 134 255 
-17.1342 15.8748 7.01659 72 40 120 255 
-17.1668 15.8777 6.76264 72 41 121 255 
-17.165 15.8646 6.51283 72 38 119 255 
-17.2331 15.9282 6.30107 71 42 122 255 
-17.1874 15.9074 6.07838 71 44 122 255 
-17.1979 15.912 5.83303 70 48 126 255 
-17.2113 15.9296 5.59995 71 42 122 255 
-17.1968 15.9224 5.3676 72 40 120 255 
-17.2317 15.9428 5.17863 69 55 129 255 
-17.234 15.951 4.93578 70 52 128 255 
-17.1664 15.9048 4.6889 70 51 127 255 
-17.1801 15.9292 4.46923 71 45 123 255 
-17.2309 15.9421 4.28297 70 52 128 255 
-17.2566 15.9775 4.05795 69 55 129 255 
-17.2061 15.9527 3.81708 71 45 123 255 
-17.2158 15.9903 3.60382 70 52 128 255 
-17.2945 16.0065 3.42096 68 58 131 255 
-17.2749 16 3.18776 68 58 131 255 
-10.9694 10.1811 1.88269 55 91 141 255 
-10.7014 9.94653 1.70336 68 57 131 255 
-10.5052 9.72283 1.55248 70 52 128 255 
-10.2733 9.52514 1.386 66 63 133 255 
-10.0386 9.32043 1.22495 67 61 132 255 
-9.81182 9.12927 1.0736 70 52 128 255 
-9.57961 8.86929 0.942666 66 65 134 255 
-9.35758 8.67914 0.800738 63 72 137 255 
-9.1262 8.48218 0.663869 64 70 136 255 
-9.09579 8.46897 0.544794 66 64 134 255 
-7.57342 7.01676 0.371359 45 113 142 255 
-7.13127 6.61888 0.258177 65 68 135 255 
-6.85755 6.37586 0.160173 54 93 141 255 
-6.83036 6.3641 0.073324 62 76 138 255 
-6.851 6.34966 -0.00163031 56 89 140 255 
-6.84467 6.35731 -0.0896754 58 83 139 255 
-6.83974 6.36375 -0.17612 61 78 138 255 
-6.14934 5.73358 -0.237784 54 93 141 255 
-6.16771 5.72237 -0.305567 49 104 142 255 
-6.17493 5.73928 -0.38429 49 104 142 255 
-6.1622 5.73537 -0.463285 47 108 142 255 
-6.14462 5.73118 -0.541896 50 102 142 255 
-6.15752 5.71492 -0.609554 50 102 142 255 
-6.00037 5.58094 -0.670838 59 81 139 255 
-5.47625 5.10229 -0.683807 53 95 141 255 
-5.46346 5.09585 -0.753616 52 97 141 255 
-5.46728 5.07961 -0.813356 54 92 141 255 
-5.47451 5.09362 -0.886362 51 99 141 255 
-5.46666 5.09513 -0.957305 53 95 141 255 
-5.46561 5.10142 -1.02947 49 104 142 255 
-5.47114 5.08853 -1.09134 47 108 142 255 
-5.46583 5.08911 -1.16148 52 97 141 255 
-5.23557 4.88146 -1.18118 57 86 140 255 
-4.97454 4.64307 -1.19006 58 83 139 255 
-4.75323 4.42701 -1.19215 48 106 142 255 
-4.51867 4.21165 -1.19176 53 95 141 255 
-4.33163 4.03866 -1.20168 50 100 142 255 
-4.17764 3.89791 -1.21761 55 91 141 255 
-3.98512 3.7155 -1.2089 63 72 137 255 
-3.79937 3.54369 -1.20329 65 66 135 255 
-3.67432 3.4282 -1.21481 63 72 137 255 
-3.53028 3.2916 -1.21777 60 79 138 255 
-3.40662 3.1817 -1.21854 59 81 139 255 
-3.29379 3.07644 -1.22285 59 82 139 255 
-3.14527 2.93561 -1.21259 62 73 137 255 
-3.07529 2.86537 -1.23152 61 77 138 255 
-16.8772 15.8303 6.95099 72 40 120 255 
-16.9463 15.8678 6.71402 71 45 123 255 
-16.9815 15.8894 6.48009 71 45 123 255 
-16.9715 15.8806 6.24091 72 38 119 255 
-16.9079 15.8425 6.01382 72 36 117 255 
-16.9625 15.8885 5.78616 70 51 127 255 
-16.9982 15.9272 5.56233 71 47 125 255 
-16.9622 15.8997 5.32474 72 38 119 255 
-16.981 15.9054 5.13253 71 45 123 255 
-16.9987 15.928 4.89629 69 55 129 255 
-16.9741 15.9213 4.66297 68 57 131 255 
-16.9682 15.9275 4.43944 69 53 129 255 
-17.0351 15.956 4.25856 70 52 128 255 
-17.003 15.9375 4.02122 68 58 131 255 
-16.9884 15.9459 3.79042 69 55 129 255 
-16.9698 15.9568 3.57274 70 51 127 255 
-17.0284 15.9554 3.38763 67 62 133 255 
-17.0275 15.9661 3.16012 69 56 130 255 
-10.9161 10.257 1.88431 60 79 138 255 
-10.6705 10.0406 1.70822 70 48 126 255 
-10.4533 9.79458 1.55366 69 53 129 255 
-10.227 9.59958 1.38767 66 64 134 255 
-9.99939 9.39891 1.22718 68 58 131 255 
-9.7694 9.20229 1.07511 69 55 129 255 
-9.54029 8.94223 0.944178 65 66 135 255 
-9.30633 8.73845 0.800925 62 74 137 255 
-9.09216 8.55512 0.665199 66 63 133 255 
-9.04729 8.52805 0.545013 67 61 132 255 
-7.53533 7.06789 0.37161 48 106 142 255 
-7.10728 6.67826 0.258787 65 66 135 255 
-6.81029 6.41028 0.159985 60 80 139 255 
-6.80718 6.42099 0.0734968 62 74 137 255 
-6.82795 6.40663 -0.00163415 59 82 139 255 
-6.81864 6.41152 -0.0898482 60 80 139 255 
-6.81148 6.41588 -0.176403 55 91 141 255 
-6.12786 5.78424 -0.238321 57 85 140 255 
-6.14487 5.77174 -0.306184 50 101 142 255 
-6.14105 5.77843 -0.384381 50 100 142 255 
-6.13852 5.78403 -0.464164 49 103 142 255 
-6.12893 5.78727 -0.543633 51 99 141 255 
-6.12888 5.75874 -0.610206 53 94 141 255 
-5.92683 5.58075 -0.666432 62 74 137 255 
-5.45064 5.14126 -0.684535 47 107 142 255 
-5.43064 5.12791 -0.753415 54 93 141 255 
-5.44831 5.12464 -0.815198 51 99 141 255 
-5.45255 5.13597 -0.887892 52 96 141 255 
-5.44684 5.13947 -0.959338 55 90 140 255 
-5.44357 5.14371 -1.03124 52 96 141 255 
-5.44702 5.12879 -1.09278 50 102 142 255 
-5.43666 5.12458 -1.16194 55 91 141 255 
-5.1883 4.89724 -1.17727 59 82 139 255 
-4.94882 4.67622 -1.19075 54 93 141 255 
-4.72669 4.45676 -1.19233 47 107 142 255 
-4.4956 4.24199 -1.19251 50 100 142 255 
-4.31034 4.06852 -1.20267 53 95 141 255 
-4.11738 3.88922 -1.20698 62 73 137 255 
-3.9594 3.73721 -1.20803 62 74 137 255 
-3.81722 3.6044 -1.21593 59 81 139 255 
-3.65604 3.45335 -1.21575 60 79 138 255 
-3.51566 3.31852 -1.21973 59 82 139 255 
-3.38704 3.20254 -1.21854 60 79 138 255 
-3.27625 3.09792 -1.22337 62 76 138 255 
-3.13769 2.96477 -1.21666 62 74 137 255 
-3.05277 2.87957 -1.22955 63 71 136 255 
-16.6249 15.7865 6.88684 72 37 118 255 
-16.705 15.8353 6.65679 72 41 121 255 
-16.7404 15.8575 6.42506 71 45 123 255 
-16.7713 15.8874 6.20305 71 46 124 255 
-16.698 15.8393 5.97362 71 44 122 255 
-16.7309 15.8654 5.74026 71 46 124 255 
-16.7555 15.894 5.51472 70 50 126 255 
-16.7392 15.8847 5.28522 71 45 123 255 
-16.7477 15.8809 5.09138 70 50 126 255 
-16.7643 15.9027 4.85679 70 52 128 255 
-16.7552 15.9104 4.62957 70 52 128 255 
-16.7455 15.9129 4.40665 71 47 125 255 
-16.7648 15.8971 4.2153 69 55 129 255 
-16.8069 15.9486 3.99792 68 57 131 255 
-16.7836 15.9485 3.7665 69 56 130 255 
-16.7412 15.9366 3.54515 69 56 130 255 
-16.7931 15.9295 3.36019 68 58 131 255 
-16.7811 15.9297 3.13248 68 59 132 255 
-10.8688 10.3389 1.88706 63 72 137 255 
-10.626 10.1223 1.711 70 50 126 255 
-10.4089 9.87359 1.55603 68 59 132 255 
-10.1766 9.67037 1.38885 68 58 131 255 
-9.95019 9.46832 1.22825 69 53 129 255 
-9.72358 9.27238 1.07631 70 52 128 255 
-9.49827 9.01296 0.945475 67 62 133 255 
-9.26339 8.8057 0.801865 62 74 137 255 
-9.03371 8.60524 0.664773 67 61 132 255 
-8.99262 8.58133 0.544882 69 55 129 255 
-7.49689 7.11881 0.371862 48 105 142 255 
-6.95029 6.6115 0.254542 66 65 134 255 
-6.80413 6.48367 0.160772 47 108 142 255 
-6.77778 6.4723 0.0736068 56 88 140 255 
-6.79794 6.45736 -0.00163642 50 101 142 255 
-6.79728 6.47048 -0.0900882 50 102 142 255 
-6.78067 6.46583 -0.176629 56 88 140 255 
-6.11176 5.84038 -0.239084 58 83 139 255 
-6.11006 5.81002 -0.30622 54 92 141 255 
-6.10331 5.81393 -0.384244 52 96 141 255 
-6.10436 5.82296 -0.464274 56 89 140 255 
-6.10989 5.84063 -0.545113 50 101 142 255 
-6.09994 5.80242 -0.610857 51 99 141 255 
-5.88237 5.60739 -0.66529 62 73 137 255 
-5.43051 5.18561 -0.685991 50 101 142 255 
-5.41346 5.17489 -0.755423 54 93 141 255 
-5.42901 5.16962 -0.81704 52 97 141 255 
-5.43028 5.17824 -0.889422 50 102 142 255 
-5.41807 5.17553 -0.959846 58 84 140 255 
-5.40761 5.1729 -1.03042 52 96 141 255 
-5.42619 5.17236 -1.09495 52 97 141 255 
-5.41584 5.16808 -1.16425 48 105 142 255 
-5.15031 4.92148 -1.17548 59 81 139 255 
-4.90509 4.69219 -1.18713 56 89 140 255 
-4.6957 4.48229 -1.19143 47 108 142 255 
-4.45529 4.25593 -1.18872 49 103 142 255 
-4.29167 4.10099 -1.20446 50 101 142 255 
-4.10192 3.92252 -1.20948 64 70 136 255 
-3.9364 3.76143 -1.20803 60 80 139 255 
-3.79503 3.62775 -1.21593 61 78 138 255 
-3.61652 3.45825 -1.20964 60 80 139 255 
-3.49523 3.34003 -1.21973 59 81 139 255 
-3.36453 3.22059 -1.21753 60 79 138 255 
-3.23906 3.10061 -1.21657 60 79 138 255 
-3.12361 2.98796 -1.21828 62 74 137 255 
-3.00728 2.87174 -1.21831 64 69 136 255 
-16.4386 15.8026 6.84973 72 38 119 255 
-16.4454 15.7819 6.59178 72 41 121 255 
-16.4613 15.7859 6.355 72 37 118 255 
-16.5077 15.8309 6.14133 72 38 119 255 
-16.4351 15.7826 5.91408 72 38 119 255 
-16.4855 15.826 5.68928 72 41 121 255 
-16.4942 15.8395 5.4606 70 48 126 255 
-16.5044 15.8554 5.24169 71 42 122 255 
-16.526 15.8644 5.05347 70 48 126 255 
-16.5338 15.8778 4.81812 68 59 132 255 
-16.5328 15.8933 4.59499 68 59 132 255 
-16.5421 15.9138 4.37873 70 51 127 255 
-16.5286 15.8668 4.1803 70 50 126 255 
-16.5318 15.8815 3.95558 68 59 132 255 
-16.5275 15.8993 3.73085 69 56 130 255 
-16.5449 15.9443 3.52423 69 53 129 255 
-16.5815 15.9232 3.33735 69 55 129 255 
-16.5666 15.9205 3.11061 69 55 129 255 
-10.8245 10.4239 1.89043 62 74 137 255 
-10.5916 10.2142 1.71552 68 57 131 255 
-10.3739 9.96206 1.55992 70 51 127 255 
-10.1299 9.74505 1.39063 67 61 132 255 
-9.90052 9.53749 1.22932 70 52 128 255 
-9.6708 9.33602 1.07679 70 51 127 255 
-9.46652 9.09387 0.947851 67 62 133 255 
-9.23363 8.8859 0.803994 64 70 136 255 
-9.00374 8.68269 0.666476 66 65 134 255 
-8.91106 8.60858 0.54313 69 53 129 255 
-7.47252 7.18337 0.372832 46 111 142 255 
-6.89879 6.64362 0.254145 62 74 137 255 
-6.76206 6.52322 0.160721 49 104 142 255 
-6.75519 6.53045 0.0737953 56 88 140 255 
-6.77404 6.51419 -0.00164026 54 93 141 255 
-6.76897 6.52316 -0.0902417 49 104 142 255 
-6.76245 6.52815 -0.177194 52 96 141 255 
-6.08731 5.88889 -0.239537 57 86 140 255 
-6.08797 5.86057 -0.306909 58 83 139 255 
-6.07687 5.86029 -0.384836 50 100 142 255 
-6.08719 5.87834 -0.465703 54 92 141 255 
-6.08111 5.88495 -0.545757 54 92 141 255 
-6.08434 5.85911 -0.612883 50 101 142 255 
-5.83638 5.6323 -0.663984 61 77 138 255 
-5.39501 5.21537 -0.685536 50 100 142 255 
-5.39019 5.21631 -0.756627 50 101 142 255 
-5.41078 5.21595 -0.819099 53 95 141 255 
-5.40055 5.21353 -0.889775 50 102 142 255 
-5.38835 5.21075 -0.960227 51 99 141 255 
-5.3779 5.20805 -1.03083 54 93 141 255 
-5.40076 5.21174 -1.09625 49 103 142 255 
-5.39326 5.21013 -1.16624 51 99 141 255 
-5.1271 4.95985 -1.17711 57 85 140 255 
-4.86488 4.71124 -1.18438 58 83 139 255 
-4.64972 4.49324 -1.18673 49 104 142 255 
-4.43474 4.28865 -1.19024 49 103 142 255 
-4.25304 4.1143 -1.20069 50 102 142 255 
-4.07919 3.94898 -1.2099 58 83 139 255 
-3.91254 3.78483 -1.20782 62 76 138 255 
-3.7664 3.64487 -1.2139 57 85 140 255 
-3.58266 3.46821 -1.20541 61 77 138 255 
-3.47746 3.36411 -1.22071 59 82 139 255 
-3.33497 3.23175 -1.21399 59 82 139 255 
-3.23037 3.1305 -1.22049 59 81 139 255 
-3.12389 3.02515 -1.22561 62 76 138 255 
-2.97856 2.87947 -1.21381 66 65 134 255 
-16.2487 15.8129 6.81089 71 44 122 255 
-16.2835 15.8196 6.56567 72 41 121 255 
-16.2736 15.7987 6.31984 70 48 126 255 
-16.2779 15.8034 6.0918 71 45 123 255 
-16.2401 15.788 5.87866 71 45 123 255 
-16.2705 15.8125 5.64846 71 47 125 255 
-16.2823 15.8292 5.42251 70 50 126 255 
-16.2831 15.8361 5.20217 71 47 125 255 
-16.2736 15.8151 5.00586 69 56 130 255 
-16.2817 15.8289 4.77287 70 48 126 255 
-16.272 15.8358 4.54941 71 46 124 255 
-16.2787 15.854 4.33469 71 42 122 255 
-16.3187 15.8589 4.15176 70 51 127 255 
-16.3168 15.8685 3.92736 70 52 128 255 
-16.2988 15.873 3.70115 68 59 132 255 
-16.2678 15.8709 3.48587 70 48 126 255 
-16.3231 15.8688 3.30488 69 55 129 255 
-16.3351 15.8919 3.08539 68 59 132 255 
-10.7717 10.5012 1.89243 62 74 137 255 
-10.5429 10.2929 1.71784 70 52 128 255 
-10.3546 10.0664 1.56628 70 51 127 255 
-10.0963 9.83271 1.39427 65 68 135 255 
-9.87461 9.63005 1.23342 69 56 130 255 
-9.63615 9.41748 1.07935 70 50 126 255 
-9.42914 9.16986 0.949724 68 59 132 255 
-9.18751 8.95075 0.804745 63 71 136 255 
-8.96673 8.75382 0.6677 66 64 134 255 
-8.85735 8.6624 0.543086 70 50 126 255 
-7.44119 7.24163 0.373479 52 97 141 255 
-6.81495 6.64396 0.252553 64 69 136 255 
-6.73979 6.58205 0.161148 50 100 142 255 
-6.73 6.58646 0.0739602 55 90 140 255 
-6.75329 6.57447 -0.00164497 51 98 141 255 
-6.73598 6.57156 -0.0903377 51 99 141 255 
-6.73227 6.5793 -0.177458 51 99 141 255 
-6.06106 5.93592 -0.239932 54 93 141 255 
-6.05118 5.89712 -0.306873 57 86 140 255 
-6.04937 5.90584 -0.385383 50 100 142 255 
-6.066 5.93024 -0.466857 47 108 142 255 
-6.06128 5.93821 -0.547237 50 101 142 255 
-6.06541 5.91304 -0.61462 53 95 141 255 
-5.79244 5.65895 -0.662924 58 83 139 255 
-5.37999 5.26509 -0.687719 51 99 141 255 
-5.36661 5.25764 -0.757831 51 99 141 255 
-5.39148 5.26155 -0.821049 51 99 141 255 
-5.3784 5.25628 -0.891423 50 100 142 255 
-5.3662 5.25343 -0.962006 55 90 140 255 
-5.36211 5.2569 -1.03397 53 95 141 255 
-5.38213 5.25792 -1.099 48 105 142 255 
-5.37038 5.25211 -1.16824 44 113 142 255 
-5.10997 5.00433 -1.18021 53 94 141 255 
-4.84222 4.74721 -1.18593 59 82 139 255 
-4.62417 4.52375 -1.18727 49 104 142 255 
-4.39361 4.30135 -1.18626 50 100 142 255 
-4.22001 4.13277 -1.1985 48 105 142 255 
-4.04789 3.96709 -1.20782 62 74 137 255 
-3.88785 3.8074 -1.20738 61 78 138 255 
-3.74188 3.66587 -1.21322 58 83 139 255 
-3.56825 3.49693 -1.20776 61 78 138 255 
-3.44775 3.37657 -1.21753 62 74 137 255 
-3.31784 3.25486 -1.215 60 79 138 255 
-3.20834 3.14756 -1.21945 63 71 136 255 
-3.09152 3.03078 -1.22018 64 69 136 255 
-2.97524 2.91178 -1.21971 66 64 134 255 
-16.1821 15.9426 6.82383 71 46 124 255 
-16.2012 15.934 6.57178 71 46 124 255 
-16.212 15.9333 6.3338 69 53 129 255 
-16.1888 15.9111 6.09491 70 48 126 255 
-16.1843 15.9281 5.89373 70 51 127 255 
-16.1753 15.9141 5.64918 69 53 129 255 
-16.171 15.9152 5.41786 70 48 126 255 
-16.1835 15.9337 5.2015 70 50 126 255 
-16.1909 15.929 5.01039 66 64 134 255 
-16.2017 15.9456 4.77802 70 52 128 255 
-16.1745 15.9353 4.54941 69 56 130 255 
-16.17 15.9425 4.33169 72 41 121 255 
-16.1426 15.8815 4.13166 69 56 130 255 
-16.1376 15.8882 3.90763 68 59 132 255 
-16.1224 15.8951 3.68316 67 61 132 255 
-16.1237 15.9246 3.47587 68 59 132 255 
-16.1232 15.868 3.28405 67 61 132 255 
-16.1448 15.9008 3.06782 66 65 134 255 
-10.7515 10.611 1.90029 64 69 136 255 
-10.4838 10.3616 1.71853 69 55 129 255 
-10.2984 10.1353 1.56714 70 52 128 255 
-10.0528 9.91125 1.39663 68 58 131 255 
-9.81463 9.68976 1.23333 70 52 128 255 
-9.59306 9.49115 1.08102 70 50 126 255 
-9.37767 9.23245 0.950228 68 59 132 255 
-9.14663 9.02097 0.805997 64 70 136 255 
-8.89438 8.79042 0.666316 67 61 132 255 
-8.82746 8.73978 0.544532 70 51 127 255 
-7.40089 7.29136 0.373695 48 105 142 255 
-6.7584 6.6702 0.251969 61 78 138 255 
-6.71634 6.64015 0.161559 51 98 141 255 
-6.70651 6.64452 0.0741487 53 94 141 255 
-6.70998 6.61298 -0.00164427 52 96 141 255 
-6.70691 6.62401 -0.0904913 46 110 142 255 
-6.71168 6.64018 -0.177986 46 111 142 255 
-6.03801 5.98637 -0.240469 53 95 141 255 
-6.0469 5.96572 -0.308506 42 119 142 255 
-6.03292 5.96251 -0.386658 48 106 142 255 
-6.04582 5.9835 -0.468121 47 107 142 255 
-6.03536 5.98583 -0.548203 47 107 142 255 
-6.02972 5.95085 -0.614693 50 102 142 255 
-5.73139 5.66846 -0.659905 58 84 140 255 
-5.35607 5.30642 -0.688811 52 97 141 255 
-5.35473 5.31079 -0.760742 52 97 141 255 
-5.36617 5.30152 -0.822132 50 101 142 255 
-5.35522 5.29827 -0.892954 49 104 142 255 
-5.35077 5.30301 -0.965056 52 96 141 255 
-5.34312 5.30297 -1.03656 55 91 141 255 
-5.36102 5.30197 -1.10131 50 100 142 255 
-5.34507 5.29192 -1.16978 48 106 142 255 
-5.07076 5.02726 -1.17825 55 90 140 255 
-4.8137 4.77752 -1.1861 55 90 140 255 
-4.59842 4.55412 -1.18782 47 107 142 255 
-4.37411 4.33514 -1.18816 52 96 141 255 
-4.18553 4.14962 -1.19591 52 96 141 255 
-4.02764 3.99598 -1.20907 64 69 136 255 
-3.85887 3.82569 -1.20565 61 78 138 255 
-3.72139 3.69082 -1.2139 57 86 140 255 
-3.56674 3.53861 -1.21457 60 79 138 255 
-3.407 3.37786 -1.21043 63 72 137 255 
-3.29644 3.27379 -1.21449 59 82 139 255 
-3.18554 3.16379 -1.21814 63 72 137 255 
-3.06399 3.04088 -1.21666 62 73 137 255 
-2.96141 2.93404 -1.2214 65 68 135 255 
-16.2142 16.1714 6.87907 71 47 125 255 
-16.1821 16.1118 6.604 71 44 122 255 
-16.1789 16.097 6.3593 70 52 128 255 
-16.1416 16.0606 6.1141 70 50 126 255 
-16.1596 16.1002 5.92061 69 55 129 255 
-16.1798 16.1151 5.68518 68 59 132 255 
-16.1806 16.1212 5.4541 68 59 132 255 
-16.1607 16.1077 5.22584 70 50 126 255 
-16.1433 16.0784 5.02611 68 58 131 255 
-16.143 16.0841 4.78974 69 55 129 255 
-16.116 16.0737 4.56061 69 55 129 255 
-16.108 16.0775 4.34144 72 38 119 255 
-10.8882 10.8444 2.8038 55 91 141 255 
-10.8728 10.8369 2.64884 53 94 141 255 
-10.8668 10.8459 2.49767 51 99 141 255 
-10.8504 10.8487 2.35338 51 98 141 255 
-10.8419 10.802 2.22178 64 69 136 255 
-10.835 10.803 2.07142 60 79 138 255 
-10.7227 10.7133 1.90678 62 74 137 255 
-10.4348 10.4405 1.72096 69 55 129 255 
-10.2374 10.1997 1.56736 71 47 125 255 
-10.0313 10.0121 1.40214 69 56 130 255 
-9.76344 9.75825 1.2344 69 55 129 255 
-9.55437 9.56959 1.08326 69 55 129 255 
-9.33992 9.30882 0.952172 67 61 132 255 
-9.10806 9.09385 0.8075 62 73 137 255 
-8.86993 8.87449 0.668551 70 52 128 255 
-8.74968 8.76973 0.543043 71 45 123 255 
-7.37158 7.35216 0.374486 50 100 142 255 
-6.71664 6.71084 0.251943 58 83 139 255 
-6.66982 6.67558 0.161422 56 89 140 255 
-6.67409 6.69405 0.0742429 54 93 141 255 
-6.67918 6.66391 -0.00164672 57 85 140 255 
-6.67816 6.67706 -0.0906545 46 109 142 255 
-6.68918 6.69963 -0.178476 46 111 142 255 
-6.0061 6.02826 -0.240667 58 84 140 255 
-6.02503 6.01754 -0.309269 45 112 142 255 
-6.01105 6.01425 -0.387614 49 103 142 255 
-6.01534 6.02684 -0.468615 46 111 142 255 
-6.00767 6.03195 -0.549039 48 105 142 255 
-6.00368 5.99831 -0.615778 51 98 141 255 
-5.6796 5.68659 -0.657947 58 83 139 255 
-5.33044 5.34623 -0.689721 54 92 141 255 
-5.33117 5.35271 -0.762047 55 90 140 255 
-5.34268 5.34348 -0.823541 51 99 141 255 
-5.33875 5.34719 -0.895661 50 102 142 255 
-5.32583 5.34347 -0.966453 54 93 141 255 
-5.32236 5.34759 -1.03888 56 89 140 255 
-5.32979 5.33617 -1.1016 48 105 142 255 
-5.3111 5.32321 -1.16947 57 86 140 255 
-5.02728 5.04569 -1.17532 56 89 140 255 
-4.77526 4.79789 -1.18386 56 88 140 255 
-4.57803 4.58991 -1.1898 44 114 142 255 
-4.35436 4.36885 -1.19005 50 101 142 255 
-4.16137 4.17661 -1.19631 51 98 141 255 
-3.99062 4.00814 -1.20531 62 74 137 255 
-3.83463 3.8486 -1.20543 61 77 138 255 
-3.70211 3.71703 -1.21502 57 86 140 255 
-3.52713 3.54252 -1.20846 61 78 138 255 
-3.40263 3.41519 -1.2163 62 73 137 255 
-3.26469 3.2823 -1.21019 63 71 136 255 
-3.17084 3.18806 -1.21997 63 71 136 255 
-3.04323 3.05758 -1.21584 65 66 135 255 
-2.92912 2.93788 -1.21549 66 65 134 255 
-16.1591 16.3155 6.89806 71 44 122 255 
-16.1634 16.2919 6.63706 70 51 127 255 
-16.1626 16.2794 6.39205 70 51 127 255 
-16.1523 16.2697 6.15585 69 53 129 255 
-16.1355 16.2747 5.94825 69 53 129 255 
-16.1619 16.2961 5.71393 66 63 133 255 
-16.1286 16.2679 5.47012 68 58 131 255 
-16.1206 16.2661 5.24504 70 52 128 255 
-16.1468 16.2804 5.05821 67 61 132 255 
-16.1474 16.2871 4.82059 70 52 128 255 
-16.1206 16.2768 4.59008 69 53 129 255 
-16.1237 16.292 4.37254 70 50 126 255 
-10.5243 10.6114 2.7268 72 29 111 255 
-16.1308 16.2761 3.95405 70 52 128 255 
-16.1171 16.2847 3.72732 68 58 131 255 
-16.1181 16.3146 3.51756 67 62 133 255 
-16.0882 16.227 3.31723 66 63 133 255 
-16.1019 16.2526 3.09733 65 68 135 255 
-10.6372 10.7591 1.90328 68 57 131 255 
-10.3607 10.4944 1.71934 69 55 129 255 
-10.2089 10.297 1.57264 70 51 127 255 
-9.97944 10.0834 1.40352 69 55 129 255 
-9.73839 9.85339 1.23885 70 50 126 255 
-9.51157 9.64435 1.08509 70 50 126 255 
-9.30509 9.38863 0.954477 67 61 132 255 
-9.06964 9.1673 0.809066 66 65 134 255 
-8.84898 8.96286 0.671105 69 56 130 255 
-8.71674 8.8446 0.544356 70 52 128 255 
-7.33547 7.40649 0.374953 54 93 141 255 
-6.67041 6.74695 0.251757 62 74 137 255 
-6.64348 6.73132 0.161781 54 93 141 255 
-6.6399 6.742 0.0743215 52 97 141 255 
-6.65576 6.72254 -0.00165108 47 107 142 255 
-6.65253 6.73356 -0.0908657 44 114 142 255 
-6.65075 6.7434 -0.178551 47 107 142 255 
-5.97601 6.07213 -0.24095 55 91 141 255 
-5.99432 6.06079 -0.309595 46 111 142 255 
-5.98105 6.05813 -0.388069 51 99 141 255 
-5.99577 6.08142 -0.469989 46 109 142 255 
-5.98245 6.08079 -0.550133 52 96 141 255 
-5.96957 6.03787 -0.616067 54 93 141 255 
-5.6327 5.70927 -0.65656 58 83 139 255 
-5.30802 5.38948 -0.691086 54 92 141 255 
-5.31498 5.40234 -0.764455 55 90 140 255 
-5.32097 5.38748 -0.825274 53 95 141 255 
-5.30584 5.37985 -0.895661 51 98 141 255 
-5.3006 5.38383 -0.967851 56 89 140 255 
-5.29847 5.38933 -1.04065 55 90 140 255 
-5.3032 5.37511 -1.1029 51 98 141 255 
-5.26933 5.34655 -1.16747 57 85 140 255 
-4.99 5.07012 -1.17386 56 88 140 255 
-4.72639 4.80744 -1.17904 59 81 139 255 
-4.55047 4.61861 -1.18998 43 116 142 255 
-4.32333 4.39129 -1.18891 49 103 142 255 
-4.13292 4.19927 -1.19552 51 98 141 255 
-3.95018 4.01652 -1.20052 63 72 137 255 
-3.81437 3.87554 -1.20652 60 79 138 255 
-3.6724 3.73273 -1.21277 61 78 138 255 
-3.5026 3.56132 -1.20752 62 74 137 255 
-3.38161 3.436 -1.2163 59 81 139 255 
-3.23771 3.29536 -1.20766 64 70 136 255 
-3.13431 3.19025 -1.21342 65 66 135 255 
-3.02509 3.07688 -1.21611 67 62 133 255 
-2.90296 2.94759 -1.21212 66 65 134 255 
-16.1076 16.4644 6.91906 72 35 116 255 
-16.1613 16.4909 6.67763 72 41 121 255 
-16.1002 16.4168 6.40708 71 44 122 255 
-16.1076 16.425 6.17712 69 53 129 255 
-16.0705 16.4093 5.96131 70 51 127 255 
-16.1064 16.4407 5.72987 68 58 131 255 
-16.0992 16.4388 5.49428 70 51 127 255 
-16.0927 16.4385 5.2687 71 46 124 255 
-16.0945 16.428 5.07329 68 59 132 255 
-16.0958 16.4355 4.8352 69 56 130 255 
-16.0842 16.4406 4.60835 68 57 131 255 
-16.0908 16.4594 4.39091 70 50 126 255 
-16.1146 16.4486 4.2013 72 35 116 255 
-16.1085 16.4543 3.97327 71 47 125 255 
-16.0486 16.4157 3.7347 68 58 131 255 
-16.0584 16.455 3.5265 69 56 130 255 
-16.0513 16.3897 3.33031 65 68 135 255 
-16.0587 16.4091 3.10833 64 69 136 255 
-10.5696 10.8228 1.90304 71 45 123 255 
-10.3773 10.641 1.73289 69 53 129 255 
-10.1824 10.3971 1.57835 69 53 129 255 
-9.9306 10.1579 1.40539 68 59 132 255 
-9.68192 9.91723 1.23938 70 51 127 255 
-9.48699 9.73824 1.08909 67 61 132 255 
-9.26266 9.46122 0.956061 70 52 128 255 
-9.03763 9.24776 0.811257 64 69 136 255 
-8.81404 9.03772 0.672648 70 52 128 255 
-8.66579 8.9015 0.544575 70 52 128 255 
-7.29408 7.45564 0.375169 57 85 140 255 
-6.63867 6.79776 0.252129 62 76 138 255 
-6.62299 6.79344 0.162294 53 95 141 255 
-6.61236 6.79695 0.0744785 54 92 141 255 
-6.63955 6.78899 -0.00165736 45 112 142 255 
-6.63134 6.795 -0.0911441 45 112 142 255 
-6.61902 6.7941 -0.178815 50 100 142 255 
-5.96651 6.13735 -0.242081 52 97 141 255 
-5.964 6.10461 -0.309958 50 100 142 255 
-5.95562 6.10687 -0.388843 48 106 142 255 
-5.96113 6.12095 -0.470209 49 104 142 255 
-5.94989 6.12239 -0.550584 50 100 142 255 
-5.94147 6.08366 -0.617008 55 91 141 255 
-5.58783 5.73374 -0.655417 60 79 138 255 
-5.28805 5.43551 -0.692814 55 91 141 255 
-5.29005 5.44342 -0.76566 51 98 141 255 
-5.29406 5.42643 -0.826249 52 96 141 255 
-5.27758 5.41728 -0.896485 54 92 141 255 
-5.27922 5.42834 -0.970011 55 91 141 255 
-5.27152 5.42813 -1.04188 56 89 140 255 
-5.2936 5.43164 -1.10781 52 97 141 255 
-5.22953 5.3717 -1.16594 58 84 140 255 
-4.95192 5.09356 -1.17223 59 81 139 255 
-4.68445 4.82363 -1.17594 61 77 138 255 
-4.51039 4.63446 -1.18691 45 113 142 255 
-4.27303 4.3938 -1.18247 51 99 141 255 
-4.09204 4.20909 -1.19114 54 93 141 255 
-3.9316 4.04699 -1.2024 62 74 137 255 
-3.79937 3.90797 -1.20933 60 79 138 255 
-3.63381 3.73913 -1.20758 60 79 138 255 
-3.48542 3.58763 -1.20917 62 74 137 255 
