ply
format ascii 1.0
comment VTK generated PLY File
obj_info vtkPolyData points and polygons: vtk4.0
element vertex 1181
property float x
property float y
property float z
property uchar red
property uchar green
property uchar blue
property uchar alpha
element face 0
property list uchar int vertex_indices
end_header
-1.80038 12.8097 0.101598 62 73 137 255 
-1.7731 12.3787 -0.00218253 62 74 137 255 
-1.73454 12.2018 -0.11831 60 80 139 255 
-1.71692 12.1531 -0.231383 59 81 139 255 
-1.65161 11.781 -0.336448 64 70 136 255 
-1.63346 11.4464 -0.419932 60 80 139 255 
-1.56686 11.0499 -0.508743 57 86 140 255 
-1.51554 10.7412 -0.596979 56 88 140 255 
-1.48158 10.5816 -0.689083 58 83 139 255 
-1.48204 10.3983 -0.762106 58 83 139 255 
-1.45235 10.2681 -0.84895 57 86 140 255 
-1.44605 10.2876 -0.949106 55 90 140 255 
-1.39976 9.99726 -1.01827 66 65 134 255 
-1.31245 9.243 -1.01748 51 98 141 255 
-1.22347 8.66078 -1.0368 52 96 141 255 
-1.13625 8.09384 -1.04701 55 91 141 255 
-1.06851 7.65086 -1.0637 56 89 140 255 
-1.02214 7.22563 -1.0659 50 102 142 255 
-0.968285 6.87169 -1.07926 53 95 141 255 
-0.912117 6.50553 -1.08398 54 92 141 255 
-0.858641 6.14811 -1.08566 60 80 139 255 
-0.828685 5.88766 -1.09124 53 94 141 255 
-0.793174 5.65038 -1.10083 52 97 141 255 
-0.756715 5.39715 -1.10583 58 84 140 255 
-0.723293 5.1724 -1.11298 62 74 137 255 
-0.700039 4.99256 -1.11857 57 86 140 255 
-0.666134 4.75743 -1.11259 58 84 140 255 
-0.641218 4.58503 -1.11917 58 83 139 255 
-0.619101 4.41608 -1.12506 61 77 138 255 
-0.596651 4.28234 -1.13027 61 77 138 255 
-0.574325 4.1227 -1.12937 62 74 137 255 
-0.553075 3.9598 -1.12687 65 66 135 255 
-0.541606 3.85354 -1.14014 64 70 136 255 
-1.73219 12.629 3.82922 69 55 129 255 
-1.70551 12.3557 3.60718 59 82 139 255 
-1.81069 13.0831 3.68024 72 28 110 255 
-1.88514 13.623 3.69278 67 62 133 255 
-1.71587 12.4616 3.26492 62 73 137 255 
-1.72196 12.491 3.13913 70 50 126 255 
-1.7953 13.0389 3.1429 70 50 126 255 
-0 0 0 68 1 84 255 
-0 0 0 68 1 84 255 
-0 0 0 68 1 84 255 
-1.7347 12.6479 2.5579 62 76 138 255 
-1.65759 12.1186 2.33327 72 27 109 255 
-4.93988 35.83 6.59909 70 7 90 255 
-4.75904 34.6111 6.02834 70 10 93 255 
-4.63391 33.8741 5.56199 71 14 97 255 
-0 0 0 68 2 86 255 
-2.11341 15.3488 2.24922 70 51 127 255 
-2.31614 16.8664 2.30485 46 111 142 255 
-4.71906 34.6315 4.39681 71 17 100 255 
-0 0 0 69 4 87 255 
-2.11931 15.3917 1.6851 69 56 130 255 
-0 0 0 69 4 87 255 
-2.6624 19.5639 1.7656 72 23 105 255 
-2.07062 15.3373 1.23977 72 38 119 255 
-2.10993 15.3433 1.11832 60 79 138 255 
-2.09685 15.349 0.971931 57 86 140 255 
-2.08178 15.3576 0.825779 59 81 139 255 
-1.95072 14.4872 0.64079 65 68 135 255 
-1.92021 13.9998 0.508277 64 69 136 255 
-1.83763 13.4866 0.361177 63 71 136 255 
-1.74158 12.8648 0.22207 65 66 135 255 
-1.69526 12.6233 0.100035 65 66 135 255 
-1.69399 12.3665 -0.00217852 62 74 137 255 
-1.65749 12.1963 -0.118156 61 78 138 255 
-1.63523 12.1109 -0.230384 61 77 138 255 
-1.58142 11.8068 -0.3369 63 71 136 255 
-1.56171 11.4453 -0.419532 58 84 140 255 
-1.51755 11.1959 -0.515027 59 82 139 255 
-1.43987 10.6781 -0.592967 60 79 138 255 
-1.41001 10.541 -0.685865 59 82 139 255 
-1.4003 10.2758 -0.752481 59 82 139 255 
-1.38211 10.2235 -0.844544 54 92 141 255 
-1.37707 10.2529 -0.945102 51 99 141 255 
-1.33905 10.0106 -1.01877 64 69 136 255 
-1.25745 9.26369 -1.01889 57 86 140 255 
-1.17017 8.66714 -1.03668 56 89 140 255 
-1.08564 8.09378 -1.04612 54 92 141 255 
-1.02063 7.6504 -1.06275 54 92 141 255 
-0.976593 7.22294 -1.0646 50 101 142 255 
-0.923069 6.85498 -1.07573 53 95 141 255 
-0.869825 6.49341 -1.08105 55 91 141 255 
-0.819468 6.14252 -1.08377 63 71 136 255 
-0.795821 5.917 -1.09575 53 95 141 255 
-0.757314 5.64638 -1.09912 51 99 141 255 
-0.721893 5.38906 -1.10325 60 79 138 255 
-0.692707 5.18546 -1.11486 61 78 138 255 
-0.667188 4.98031 -1.11489 59 82 139 255 
-0.640417 4.7875 -1.11868 56 89 140 255 
-0.61333 4.5908 -1.11964 61 78 138 255 
-0.592636 4.4246 -1.12628 62 74 137 255 
-0.570747 4.2888 -1.13103 60 79 138 255 
-0.547617 4.11562 -1.12649 63 72 137 255 
-0.529659 3.96979 -1.12876 64 69 136 255 
-0.517824 3.85584 -1.13986 62 73 137 255 
-1.6492 12.5976 3.81656 65 66 135 255 
-1.62289 12.3145 3.59218 55 90 140 255 
-1.769 13.3862 3.76238 69 55 129 255 
-1.78747 13.5281 3.664 66 64 134 255 
-1.57428 11.9767 3.13529 63 72 137 255 
-1.77482 13.4855 3.38627 71 42 122 255 
-1.63971 12.475 3.00448 65 66 135 255 
-1.74651 13.3074 3.07393 72 35 116 255 
-1.75284 13.3172 2.96306 70 7 90 255 
-1.64825 12.5408 2.65857 70 7 90 255 
-1.6437 12.5562 2.53728 56 88 140 255 
-4.61762 35.3746 6.80531 70 7 90 255 
-0 0 0 68 2 86 255 
-4.60493 35.0842 6.10571 70 10 93 255 
-4.54801 34.8365 5.71534 70 10 93 255 
-4.43151 34.1809 5.2865 70 11 94 255 
-2.0188 15.3585 2.24879 71 19 101 255 
-2.20836 16.8479 2.30043 53 95 141 255 
-2.56327 19.7144 2.50089 61 77 138 255 
-2.55353 19.7497 2.32175 66 64 134 255 
-2.02548 15.4093 1.68564 57 86 140 255 
-2.57285 19.7087 1.96637 61 78 138 255 
-2.54154 19.5739 1.76506 71 42 122 255 
-2.51037 19.4961 1.57466 72 29 111 255 
-2.01652 15.3619 1.11875 61 78 138 255 
-2.00224 15.3586 0.971743 55 90 140 255 
-1.98636 15.3611 0.8253 60 80 139 255 
-1.86548 14.5277 0.64206 68 57 131 255 
-1.82454 13.937 0.505581 63 72 137 255 
-1.74853 13.449 0.359877 66 65 134 255 
-1.69322 13.1122 0.226158 60 80 139 255 
-1.62209 12.6672 0.100302 66 63 133 255 
-1.61134 12.3251 -0.00216944 56 88 140 255 
-1.58622 12.234 -0.118425 59 81 139 255 
-1.56025 12.1158 -0.23029 58 84 140 255 
-1.50843 11.8123 -0.336787 65 66 135 255 
-1.49236 11.4616 -0.419787 56 88 140 255 
-1.42551 11.0247 -0.50674 58 83 139 255 
-1.3719 10.6679 -0.591923 62 74 137 255 
-1.33886 10.499 -0.682582 58 84 140 255 
-1.33388 10.2584 -0.750599 57 85 140 255 
-1.31999 10.2367 -0.844952 51 98 141 255 
-1.31097 10.2364 -0.942828 53 95 141 255 
-1.27899 10.0295 -1.01988 64 70 136 255 
-1.20122 9.27616 -1.01943 57 86 140 255 
-1.11468 8.65642 -1.03456 55 91 141 255 
-1.03583 8.09931 -1.046 58 84 140 255 
-0.974045 7.65946 -1.06316 58 83 139 255 
-0.930863 7.218 -1.06301 53 95 141 255 
-0.880236 6.85463 -1.07481 56 88 140 255 
-0.831466 6.51037 -1.08301 56 89 140 255 
-0.78723 6.19043 -1.09135 60 79 138 255 
-0.75925 5.91982 -1.09539 55 91 141 255 
-0.720911 5.63729 -1.09647 52 96 141 255 
-0.689433 5.39825 -1.10424 59 81 139 255 
-0.659888 5.18186 -1.11319 62 76 138 255 
-0.635504 4.97559 -1.11294 57 85 140 255 
-0.610537 4.78748 -1.11778 58 84 140 255 
-0.585396 4.59641 -1.12011 59 82 139 255 
-0.564494 4.42046 -1.12432 61 77 138 255 
-0.54369 4.28646 -1.12951 60 80 139 255 
-0.520047 4.10071 -1.12151 63 72 137 255 
-0.507719 3.99207 -1.13419 64 70 136 255 
-0.49769 3.88655 -1.14801 61 77 138 255 
-1.55268 12.4536 3.76995 67 62 133 255 
-1.54897 12.3376 3.59607 62 74 137 255 
-1.68839 13.4093 3.76587 70 11 94 255 
-1.69224 13.442 3.63781 71 44 122 255 
-1.55007 12.3799 3.23829 72 40 120 255 
-1.70483 13.5982 3.41188 65 66 135 255 
-1.6337 13.0484 3.14012 72 38 119 255 
-1.57499 12.5992 2.90806 66 64 134 255 
-1.67839 13.3858 2.97599 61 78 138 255 
-1.65661 13.2323 2.80296 70 48 126 255 
-1.56372 12.5427 2.53256 57 85 140 255 
-0 0 0 68 2 86 255 
-4.45221 35.5082 6.52927 70 10 93 255 
-4.40241 35.2144 6.12356 70 11 94 255 
-4.33161 34.8432 5.71197 71 16 99 255 
-4.37982 35.4886 5.48449 70 7 90 255 
-4.49048 35.8641 5.24709 71 13 96 255 
-2.10469 16.8591 2.30016 67 62 133 255 
-4.30604 34.7862 4.40942 71 13 96 255 
-4.34973 35.3461 4.15204 70 10 93 255 
-1.93114 15.4234 1.68586 46 110 142 255 
-6.46488 52.0069 5.18474 69 5 89 255 
-2.45181 19.8353 1.78724 72 20 103 255 
-2.45362 20.0246 1.6161 72 31 112 255 
-1.92 15.3561 1.11746 60 79 138 255 
-1.90698 15.3627 0.971242 57 86 140 255 
-1.88841 15.3433 0.823704 60 79 138 255 
-1.77267 14.5091 0.640746 65 68 135 255 
-1.7359 13.9231 0.504682 61 77 138 255 
-1.66659 13.4645 0.360009 59 82 139 255 
-1.60956 13.0965 0.225713 62 76 138 255 
-1.53877 12.6312 0.0999409 68 59 132 255 
-1.55767 12.5114 -0.00220051 60 79 138 255 
-1.50243 12.1731 -0.117743 65 66 135 255 
-1.48491 12.1172 -0.230139 63 72 137 255 
-1.4469 11.9116 -0.33936 66 63 133 255 
-1.39655 11.2653 -0.412273 57 85 140 255 
-1.34136 10.8994 -0.500592 57 86 140 255 
-1.30545 10.6682 -0.591484 57 85 140 255 
-1.28511 10.5952 -0.68831 61 77 138 255 
-1.27728 10.3179 -0.754362 52 96 141 255 
-1.25837 10.2545 -0.845768 54 92 141 255 
-1.2491 10.2522 -0.943556 57 86 140 255 
-1.21263 9.99762 -1.01586 66 63 133 255 
-1.1444 9.28434 -1.01954 56 89 140 255 
-1.06191 8.66606 -1.03491 55 90 140 255 
-0.985038 8.09665 -1.04485 57 85 140 255 
-0.924294 7.64267 -1.06002 57 86 140 255 
-0.886195 7.22063 -1.06258 52 96 141 255 
-0.838399 6.86187 -1.07512 54 92 141 255 
-0.791265 6.51339 -1.08268 58 84 140 255 
-0.748758 6.19123 -1.09066 62 76 138 255 
-0.721721 5.91461 -1.09359 53 94 141 255 
-0.686189 5.64063 -1.09628 55 90 140 255 
-0.655234 5.39363 -1.10245 59 82 139 255 
-0.626905 5.1761 -1.11111 61 77 138 255 
-0.60614 4.98909 -1.11511 57 85 140 255 
-0.579742 4.77953 -1.11507 56 88 140 255 
-0.558117 4.60763 -1.12199 56 88 140 255 
-0.536541 4.4171 -1.12261 60 79 138 255 
-0.514482 4.2657 -1.12319 58 84 140 255 
-0.49788 4.12874 -1.12832 60 80 139 255 
-0.48021 3.97026 -1.12714 63 71 136 255 
-0.469423 3.85333 -1.13733 63 72 137 255 
-1.47398 12.4438 3.7642 70 50 126 255 
-1.47768 12.3841 3.60691 66 64 134 255 
-1.50168 12.5471 3.52107 67 61 132 255 
-1.52711 12.7617 3.45109 72 24 106 255 
-1.52257 12.7967 3.34481 72 32 113 255 
-1.49726 12.5668 3.15073 72 28 110 255 
-1.60739 13.5102 3.24881 67 61 132 255 
-1.49708 12.6038 2.90694 68 59 132 255 
-1.46369 12.2837 2.7289 58 84 140 255 
-1.59654 13.4201 2.8406 56 89 140 255 
-1.48188 12.5111 2.52431 54 93 141 255 
-4.16417 35.2676 6.7744 69 4 87 255 
-1.44405 12.1188 2.22674 72 40 120 255 
-4.17707 35.1635 6.11013 71 13 96 255 
-4.03497 34.1683 5.59716 71 13 96 255 
-4.01104 34.2268 5.28559 71 13 96 255 
-4.27011 35.889 5.2468 71 13 96 255 
-1.99876 16.8511 2.29734 72 22 104 255 
-2.48206 21.1131 2.67426 72 22 104 255 
-2.46521 21.0996 2.4767 72 33 115 255 
-1.83494 15.4221 1.68446 43 117 142 255 
-0 0 0 68 2 86 255 
-2.47149 21.0548 1.89573 70 7 90 255 
-2.38633 20.5175 1.65467 72 27 109 255 
-1.82303 15.3449 1.1158 61 78 138 255 
-1.80871 15.3404 0.969113 59 82 139 255 
-1.79446 15.3566 0.82381 59 82 139 255 
-1.67509 14.4462 0.637506 65 66 135 255 
-1.64526 13.8899 0.503101 59 81 139 255 
-1.59759 13.5906 0.363113 62 74 137 255 
-1.53473 13.1538 0.226534 65 68 135 255 
-1.45974 12.6275 0.0998388 63 72 137 255 
-1.48687 12.5714 -0.00220941 57 85 140 255 
-1.43201 12.2188 -0.118099 63 71 136 255 
-1.40348 12.0655 -0.22899 63 72 137 255 
-1.37389 11.9213 -0.339388 66 65 134 255 
-1.326 11.2617 -0.411838 54 93 141 255 
-1.28524 10.9997 -0.504827 60 79 138 255 
-1.24791 10.7444 -0.595275 61 78 138 255 
-1.22749 10.6673 -0.692494 56 89 140 255 
-1.21045 10.2958 -0.752191 53 94 141 255 
-1.1907 10.2215 -0.842423 50 102 142 255 
-1.18582 10.2567 -0.943283 52 96 141 255 
-1.15252 10.0157 -1.01697 54 93 141 255 
-1.08707 9.28823 -1.01921 58 83 139 255 
-1.00814 8.66748 -1.03432 56 88 140 255 
-0.934999 8.09958 -1.04447 55 90 140 255 
-0.877833 7.65214 -1.06057 59 81 139 255 
-0.843935 7.24362 -1.06518 52 96 141 255 
-0.794914 6.8551 -1.07327 58 84 140 255 
-0.750494 6.51126 -1.08154 56 89 140 255 
-0.708061 6.17222 -1.08653 62 73 137 255 
-0.68519 5.91697 -1.09322 52 96 141 255 
-0.650665 5.63693 -1.09476 51 98 141 255 
-0.621341 5.39073 -1.10106 62 76 138 255 
-0.594352 5.17305 -1.10965 59 81 139 255 
-0.576857 5.00435 -1.11771 54 92 141 255 
-0.552409 4.80042 -1.11913 52 96 141 255 
-0.529834 4.61097 -1.12199 56 89 140 255 
-0.510538 4.42994 -1.12506 58 83 139 255 
-0.488079 4.26686 -1.12268 60 80 139 255 
-0.475278 4.15569 -1.13487 61 77 138 255 
-0.455401 3.96931 -1.12605 66 64 134 255 
-0.445771 3.85614 -1.13733 65 68 135 255 
-1.40935 12.5573 3.79585 69 55 129 255 
-1.42811 12.6268 3.67497 69 56 130 255 
-1.40088 12.3464 3.46229 61 77 138 255 
-1.43299 12.6317 3.41349 66 63 133 255 
-1.42298 12.6192 3.29607 63 72 137 255 
-1.42361 12.6066 3.15846 68 58 131 255 
-1.51814 13.4638 3.23534 69 53 129 255 
-1.40271 12.4616 2.87211 66 65 134 255 
-1.42621 12.6282 2.80344 60 80 139 255 
-1.49531 13.2623 2.80522 72 37 118 255 
-1.4953 13.3239 2.68639 72 31 112 255 
-1.35357 12.101 2.32278 70 11 94 255 
-1.36447 12.0815 2.21831 70 10 93 255 
-4.03333 35.8289 6.22133 70 11 94 255 
-3.77641 33.7559 5.52571 70 11 94 255 
-3.87868 34.9512 5.39368 70 10 93 255 
-4.01943 35.6451 5.20744 71 13 96 255 
-3.80182 33.8255 4.60823 70 10 93 255 
-2.35872 21.1841 2.68137 72 32 113 255 
-2.34192 21.1706 2.4833 71 17 100 255 
-1.73582 15.3936 1.68014 46 111 142 255 
-2.36575 21.1482 2.10528 71 46 124 255 
-2.35249 21.1617 1.90401 72 36 117 255 
-2.33358 21.1966 1.70825 71 17 100 255 
-1.72717 15.3409 1.11472 62 74 137 255 
-1.71067 15.3165 0.966921 54 93 141 255 
-1.68351 15.2164 0.815723 62 74 137 255 
-1.60331 14.6102 0.644294 70 52 128 255 
-1.56 13.8997 0.503101 64 69 136 255 
-1.51196 13.5803 0.362582 64 69 136 255 
-1.49867 13.5675 0.233496 62 74 137 255 
-1.38202 12.6342 0.0998231 62 76 138 255 
-1.38754 12.3825 -0.00217468 60 80 139 255 
-1.359 12.2453 -0.118271 62 76 138 255 
-1.32581 12.0411 -0.228368 65 68 135 255 
-1.2797 11.7367 -0.333904 62 76 138 255 
-1.25477 11.2508 -0.411148 58 83 139 255 
-1.20883 10.9269 -0.501138 55 90 140 255 
-1.1836 10.7667 -0.5961 58 84 140 255 
-1.15132 10.5764 -0.686122 59 82 139 255 
-1.1382 10.2218 -0.746257 54 92 141 255 
-1.12217 10.1761 -0.838099 54 92 141 255 
-1.12027 10.24 -0.941099 55 90 140 255 
-1.09405 10.0503 -1.01978 68 59 132 255 
-1.02907 9.28583 -1.01824 59 82 139 255 
-0.955701 8.68041 -1.03515 58 84 140 255 
-0.883775 8.09136 -1.04269 58 83 139 255 
-0.832574 7.67314 -1.06275 59 82 139 255 
-0.796001 7.21719 -1.06055 57 85 140 255 
-0.752298 6.85494 -1.0725 56 88 140 255 
-0.710314 6.51378 -1.08122 55 90 140 255 
-0.66922 6.16764 -1.08498 59 81 139 255 
-0.648442 5.91715 -1.0925 56 89 140 255 
-0.616705 5.64667 -1.0959 53 94 141 255 
-0.587721 5.38957 -1.10006 59 81 139 255 
-0.561225 5.16396 -1.10694 62 73 137 255 
-0.544553 4.99324 -1.11446 57 86 140 255 
-0.522839 4.80275 -1.11891 53 94 141 255 
-0.500482 4.60447 -1.11964 54 92 141 255 
-0.485029 4.44842 -1.12897 56 88 140 255 
-0.463658 4.28612 -1.12698 58 83 139 255 
-0.44811 4.14317 -1.13068 60 80 139 255 
-0.430103 3.96342 -1.12361 65 68 135 255 
-0.421267 3.85117 -1.13508 64 69 136 255 
-1.40548 13.2562 4.00442 71 19 101 255 
-1.40319 13.1272 3.81805 72 26 108 255 
-1.33321 12.4305 3.4835 58 83 139 255 
-1.36092 12.6911 3.42724 71 45 123 255 
-1.34562 12.6287 3.29632 62 76 138 255 
-1.35117 12.6614 3.17005 66 65 134 255 
-1.33131 12.495 3.00053 66 65 134 255 
-1.32879 12.4942 2.87769 67 62 133 255 
-1.34466 12.5988 2.79504 67 62 133 255 
-1.35616 12.7292 2.69065 68 58 131 255 
-1.40815 13.2821 2.67617 71 42 122 255 
-1.41356 13.3799 2.56656 69 5 89 255 
-3.66329 34.3232 6.29791 71 13 96 255 
-3.71335 34.9122 6.0581 70 10 93 255 
-3.56621 33.75 5.52105 71 13 96 255 
-3.51574 33.5578 5.17522 70 8 92 255 
-3.80158 35.6779 5.20873 69 5 89 255 
-3.62434 34.132 4.64687 71 16 99 255 
-3.71594 35.3441 4.4707 70 10 93 255 
-3.6988 35.4242 4.1525 70 8 92 255 
-1.63712 15.3644 1.67583 60 79 138 255 
-3.7434 35.4299 3.52466 69 4 87 255 
-3.72301 35.4708 3.18935 70 7 90 255 
-3.68926 35.5125 2.8601 70 8 92 255 
-1.629 15.3135 1.11198 62 74 137 255 
-1.61404 15.3019 0.965356 57 85 140 255 
-1.58638 15.1907 0.813807 63 71 136 255 
-1.51106 14.5949 0.643199 68 57 131 255 
-1.48586 14.0143 0.506911 65 66 135 255 
-1.46027 13.8905 0.37062 66 65 134 255 
-1.43821 13.7952 0.237258 67 61 132 255 
-1.28979 12.5002 0.0987 63 71 136 255 
-1.30954 12.3719 -0.00217136 58 83 139 255 
-1.27363 12.1559 -0.117331 62 74 137 255 
-1.25129 12.043 -0.228255 62 74 137 255 
-1.22668 11.9293 -0.339162 63 71 136 255 
-1.17577 11.1639 -0.4077 64 69 136 255 
-1.15058 11.0186 -0.505009 60 80 139 255 
-1.12359 10.8324 -0.599342 61 78 138 255 
-1.10658 10.7798 -0.698865 57 86 140 255 
-1.08537 10.3228 -0.753132 57 85 140 255 
-1.06218 10.2066 -0.840057 57 85 140 255 
-1.05312 10.2051 -0.937278 55 91 141 255 
-1.03308 10.0638 -1.02048 65 68 135 255 
-0.970833 9.2801 -1.01694 61 77 138 255 
-0.9016 8.67821 -1.03421 59 81 139 255 
-0.832993 8.08578 -1.04129 54 93 141 255 
-0.78588 7.68205 -1.06329 58 83 139 255 
-0.753751 7.24162 -1.06344 57 86 140 255 
-0.709612 6.85353 -1.07158 55 91 141 255 
-0.66902 6.50525 -1.0791 59 82 139 255 
-0.630862 6.16673 -1.08411 57 85 140 255 
-0.610606 5.90634 -1.08979 57 86 140 255 
-0.580939 5.63961 -1.09382 51 99 141 255 
-0.555142 5.39795 -1.10106 60 79 138 255 
-0.529829 5.17022 -1.10756 61 77 138 255 
-0.514803 5.00523 -1.11641 57 86 140 255 
-0.49326 4.80489 -1.11868 55 91 141 255 
-0.472022 4.60552 -1.11917 56 88 140 255 
-0.456634 4.4407 -1.12628 57 86 140 255 
-0.434504 4.26098 -1.11965 61 78 138 255 
-0.423267 4.15161 -1.13225 61 77 138 255 
-0.407049 3.97843 -1.12714 62 73 137 255 
-0.401273 3.889 -1.14548 62 73 137 255 
-1.24887 12.5108 3.77686 71 13 96 255 
-1.21021 12.0192 3.49356 52 96 141 255 
-1.21527 12.0263 3.36808 67 62 133 255 
-1.3602 13.4631 3.6334 72 28 110 255 
-1.30677 13.022 3.39681 72 28 110 255 
-1.27326 12.6676 3.16957 70 50 126 255 
-1.24918 12.4487 2.98752 66 65 134 255 
-1.26629 12.6437 2.91029 69 53 129 255 
-1.26733 12.6068 2.79504 66 65 134 255 
-1.25175 12.4754 2.63532 66 65 134 255 
-1.2306 12.3285 2.48246 61 77 138 255 
-1.3537 13.6122 2.60947 72 35 116 255 
-3.45262 34.3451 6.29791 71 13 96 255 
-1.42249 14.202 2.46282 71 13 96 255 
-3.33336 33.5129 5.47882 69 5 89 255 
-3.38579 34.3499 5.29408 70 7 90 255 
-3.51521 35.029 5.11075 70 7 90 255 
-3.37176 33.7227 4.58824 71 19 101 255 
-0 0 0 69 4 87 255 
-3.62652 36.924 4.32563 70 7 90 255 
-1.53805 15.3267 1.67065 72 31 112 255 
-1.6668 16.7591 1.66619 72 31 112 255 
-0 0 0 68 2 86 255 
-0 0 0 68 2 86 255 
-1.53192 15.2924 1.10975 61 77 138 255 
-1.51884 15.2986 0.964542 53 94 141 255 
-1.50007 15.2707 0.817585 58 83 139 255 
-1.43368 14.7292 0.648717 70 52 128 255 
-1.40371 14.062 0.508313 64 70 136 255 
-1.38417 13.9918 0.373087 61 78 138 255 
-1.35802 13.8495 0.238045 71 44 122 255 
-1.21181 12.495 0.0985979 66 63 133 255 
-1.234 12.3837 -0.00217206 55 91 141 255 
-1.19931 12.1665 -0.117359 64 69 136 255 
-1.17708 12.0475 -0.228198 55 91 141 255 
-1.15442 11.9466 -0.339445 57 85 140 255 
-1.10636 11.1619 -0.407374 60 80 139 255 
-1.08373 11.0334 -0.505373 53 94 141 255 
-1.06272 10.8967 -0.602529 58 84 140 255 
-1.03266 10.706 -0.693652 56 88 140 255 
-1.02142 10.3233 -0.752698 56 89 140 255 
-1.0008 10.2258 -0.841118 52 97 141 255 
-0.990484 10.2113 -0.937278 56 88 140 255 
-0.970544 10.062 -1.01968 62 73 137 255 
-0.91212 9.26808 -1.01499 63 72 137 255 
-0.846597 8.66579 -1.03209 58 84 140 255 
-0.783459 8.09173 -1.04142 53 94 141 255 
-0.738539 7.68475 -1.06302 60 80 139 255 
-0.709689 7.25005 -1.06402 57 86 140 255 
-0.666206 6.84399 -1.06943 57 86 140 255 
-0.629472 6.51317 -1.07975 60 79 138 255 
-0.593012 6.17049 -1.08411 60 79 138 255 
-0.574164 5.90802 -1.08943 56 88 140 255 
-0.546229 5.64209 -1.09363 50 101 142 255 
-0.522199 5.4032 -1.10146 54 92 141 255 
-0.497814 5.17045 -1.10694 57 85 140 255 
-0.484176 5.00927 -1.11662 59 82 139 255 
-0.463862 4.8088 -1.11891 55 90 140 255 
-0.446362 4.63542 -1.12575 56 89 140 255 
-0.426393 4.41253 -1.11845 59 82 139 255 
-0.411948 4.30112 -1.12951 57 86 140 255 
-0.399073 4.16757 -1.13592 61 77 138 255 
-0.384012 3.99522 -1.13121 63 71 136 255 
-0.375921 3.87611 -1.14098 64 69 136 255 
-1.10181 11.7678 3.55044 72 26 108 255 
-1.15795 12.254 3.55968 70 7 90 255 
-1.10298 11.6279 3.25454 66 63 133 255 
-1.27921 13.4885 3.63807 72 27 109 255 
-1.22839 13.0461 3.40108 62 76 138 255 
-1.26094 13.3688 3.34303 59 81 139 255 
-1.14925 12.2063 2.9276 69 55 129 255 
-1.18038 12.563 2.88997 72 33 115 255 
-1.19215 12.6377 2.80021 70 48 126 255 
-1.1882 12.6212 2.66453 71 46 124 255 
-1.16398 12.4325 2.50191 62 73 137 255 
-1.18095 12.6637 2.42621 69 53 129 255 
-1.25947 13.3513 2.44679 72 35 116 255 
-1.34426 14.3056 2.47932 68 58 131 255 
-3.12721 33.5278 5.47802 70 7 90 255 
-3.38944 36.6919 5.65171 70 7 90 255 
-3.30021 35.0499 5.11075 70 7 90 255 
-3.19716 34.0881 4.6352 71 14 97 255 
-3.31749 35.7704 4.51913 70 11 94 255 
-4.08036 44.34 5.19138 70 7 90 255 
-1.44491 15.3457 1.67173 69 5 89 255 
-1.56384 16.768 1.66609 65 68 135 255 
-0 0 0 68 2 86 255 
-0 0 0 69 4 87 255 
-1.43825 15.3035 1.1099 62 74 137 255 
-1.42272 15.2837 0.963039 53 95 141 255 
-1.40625 15.2787 0.817532 62 73 137 255 
-1.31852 14.4661 0.636761 68 59 132 255 
-1.3147 14.0415 0.50727 66 65 134 255 
-1.297 13.986 0.372715 65 68 135 255 
-1.2721 13.8477 0.237874 72 20 103 255 
-1.13214 12.4693 0.0983387 66 63 133 255 
-1.1552 12.3611 -0.00216683 61 78 138 255 
-1.12537 12.1816 -0.117436 62 76 138 255 
-1.10176 12.0395 -0.227915 59 81 139 255 
-1.07795 11.9186 -0.338455 62 74 137 255 
-1.03748 11.1645 -0.407228 56 89 140 255 
-1.01262 11.003 -0.503689 57 86 140 255 
-0.994027 10.8832 -0.60143 61 78 138 255 
-0.935817 10.3672 -0.67132 60 80 139 255 
-0.953915 10.2847 -0.749441 60 80 139 255 
-0.935944 10.2089 -0.839241 55 91 141 255 
-0.924658 10.1825 -0.934094 57 86 140 255 
-0.904046 10.0153 -1.01436 62 74 137 255 
-0.85204 9.23885 -1.0112 60 79 138 255 
-0.79187 8.65401 -1.03009 58 83 139 255 
-0.73469 8.10626 -1.04269 56 89 140 255 
-0.689865 7.67236 -1.0607 61 78 138 255 
-0.664106 7.24244 -1.06229 52 96 141 255 
-0.625545 6.86271 -1.07173 56 88 140 255 
-0.585674 6.47465 -1.07275 62 74 137 255 
-0.554257 6.1642 -1.08239 60 80 139 255 
-0.538526 5.91829 -1.0907 54 93 141 255 
-0.511689 5.64631 -1.09382 51 98 141 255 
-0.488682 5.4024 -1.10066 57 86 140 255 
-0.464587 5.15685 -1.1034 56 88 140 255 
-0.452287 4.9995 -1.11381 59 81 139 255 
-0.433296 4.79991 -1.1162 52 96 141 255 
-0.417388 4.63226 -1.12434 56 88 140 255 
-0.400183 4.42472 -1.1209 58 84 140 255 
-0.383995 4.28622 -1.12496 57 86 140 255 
-0.372547 4.15937 -1.13303 60 79 138 255 
-0.360697 4.01092 -1.135 63 72 137 255 
-0.350482 3.86018 -1.13564 64 69 136 255 
-0.88167 10.0827 3.04036 58 83 139 255 
-1.05358 11.9308 3.46383 69 56 130 255 
-0.959886 10.8255 3.02826 68 59 132 255 
-1.156 13.0401 3.51515 67 61 132 255 
-1.1283 12.8259 3.34179 72 26 108 255 
-1.1857 13.4536 3.36235 65 68 135 255 
-1.05712 12.0174 2.88069 64 69 136 255 
-1.05581 12.0291 2.76562 72 41 121 255 
-1.16209 13.1837 2.91955 71 45 123 255 
-1.14512 13.0192 2.74701 70 50 126 255 
-1.11107 12.707 2.55574 71 46 124 255 
-1.10424 12.6825 2.42846 69 55 129 255 
-1.12207 12.7297 2.33156 61 77 138 255 
-1.121 12.7705 2.21202 70 50 126 255 
-1.11262 12.7761 2.08629 71 13 96 255 
-2.97775 34.5484 5.31864 70 7 90 255 
-3.1268 35.5437 5.17985 70 10 93 255 
-1.33727 15.2647 2.0745 72 32 113 255 
-3.04969 35.2325 4.44874 71 17 100 255 
-3.07884 35.8673 4.19708 70 11 94 255 
-0 0 0 69 4 87 255 
-1.4617 16.7862 1.66698 50 102 142 255 
-0 0 0 68 2 86 255 
-0 0 0 68 2 86 255 
-1.34153 15.2803 1.10759 60 80 139 255 
-1.329 15.2932 0.963102 54 92 141 255 
-1.31316 15.295 0.817957 52 96 141 255 
-1.23641 14.5525 0.640221 63 71 136 255 
-1.23714 14.1478 0.510829 64 69 136 255 
-1.21779 14.0704 0.374758 62 76 138 255 
-1.19599 13.9588 0.239653 71 13 96 255 
-1.05434 12.4611 0.0982209 69 53 129 255 
-1.08342 12.4148 -0.00217503 55 90 140 255 
-1.04477 12.1205 -0.116783 60 79 138 255 
-1.02447 12.0062 -0.227161 66 65 134 255 
-0.974413 11.5644 -0.328221 63 71 136 255 
-0.967747 11.1567 -0.40672 56 88 140 255 
-0.942441 10.9782 -0.502277 54 92 141 255 
-0.923164 10.8413 -0.598792 60 80 139 255 
-0.901118 10.7168 -0.693588 59 81 139 255 
-0.888555 10.2645 -0.74756 60 80 139 255 
-0.870823 10.1856 -0.836875 51 99 141 255 
-0.858551 10.1453 -0.930182 53 95 141 255 
-0.842576 10.0206 -1.01436 65 66 135 255 
-0.79704 9.26372 -1.01336 53 94 141 255 
-0.736645 8.63397 -1.02714 57 85 140 255 
-0.68452 8.10567 -1.04206 58 84 140 255 
-0.638807 7.62907 -1.05415 60 79 138 255 
-0.618137 7.22864 -1.05969 54 93 141 255 
-0.581751 6.84672 -1.06866 54 92 141 255 
-0.547675 6.49877 -1.07617 62 76 138 255 
-0.516835 6.17239 -1.08325 56 88 140 255 
-0.502451 5.92442 -1.09124 53 95 141 255 
-0.476208 5.63956 -1.09192 51 99 141 255 
-0.454702 5.39553 -1.09867 57 85 140 255 
-0.432364 5.15278 -1.10194 60 79 138 255 
-0.418815 4.96911 -1.10644 58 84 140 255 
-0.406285 4.8316 -1.12297 55 91 141 255 
-0.389364 4.63958 -1.12552 57 86 140 255 
-0.373841 4.43676 -1.12334 58 84 140 255 
-0.359135 4.30585 -1.12951 56 89 140 255 
-0.34357 4.12022 -1.12178 59 81 139 255 
-0.334554 3.99484 -1.12985 62 74 137 255 
-0.325495 3.84696 -1.13114 62 73 137 255 
-0.819011 10.0784 3.03748 60 79 138 255 
-0.870592 10.6004 3.076 72 35 116 255 
-0.874042 10.596 2.9625 67 61 132 255 
-0.873787 10.5954 2.85465 56 88 140 255 
-1.06496 13.0207 3.39078 69 56 130 255 
-1.04654 12.7701 3.18986 70 51 127 255 
-0.982489 12.013 2.87813 60 80 139 255 
-0.96866 11.8721 2.72812 65 68 135 255 
-1.02789 12.5404 2.77565 71 42 122 255 
-1.03578 12.666 2.67111 68 57 131 255 
-1.03761 12.7693 2.56694 72 40 120 255 
-1.03702 12.8202 2.45357 71 44 122 255 
-1.04338 12.7295 2.33031 69 53 129 255 
-1.04102 12.7574 2.20862 61 77 138 255 
-1.03341 12.7728 2.08468 67 62 133 255 
-1.02415 12.7999 1.96951 72 38 119 255 
-2.74504 33.5619 4.8885 71 16 99 255 
-1.24503 15.2904 2.07692 62 73 137 255 
-2.84871 35.4405 4.4727 70 7 90 255 
-2.91951 36.6489 4.28637 70 8 92 255 
-3.73137 45.6212 4.96452 70 7 90 255 
-1.35851 16.7929 1.66678 49 104 142 255 
-0 0 0 68 2 86 255 
-0 0 0 69 4 87 255 
-1.24669 15.2753 1.10665 61 77 138 255 
-1.23401 15.2871 0.962225 56 89 140 255 
-1.21334 15.2281 0.813967 60 80 139 255 
-1.15008 14.5977 0.641885 66 65 134 255 
-1.15573 14.2219 0.513238 65 66 135 255 
-1.14025 14.1872 0.377676 59 81 139 255 
-1.09883 13.8214 0.237173 72 26 108 255 
-0.969889 12.3656 0.0974198 71 47 125 255 
-0.995015 12.2707 -0.00214867 61 78 138 255 
-0.971094 12.1356 -0.11687 58 83 139 255 
-0.947075 11.9654 -0.226276 60 79 138 255 
-0.893165 11.4386 -0.32449 63 71 136 255 
-0.89855 11.1535 -0.406394 58 84 140 255 
-0.867843 10.8931 -0.498133 56 88 140 255 
-0.85411 10.8149 -0.597034 60 80 139 255 
-0.836894 10.7421 -0.694875 57 85 140 255 
-0.82188 10.2241 -0.744231 60 79 138 255 
-0.805629 10.157 -0.834101 51 98 141 255 
-0.796985 10.1593 -0.931 51 98 141 255 
-0.784476 10.0692 -1.01877 58 84 140 255 
-0.740263 9.26942 -1.01347 55 90 140 255 
-0.681539 8.6116 -1.02397 59 81 139 255 
-0.635545 8.11961 -1.04333 55 90 140 255 
-0.592444 7.63877 -1.05497 57 85 140 255 
-0.574241 7.23821 -1.06055 56 89 140 255 
-0.539497 6.84721 -1.0682 56 88 140 255 
-0.506714 6.48824 -1.07389 63 71 136 255 
-0.479257 6.17937 -1.08394 59 82 139 255 
-0.466013 5.92641 -1.09106 51 99 141 255 
-0.441825 5.64531 -1.09249 51 98 141 255 
-0.421968 5.40311 -1.09967 55 90 140 255 
-0.401952 5.17094 -1.10527 58 84 140 255 
-0.388393 4.97256 -1.10666 58 84 140 255 
-0.375042 4.81361 -1.11823 56 89 140 255 
-0.360964 4.64285 -1.12575 55 91 141 255 
-0.346384 4.43607 -1.12261 59 82 139 255 
-0.332708 4.30798 -1.12951 55 90 140 255 
-0.319025 4.13188 -1.12439 59 82 139 255 
-0.309961 3.99586 -1.12958 60 79 138 255 
-0.303235 3.86611 -1.1362 63 71 136 255 
-0.761817 10.1453 3.05618 52 97 141 255 
-0.851222 11.2071 3.25047 70 52 128 255 
-0.801753 10.5061 2.93593 70 48 126 255 
-0.823746 10.7971 2.90755 62 73 137 255 
-0.842514 11.142 2.90014 62 76 138 255 
-1.01201 13.3549 3.33433 66 63 133 255 
-1.03013 13.624 3.26252 72 32 113 255 
-0.902393 11.9653 2.74821 67 61 132 255 
-0.95092 12.5465 2.77565 72 41 121 255 
-0.97354 12.8771 2.71431 66 65 134 255 
-0.955643 12.7275 2.55731 67 61 132 255 
-0.960019 12.8488 2.45788 70 51 127 255 
-0.965402 12.7376 2.33067 68 58 131 255 
-0.959681 12.7233 2.20165 66 64 134 255 
-0.951928 12.7376 2.07794 68 57 131 255 
-0.942685 12.7665 1.96345 69 53 129 255 
-0.967359 12.793 1.86248 66 63 133 255 
-0.963198 12.7997 1.73776 66 63 133 255 
-0.950124 12.8036 1.61509 68 59 132 255 
-0.940054 12.7916 1.49538 69 55 129 255 
-0.968877 12.8131 1.39365 72 29 111 255 
-0.958754 12.8304 1.27288 72 40 120 255 
-0.951196 12.8484 1.1521 71 46 124 255 
-0.936035 12.8287 1.0304 71 46 124 255 
-1.15167 15.2658 1.10543 71 47 125 255 
-1.13581 15.2357 0.958531 69 53 129 255 
-1.11548 15.1755 0.810774 71 42 122 255 
-0.932421 12.8408 0.56437 71 47 125 255 
-1.0552 14.0523 0.506875 70 52 128 255 
-1.02307 13.7882 0.36688 71 44 122 255 
-0.94753 12.9214 0.221626 68 57 131 255 
-0.892915 12.3564 0.097302 66 63 133 255 
-0.920676 12.2896 -0.00215094 59 82 139 255 
-0.892415 12.0845 -0.116323 61 78 138 255 
-0.865488 11.8593 -0.224165 63 71 136 255 
-0.835582 11.6193 -0.329465 64 70 136 255 
-0.828837 11.1418 -0.405777 58 83 139 255 
-0.801573 10.9062 -0.498497 55 91 141 255 
-0.786865 10.808 -0.596374 59 82 139 255 
-0.767254 10.6952 -0.691528 57 86 140 255 
-0.762895 10.2796 -0.747922 57 86 140 255 
-0.74271 10.1538 -0.833448 54 92 141 255 
-0.734634 10.164 -0.931 58 84 140 255 
-0.720328 10.0411 -1.01546 64 70 136 255 
-0.681619 9.25 -1.01087 57 85 140 255 
-0.629915 8.63245 -1.02597 62 76 138 255 
-0.585855 8.12534 -1.04358 59 81 139 255 
-0.545985 7.64819 -1.05579 56 88 140 255 
-0.52794 7.21594 -1.0568 57 85 140 255 
-0.497115 6.84546 -1.06743 55 91 141 255 
-0.466185 6.48138 -1.07226 63 71 136 255 
-0.44049 6.17041 -1.08187 58 84 140 255 
-0.429569 5.92818 -1.09088 51 99 141 255 
-0.407531 5.65281 -1.09344 53 95 141 255 
-0.388315 5.39875 -1.09828 53 94 141 255 
-0.371193 5.18697 -1.10819 59 81 139 255 
-0.356474 4.95537 -1.10233 57 85 140 255 
-0.345569 4.81679 -1.11845 52 97 141 255 
-0.329554 4.60426 -1.11588 56 88 140 255 
-0.317697 4.4178 -1.11747 61 78 138 255 
-0.304897 4.29064 -1.12445 57 86 140 255 
-0.294487 4.14531 -1.12754 60 80 139 255 
-0.28626 4.0092 -1.13283 62 74 137 255 
-0.278954 3.86024 -1.13396 61 77 138 255 
-0.703504 10.2071 3.07344 57 85 140 255 
-0.853863 12.2356 3.54718 66 64 134 255 
-0.886104 12.6325 3.52859 70 48 126 255 
-0.734376 10.4724 2.81886 62 73 137 255 
-0.879751 12.6677 3.29582 72 41 121 255 
-0.893927 12.842 3.20484 72 40 120 255 
-0.881355 12.6918 3.03792 72 32 113 255 
-0.86815 12.5366 2.87814 71 46 124 255 
-0.87636 12.5872 2.7834 72 31 112 255 
-0.882714 12.7129 2.67852 70 48 126 255 
-0.876114 12.7126 2.55319 68 59 132 255 
-0.870414 12.6977 2.4279 68 59 132 255 
-0.887365 12.7452 2.33102 66 64 134 255 
-0.880777 12.7172 2.19961 66 64 134 255 
-0.871526 12.7107 2.07264 69 56 130 255 
-0.862998 12.7524 1.96042 67 62 133 255 
-0.886719 12.7681 1.85802 66 64 134 255 
-0.884301 12.8004 1.73709 64 70 136 255 
-0.871073 12.8023 1.61422 66 64 134 255 
-0.862416 12.81 1.49688 64 69 136 255 
-0.889826 12.8128 1.393 67 62 133 255 
-0.877627 12.8013 1.26943 65 66 135 255 
-0.869981 12.8192 1.14898 67 61 132 255 
-0.855575 12.8083 1.02832 69 56 130 255 
-0.88855 12.8268 0.928406 64 70 136 255 
-0.876102 12.8118 0.805684 63 72 137 255 
-0.861864 12.7988 0.683502 64 70 136 255 
-0.852952 12.8363 0.563932 66 64 134 255 
-0.883609 12.8203 0.46223 63 72 137 255 
-0.872495 12.8248 0.341096 64 69 136 255 
-0.859987 12.8043 0.219522 62 76 138 255 
-0.815564 12.3387 0.0971213 68 58 131 255 
-0.843948 12.276 -0.00214763 63 72 137 255 
-0.812712 12.008 -0.115536 56 89 140 255 
-0.79657 11.9223 -0.225258 57 86 140 255 
-0.753778 11.4647 -0.324942 63 72 137 255 
-0.761408 11.1607 -0.406285 57 85 140 255 
-0.733028 10.887 -0.497404 56 89 140 255 
-0.717347 10.7648 -0.593737 58 83 139 255 
-0.69848 10.6519 -0.688439 60 79 138 255 
-0.693374 10.1896 -0.741047 59 82 139 255 
-0.680194 10.1552 -0.833203 55 91 141 255 
-0.671269 10.1535 -0.929636 54 93 141 255 
-0.658052 10.0354 -1.01446 63 72 137 255 
-0.624113 9.24309 -1.00968 58 83 139 255 
-0.575876 8.6203 -1.02408 60 80 139 255 
-0.535792 8.12581 -1.0432 55 91 141 255 
-0.498466 7.6425 -1.05456 55 90 140 255 
-0.483125 7.21115 -1.05564 56 89 140 255 
-0.455103 6.84839 -1.06743 54 92 141 255 
-0.42589 6.47624 -1.07096 62 76 138 255 
-0.402044 6.16415 -1.08032 58 83 139 255 
-0.392991 5.92776 -1.09034 52 97 141 255 
-0.372709 5.65325 -1.09306 52 97 141 255 
-0.355503 5.40592 -1.09927 53 94 141 255 
-0.339551 5.19207 -1.10881 60 80 139 255 
-0.326125 4.95844 -1.10254 55 91 141 255 
-0.313904 4.78674 -1.11101 55 90 140 255 
-0.300916 4.60037 -1.11447 56 88 140 255 
-0.29103 4.42644 -1.11918 62 76 138 255 
-0.279003 4.29918 -1.12622 55 91 141 255 
-0.269671 4.15667 -1.13015 61 78 138 255 
-0.261404 4.00704 -1.13175 61 78 138 255 
-0.256718 3.8839 -1.14042 62 76 138 255 
-0.660297 10.5209 3.16666 65 66 135 255 
-0.684901 10.7652 3.11961 70 50 126 255 
-0.806914 12.6118 3.52134 69 55 129 255 
-0.680153 10.6338 2.86113 66 64 134 255 
-0.683347 10.7979 2.80819 66 63 133 255 
-0.665129 10.4833 2.61514 67 62 133 255 
-0.802051 12.6746 3.03258 69 55 129 255 
-0.789983 12.5222 2.87368 71 47 125 255 
-0.766455 12.0777 2.66966 62 74 137 255 
-0.804075 12.7084 2.67646 69 53 129 255 
-0.796314 12.6893 2.54749 68 59 132 255 
-0.792058 12.6959 2.42659 68 57 131 255 
-0.806839 12.7141 2.32438 67 62 133 255 
-0.801675 12.7056 2.19671 65 66 135 255 
-0.79358 12.7168 2.0728 66 64 134 255 
-0.784796 12.7584 1.96057 67 61 132 255 
-0.808797 12.7802 1.85903 62 74 137 255 
-0.806551 12.8185 1.73884 65 68 135 255 
-0.791952 12.7985 1.61309 66 63 133 255 
-0.783617 12.8121 1.49653 69 56 130 255 
-0.810249 12.8032 1.39138 66 65 134 255 
-0.800055 12.8223 1.27101 63 71 136 255 
-0.791798 12.8323 1.14969 66 64 134 255 
-0.776968 12.8133 1.02832 65 66 135 255 
-0.807819 12.8001 0.926101 63 72 137 255 
-0.797288 12.814 0.805496 60 79 138 255 
-0.78295 12.7979 0.683183 64 70 136 255 
-0.773812 12.8353 0.563669 65 66 135 255 
-0.804553 12.8195 0.462014 58 83 139 255 
-0.792675 12.812 0.340619 61 77 138 255 
-0.780187 12.7894 0.21918 60 80 139 255 
-0.737986 12.3125 0.0968779 58 83 139 255 
-0.767483 12.263 -0.00214449 58 83 139 255 
-0.737544 11.9888 -0.115305 61 77 138 255 
-0.721888 11.902 -0.224786 62 74 137 255 
-0.67771 11.3733 -0.322228 65 68 135 255 
-0.692542 11.1592 -0.406067 58 84 140 255 
-0.664078 10.8564 -0.495811 57 85 140 255 
-0.649835 10.7451 -0.592418 57 85 140 255 
-0.6308 10.6172 -0.685929 54 92 141 255 
-0.628066 10.1489 -0.73779 54 93 141 255 
-0.617265 10.1492 -0.832387 55 91 141 255 
-0.609969 10.1743 -0.931182 55 91 141 255 
-0.59611 10.0333 -1.01385 61 78 138 255 
-0.567326 9.24576 -1.00957 59 81 139 255 
-0.520447 8.58204 -1.01914 61 78 138 255 
-0.4861 8.13191 -1.04358 58 84 140 255 
-0.451388 7.64245 -1.05415 59 82 139 255 
-0.43977 7.22879 -1.05781 55 90 140 255 
-0.413311 6.85499 -1.06805 56 89 140 255 
-0.386672 6.4876 -1.07243 58 83 139 255 
-0.363517 6.1547 -1.07826 57 86 140 255 
-0.356848 5.93399 -1.09106 53 95 141 255 
-0.336784 5.63485 -1.08908 54 93 141 255 
-0.321394 5.39235 -1.09609 55 91 141 255 
-0.306299 5.17063 -1.10381 60 79 138 255 
-0.297263 4.98666 -1.10839 57 86 140 255 
-0.285567 4.80608 -1.11507 55 91 141 255 
-0.272971 4.60699 -1.11565 57 86 140 255 
-0.265017 4.4475 -1.12408 61 78 138 255 
-0.252222 4.29405 -1.12445 56 89 140 255 
-0.245576 4.18233 -1.1367 57 86 140 255 
-0.236869 4.00953 -1.13202 60 79 138 255 
-0.232538 3.87965 -1.13874 64 70 136 255 
-0.579655 10.2408 3.08121 62 76 138 255 
-0.605938 10.5448 3.05461 52 97 141 255 
-0.658226 11.3836 3.17723 62 73 137 255 
-0.620187 10.7294 2.88577 70 50 126 255 
-0.654508 11.4571 2.97852 72 41 121 255 
-0.606175 10.5811 2.63857 61 77 138 255 
-0.707736 12.3899 2.96337 68 58 131 255 
-0.7133 12.5298 2.87435 71 46 124 255 
-0.695517 12.1378 2.68194 63 71 136 255 
-0.726696 12.7238 2.67872 69 53 129 255 
-0.720932 12.738 2.55633 72 37 118 255 
-0.715851 12.731 2.4324 72 32 113 255 
-0.72763 12.6982 2.32061 70 48 126 255 
-0.71933 12.6335 2.18345 65 68 135 255 
-0.716201 12.7332 2.07473 68 57 131 255 
-0.71114 12.8469 1.97345 72 29 111 255 
-0.732678 12.8254 1.86492 69 55 129 255 
-0.728557 12.8351 1.74045 70 52 128 255 
-0.713076 12.7971 1.61234 70 50 126 255 
-0.70608 12.8365 1.49885 72 41 121 255 
-0.732186 12.8168 1.39236 67 61 132 255 
-0.721866 12.836 1.27189 69 53 129 255 
-0.716194 12.8936 1.15477 68 58 131 255 
-0.698875 12.8278 1.02912 69 53 129 255 
-0.730625 12.8288 0.92783 66 63 133 255 
-0.719654 12.8366 0.806624 62 76 138 255 
-0.705615 12.8244 0.684354 66 65 134 255 
-0.695366 12.8458 0.563932 65 66 135 255 
-0.7265 12.8351 0.46241 63 72 137 255 
-0.713714 12.8106 0.34046 62 74 137 255 
-0.700439 12.7709 0.218787 62 74 137 255 
-0.663175 12.3308 0.0969878 66 63 133 255 
-0.691041 12.2465 -0.00214082 62 76 138 255 
-0.662034 11.9581 -0.114969 62 76 138 255 
-0.647593 11.8833 -0.224353 60 79 138 255 
-0.610259 11.4211 -0.323472 63 71 136 255 
-0.615858 11.0165 -0.400732 59 81 139 255 
-0.589934 10.7236 -0.489572 60 79 138 255 
-0.578422 10.6482 -0.586868 58 84 140 255 
-0.558955 10.4953 -0.67782 59 82 139 255 
-0.565671 10.1505 -0.737646 56 89 140 255 
-0.552912 10.115 -0.829287 54 92 141 255 
-0.547743 10.1818 -0.931546 53 95 141 255 
-0.534641 10.0388 -1.01405 61 77 138 255 
-0.510091 9.24013 -1.0086 59 82 139 255 
-0.467779 8.58507 -1.01914 59 82 139 255 
-0.434442 8.10206 -1.03939 57 85 140 255 
-0.403911 7.63419 -1.05265 58 83 139 255 
-0.395407 7.23135 -1.05781 51 98 141 255 
-0.371242 6.8574 -1.06805 57 85 140 255 
-0.346015 6.47409 -1.06982 61 78 138 255 
-0.326214 6.16567 -1.07981 56 89 140 255 
-0.318629 5.90267 -1.08492 53 94 141 255 
-0.302991 5.65151 -1.09192 52 97 141 255 
-0.288248 5.39324 -1.09589 55 90 140 255 
-0.275655 5.19292 -1.10819 58 84 140 255 
-0.267181 4.99814 -1.11056 58 83 139 255 
-0.256487 4.81553 -1.11687 55 90 140 255 
-0.244595 4.60663 -1.11518 56 88 140 255 
-0.238137 4.45679 -1.12603 56 88 140 255 
-0.225514 4.28876 -1.12268 57 85 140 255 
-0.218389 4.15484 -1.12885 58 83 139 255 
-0.212771 4.02052 -1.13473 60 79 138 255 
-0.207543 3.85897 -1.13227 61 77 138 255 
-0.510245 10.1141 3.04209 60 80 139 255 
-0.542997 10.5828 3.06461 64 69 136 255 
-0.551036 10.665 2.97565 55 91 141 255 
-0.547018 10.5912 2.84765 60 80 139 255 
-0.536745 10.53 2.73659 72 41 121 255 
-0.535243 10.4674 2.60934 71 45 123 255 
-0.681853 13.378 3.19865 71 17 100 255 
-0.710895 14.001 3.21078 67 62 133 255 
-0.692309 13.5355 2.98977 72 36 117 255 
-0 0 0 68 1 84 255 
-0 0 0 68 1 84 255 
-0 0 0 68 1 84 255 
-0.634425 12.4038 2.26605 68 57 131 255 
-0.640499 12.6121 2.17903 71 14 97 255 
-1.70504 34.0373 5.54417 69 5 89 255 
-1.75093 35.5863 5.46478 69 5 89 255 
-1.83883 36.0745 5.24379 71 13 96 255 
-0.772254 15.2591 2.06847 58 83 139 255 
-0.827732 16.6987 2.10324 45 113 142 255 
-2.63101 53.8555 6.28642 69 5 89 255 
-0.656414 12.8777 1.3985 70 8 92 255 
-0.765001 15.2742 1.513 70 50 126 255 
-0 0 0 68 2 86 255 
-0 0 0 68 2 86 255 
-0.653261 12.8599 0.929774 72 36 117 255 
-0.758584 15.1992 0.954774 70 51 127 255 
-0.742187 15.1873 0.810189 70 50 126 255 
-0.697782 14.5433 0.63825 72 33 115 255 
-0.650249 12.8893 0.464207 63 72 137 255 
-0.637917 12.8717 0.341972 64 69 136 255 
-0.626733 12.8709 0.220429 60 80 139 255 
-0.592022 12.4295 0.0977339 60 79 138 255 
-0.616136 12.2555 -0.00214169 62 74 137 255 
-0.592235 12.0349 -0.11567 60 79 138 255 
-0.571915 11.8301 -0.223279 58 84 140 255 
-0.534787 11.3108 -0.320249 64 70 136 255 
-0.547803 11.0111 -0.400405 58 84 140 255 
-0.529584 10.8388 -0.494672 58 83 139 255 
-0.508079 10.5478 -0.581153 59 81 139 255 
-0.493419 10.4746 -0.676275 56 89 140 255 
-0.506193 10.2106 -0.74177 58 84 140 255 
-0.491513 10.1322 -0.830429 53 94 141 255 
-0.483552 10.1492 -0.928271 53 95 141 255 
-0.472613 10.0329 -1.01315 59 81 139 255 
-0.453239 9.24011 -1.00827 62 73 137 255 
-0.415812 8.60266 -1.02091 54 93 141 255 
-0.38458 8.1016 -1.03901 58 83 139 255 
-0.357153 7.6385 -1.05293 56 88 140 255 
-0.35194 7.25242 -1.06055 55 90 140 255 
-0.329348 6.8635 -1.06866 56 88 140 255 
-0.307124 6.49383 -1.07275 55 90 140 255 
-0.289296 6.18723 -1.08325 56 88 140 255 
-0.281324 5.88192 -1.08077 53 94 141 255 
-0.268402 5.65523 -1.0923 53 95 141 255 
-0.255058 5.39295 -1.09549 56 88 140 255 
-0.24342 5.1867 -1.10652 59 82 139 255 
-0.236232 4.99383 -1.10926 55 90 140 255 
-0.226292 4.80339 -1.11372 55 91 141 255 
-0.216735 4.61679 -1.11729 57 85 140 255 
-0.210283 4.44751 -1.12334 58 83 139 255 
-0.199553 4.29779 -1.12471 57 86 140 255 
-0.193652 4.1725 -1.1333 58 83 139 255 
-0.186973 3.99772 -1.12795 58 83 139 255 
-0.183815 3.85921 -1.13199 62 76 138 255 
-0.464791 10.4921 3.15486 60 79 138 255 
-0.480349 10.6368 3.07933 62 73 137 255 
-0.534776 11.7488 3.27708 71 47 125 255 
-0.487771 10.7208 2.88162 72 36 117 255 
-0.462893 10.3271 2.68308 70 52 128 255 
-0.468303 10.4104 2.59436 52 96 141 255 
-0.620919 13.8542 3.31152 70 10 93 255 
-0.517682 11.6008 2.65958 72 28 110 255 
-0.631983 14.0448 3.10136 60 80 139 255 
-0 0 0 68 1 84 255 
-0 0 0 68 1 84 255 
-0.536205 12.2069 2.33084 72 38 119 255 
-0.555563 12.3465 2.25492 69 53 129 255 
-0 0 0 68 1 84 255 
-1.6012 36.4374 5.93339 69 5 89 255 
-1.54658 35.9223 5.51481 70 8 92 255 
-1.61098 35.9408 5.22281 71 14 97 255 
-0.67707 15.2289 2.06377 72 31 112 255 
-0.724739 16.6916 2.10174 55 90 140 255 
-0 0 0 68 2 86 255 
-2.33625 52.1217 5.6587 69 5 89 255 
-0.67262 15.3094 1.51605 53 95 141 255 
-0 0 0 68 2 86 255 
-3.21369 76.189 6.10868 70 8 92 255 
-2.32001 51.9618 3.75575 70 7 90 255 
-0.665397 15.2055 0.954899 58 84 140 255 
-0.649326 15.1996 0.810615 63 71 136 255 
-0.613042 14.6551 0.64298 68 58 131 255 
-0.632139 14.2698 0.513777 65 66 135 255 
-0.616413 14.1996 0.377145 64 70 136 255 
-0.595051 13.9863 0.239465 71 13 96 255 
-0.513134 12.37 0.0972391 63 72 137 255 
-0.538325 12.2001 -0.0021314 62 74 137 255 
-0.518853 12.0493 -0.115776 60 80 139 255 
-0.501719 11.8903 -0.224353 63 72 137 255 
-0.468004 11.3778 -0.322058 61 77 138 255 
-0.480361 11.0173 -0.400514 55 90 140 255 
-0.460895 10.7909 -0.49235 62 73 137 255 
-0.442679 10.5347 -0.580274 60 79 138 255 
-0.425831 10.3967 -0.671062 54 93 141 255 
-0.445523 10.2593 -0.745099 56 89 140 255 
-0.428448 10.1141 -0.828716 53 94 141 255 
-0.420113 10.1241 -0.925724 54 92 141 255 
-0.410555 10.0237 -1.01195 62 74 137 255 
-0.395725 9.22384 -1.00621 61 78 138 255 
-0.363689 8.62092 -1.02279 53 95 141 255 
-0.334985 8.10678 -1.03939 59 82 139 255 
-0.310961 7.65738 -1.05525 56 89 140 255 
-0.306847 7.2406 -1.05853 55 90 140 255 
-0.286526 6.84861 -1.06605 57 85 140 255 
-0.266826 6.48475 -1.07096 56 89 140 255 
-0.250927 6.17905 -1.08153 58 83 139 255 
-0.246497 5.914 -1.08636 56 89 140 255 
-0.232967 5.63911 -1.08889 53 94 141 255 
-0.222285 5.40225 -1.09708 54 92 141 255 
-0.211312 5.18125 -1.10506 58 84 140 255 
-0.205184 4.98544 -1.10709 57 86 140 255 
-0.196775 4.80371 -1.11349 56 88 140 255 
-0.187887 4.6054 -1.11424 56 88 140 255 
-0.183268 4.4555 -1.12506 58 84 140 255 
-0.173607 4.30957 -1.12749 57 86 140 255 
-0.168007 4.17264 -1.13303 54 92 141 255 
-0.162753 4.00648 -1.13012 57 85 140 255 
-0.160172 3.86122 -1.13227 59 81 139 255 
-0.377875 9.90426 2.97735 58 84 140 255 
-0.416309 10.6712 3.0885 70 51 127 255 
-0.403407 10.2464 2.85728 56 88 140 255 
-0.407778 10.3626 2.78463 71 45 123 255 
-0.537329 13.8929 3.60859 72 28 110 255 
-0.403362 10.3859 2.5876 61 78 138 255 
-0.399951 10.3423 2.47145 72 41 121 255 
-0.445517 11.5784 2.65377 72 36 117 255 
-0.547651 14.0962 3.11192 72 31 112 255 
-0 0 0 68 1 84 255 
-0 0 0 68 2 86 255 
-0.460442 12.1874 2.32653 68 59 132 255 
-0.47464 12.217 2.23069 70 7 90 255 
-0 0 0 68 1 84 255 
-2.98051 78.8543 12.8373 69 4 87 255 
-0 0 0 68 2 86 255 
-1.72072 44.49 6.4635 70 7 90 255 
-1.71237 44.6942 6.05527 69 5 89 255 
-0.569534 15.2799 1.9235 56 89 140 255 
-0.557681 15.2544 1.77968 62 76 138 255 
-0.590396 15.265 1.65685 66 65 134 255 
-0.57837 15.3053 1.51526 46 109 142 255 
-0.566923 15.2815 1.36746 60 80 139 255 
-0.550406 15.2741 1.22436 61 78 138 255 
-0.586423 15.231 1.10061 72 41 121 255 
-0.571672 15.1983 0.95421 58 83 139 255 
-0.556307 15.2102 0.810987 66 65 134 255 
-0.525496 14.7255 0.645914 69 55 129 255 
-0.546055 14.3123 0.515179 68 57 131 255 
-0.531657 14.2671 0.378843 65 68 135 255 
-0.443682 12.1891 0.208644 72 27 109 255 
-0.435104 12.3129 0.0967679 64 69 136 255 
-0.463229 12.1972 -0.00213035 59 81 139 255 
-0.444246 12.0342 -0.115603 58 83 139 255 
-0.422917 11.7313 -0.2213 60 80 139 255 
-0.394303 11.2696 -0.31892 62 73 137 255 
-0.416678 11.1249 -0.404325 55 91 141 255 
-0.388432 10.6229 -0.484563 59 81 139 255 
-0.375632 10.4704 -0.576592 57 85 140 255 
-0.361892 10.3951 -0.670805 57 85 140 255 
-0.378775 10.1602 -0.737718 56 88 140 255 
-0.365443 10.0906 -0.826594 50 101 142 255 
-0.357703 10.1185 -0.924996 56 88 140 255 
-0.349181 10.03 -1.01235 64 70 136 255 
-0.338244 9.20226 -1.00361 62 76 138 255 
-0.310034 8.60215 -1.02032 52 96 141 255 
-0.285132 8.10571 -1.03901 56 89 140 255 
-0.263697 7.65122 -1.05415 56 89 140 255 
-0.262019 7.23147 -1.05694 55 91 141 255 
-0.245027 6.86505 -1.06835 57 86 140 255 
-0.226652 6.47541 -1.06917 58 84 140 255 
-0.212804 6.17456 -1.0805 57 86 140 255 
-0.209926 5.90754 -1.08492 55 90 140 255 
-0.197948 5.62866 -1.08662 56 88 140 255 
-0.188825 5.3947 -1.09529 53 94 141 255 
-0.179076 5.16975 -1.10235 58 83 139 255 
-0.174522 4.98465 -1.10666 57 86 140 255 
-0.167398 4.80775 -1.11417 55 90 140 255 
-0.159154 4.59287 -1.11095 59 81 139 255 
-0.156435 4.47107 -1.12873 59 82 139 255 
-0.147293 4.31442 -1.1285 55 90 140 255 
-0.141677 4.15237 -1.12727 55 91 141 255 
-0.138133 4.00644 -1.12985 58 83 139 255 
-0.136951 3.87556 -1.1362 62 73 137 255 
-0.31627 9.88055 2.96959 58 83 139 255 
-0.346879 10.5536 3.05377 69 56 130 255 
-0.339985 10.2323 2.85272 51 98 141 255 
-0.338417 10.1912 2.73795 72 40 120 255 
-0.344185 10.5797 2.74739 69 5 89 255 
-0.33985 10.395 2.58929 69 56 130 255 
-0.336358 10.3407 2.47052 64 69 136 255 
-0.453094 14.0127 3.21101 71 16 99 255 
-0.460542 14.0808 3.10782 71 14 97 255 
-0.459735 14.1375 2.97307 72 41 121 255 
-0.385212 12.0365 2.41292 68 58 131 255 
-0.384721 12.1605 2.3209 72 20 103 255 
-0 0 0 68 2 86 255 
-0 0 0 68 2 86 255 
-0 0 0 68 1 84 255 
-0 0 0 68 2 86 255 
-1.16817 35.9074 5.21548 69 4 87 255 
-2.74076 85.1973 11.5402 69 4 87 255 
-0.515129 16.5475 2.08264 70 10 93 255 
-0 0 0 69 4 87 255 
-1.98232 60.9332 6.6122 69 5 89 255 
-1.91447 60.4972 5.98811 69 5 89 255 
-2.17981 70.4171 6.29997 69 5 89 255 
-2.27614 76.144 6.10237 69 5 89 255 
-0.491182 15.1795 1.09664 72 26 108 255 
-0.47803 15.1896 0.953459 59 81 139 255 
-0.463059 15.2164 0.811147 63 71 136 255 
-0.43944 14.8742 0.652308 68 58 131 255 
-0.460464 14.3853 0.517695 68 58 131 255 
-0.439348 14.1172 0.374784 65 66 135 255 
-0.423373 13.9925 0.239465 72 35 116 255 
-0.358407 12.2764 0.0964616 64 70 136 255 
-0.387139 12.1608 -0.00212354 64 69 136 255 
-0.373073 12.1237 -0.116438 61 77 138 255 
-0.351823 11.7636 -0.221865 63 71 136 255 
-0.32431 11.2428 -0.3181 62 74 137 255 
-0.347096 11.0853 -0.402801 54 92 141 255 
-0.323365 10.629 -0.484745 56 89 140 255 
-0.311172 10.4655 -0.576208 60 80 139 255 
-0.297501 10.3762 -0.669453 60 80 139 255 
-0.315494 10.1324 -0.735547 56 89 140 255 
-0.302982 10.0747 -0.825126 54 93 141 255 
-0.29468 10.0887 -0.922084 52 97 141 255 
-0.286976 10.0091 -1.01004 63 71 136 255 
-0.281713 9.20217 -1.0034 66 64 134 255 
-0.256979 8.59496 -1.01926 50 101 142 255 
-0.235275 8.10334 -1.0385 57 86 140 255 
-0.216633 7.64874 -1.05361 61 77 138 255 
-0.217286 7.22108 -1.05521 54 92 141 255 
-0.202549 6.85457 -1.06651 54 92 141 255 
-0.187371 6.49246 -1.07177 58 84 140 255 
-0.175165 6.18461 -1.08205 61 78 138 255 
-0.173356 5.8979 -1.08293 54 93 141 255 
-0.163379 5.62878 -1.08643 55 91 141 255 
-0.15654 5.42416 -1.10106 55 91 141 255 
-0.146711 5.14826 -1.09756 62 73 137 255 
-0.143905 4.98465 -1.10644 54 92 141 255 
-0.137449 4.79311 -1.11056 59 82 139 255 
-0.130804 4.58793 -1.10954 60 80 139 255 
-0.128858 4.4671 -1.1275 59 81 139 255 
