ply
format ascii 1.0
comment VTK generated PLY File
obj_info vtkPolyData points and polygons: vtk4.0
element vertex 1163
property float x
property float y
property float z
property uchar red
property uchar green
property uchar blue
property uchar alpha
element face 0
property list uchar int vertex_indices
end_header
9.62177 -3.83133 1.4021 38 130 142 255 
9.6195 -3.842 1.30306 37 132 142 255 
9.65223 -3.86307 1.21212 33 142 141 255 
9.65618 -3.84097 1.1271 38 129 142 255 
9.64372 -3.84592 1.02714 36 135 142 255 
9.6524 -3.8571 0.929515 33 145 140 255 
9.64939 -3.86778 0.832766 32 146 140 255 
9.67486 -3.85036 0.751886 33 144 141 255 
9.62569 -3.84068 0.650208 33 142 141 255 
9.65477 -3.8639 0.554102 33 145 140 255 
9.67708 -3.8828 0.457075 33 145 140 255 
9.67387 -3.85387 0.374558 32 147 140 255 
9.67051 -3.86247 0.27632 32 146 140 255 
9.66916 -3.87162 0.178166 34 141 141 255 
9.69215 -3.89276 0.082034 37 133 142 255 
9.68503 -3.86027 -0.00181968 31 148 140 255 
9.68884 -3.87371 -0.100167 33 143 141 255 
9.68236 -3.88083 -0.196646 35 136 142 255 
6.25565 -2.51506 -0.190685 46 109 142 255 
6.27969 -2.50677 -0.245571 40 125 142 255 
6.25097 -2.50175 -0.306922 40 125 142 255 
6.27409 -2.51601 -0.372013 40 124 142 255 
6.26696 -2.52087 -0.43564 40 125 142 255 
6.27526 -2.50627 -0.490292 39 126 142 255 
6.25793 -2.50707 -0.551879 44 114 142 255 
6.26268 -2.51524 -0.616573 46 109 142 255 
6.25842 -2.51744 -0.680452 51 99 141 255 
6.27095 -2.50835 -0.736105 42 119 142 255 
6.26612 -2.51161 -0.800197 49 104 142 255 
6.28429 -2.5252 -0.867597 44 114 142 255 
6.27922 -2.52835 -0.93207 42 118 142 255 
6.27269 -2.51285 -0.986988 54 93 141 255 
6.26076 -2.512 -1.04914 50 101 142 255 
6.23877 -2.50817 -1.10955 63 72 137 255 
5.95861 -2.39925 -1.12339 56 89 140 255 
5.69391 -2.2856 -1.12608 54 93 141 255 
5.46196 -2.19482 -1.13568 54 93 141 255 
5.22663 -2.10126 -1.14302 52 97 141 255 
5.02291 -2.02147 -1.15383 56 89 140 255 
4.79893 -1.92926 -1.1476 54 93 141 255 
4.63034 -1.86252 -1.15591 55 90 140 255 
4.41213 -1.7756 -1.14972 63 71 136 255 
4.28314 -1.72202 -1.16469 63 71 136 255 
4.13589 -1.66689 -1.16568 61 78 138 255 
3.98335 -1.6055 -1.16524 59 82 139 255 
3.83746 -1.54511 -1.16593 62 73 137 255 
3.7179 -1.49326 -1.17388 65 68 135 255 
8.21673 -3.33194 2.66348 62 73 137 255 
12.8299 -5.18981 4.00252 65 68 135 255 
12.6978 -5.13105 3.81606 68 57 131 255 
14.5195 -5.86755 4.20495 70 48 126 255 
16.0469 -6.49735 4.49341 71 42 122 255 
16.2028 -6.55745 4.35164 69 56 130 255 
14.8279 -6.00386 3.81993 72 37 118 255 
14.4803 -5.86637 3.57825 70 50 126 255 
9.58341 -3.87836 2.28062 48 106 142 255 
9.59144 -3.88371 2.17499 46 111 142 255 
9.59438 -3.89065 2.07442 48 106 142 255 
9.60486 -3.899 1.97743 50 100 142 255 
9.67632 -3.91596 1.90456 52 97 141 255 
9.65396 -3.91098 1.7973 31 151 139 255 
9.64668 -3.91578 1.6937 31 148 140 255 
9.63598 -3.92141 1.59565 31 154 138 255 
9.6517 -3.90795 1.51165 31 156 137 255 
9.64492 -3.90928 1.40894 31 150 139 255 
9.64353 -3.92038 1.30955 31 151 139 255 
9.65134 -3.93159 1.21502 31 154 138 255 
9.65823 -3.9106 1.13012 38 130 142 255 
9.64853 -3.91662 1.03019 30 157 137 255 
9.64701 -3.92375 0.931296 31 153 138 255 
9.65501 -3.93897 0.835321 31 151 139 255 
9.68156 -3.92201 0.754262 31 156 137 255 
9.65095 -3.91957 0.653527 31 161 136 255 
9.65308 -3.93211 0.555379 31 153 138 255 
9.65215 -3.94172 0.457032 32 147 140 255 
9.67783 -3.92442 0.375636 31 158 137 255 
9.67441 -3.93303 0.277116 31 150 139 255 
9.67485 -3.94295 0.178713 31 152 139 255 
9.66345 -3.95027 0.0819947 31 161 136 255 
9.68433 -3.92902 -0.00182404 31 156 137 255 
9.67322 -3.93648 -0.100254 32 146 140 255 
9.67225 -3.94583 -0.196929 33 145 140 255 
6.24935 -2.55718 -0.190968 44 113 142 255 
6.26049 -2.54375 -0.245426 39 127 142 255 
6.24198 -2.54269 -0.30724 39 128 142 255 
6.25114 -2.55145 -0.371573 39 126 142 255 
6.25691 -2.56155 -0.436026 41 123 142 255 
6.25884 -2.54435 -0.49022 40 125 142 255 
6.25628 -2.55106 -0.553103 37 131 142 255 
6.25266 -2.55589 -0.617119 41 121 142 255 
6.24286 -2.55579 -0.680452 44 114 142 255 
6.24163 -2.54116 -0.73448 39 128 142 255 
6.26071 -2.55414 -0.801492 38 130 142 255 
6.25398 -2.5577 -0.865564 41 122 142 255 
6.26542 -2.56758 -0.932343 45 113 142 255 
6.26265 -2.55354 -0.987855 49 103 142 255 
6.25163 -2.55298 -1.05022 51 99 141 255 
6.25522 -2.55948 -1.11524 62 76 138 255 
5.94469 -2.43614 -1.12356 57 86 140 255 
5.68615 -2.3231 -1.12734 57 86 140 255 
5.4493 -2.22866 -1.13587 50 102 142 255 
5.22181 -2.13663 -1.14481 55 91 141 255 
5.00407 -2.04966 -1.15238 59 82 139 255 
4.80779 -1.96717 -1.15258 53 94 141 255 
4.61702 -1.89016 -1.15546 56 89 140 255 
4.42004 -1.81037 -1.15465 66 65 134 255 
4.27877 -1.75084 -1.1664 64 70 136 255 
4.11752 -1.68893 -1.1634 62 74 137 255 
3.96271 -1.62552 -1.1621 61 77 138 255 
3.84839 -1.57702 -1.17217 61 77 138 255 
3.70067 -1.51278 -1.17135 63 72 137 255 
12.8847 -5.31712 4.18711 72 20 103 255 
12.7295 -5.24028 3.98113 69 56 130 255 
12.6251 -5.19202 3.80372 66 63 133 255 
16.601 -6.82751 4.81981 72 33 115 255 
14.4773 -5.96548 4.06406 71 45 123 255 
16.1784 -6.6634 4.35599 70 52 128 255 
14.5183 -5.98244 3.74956 67 61 132 255 
14.4296 -5.94917 3.57468 72 28 110 255 
9.62534 -3.96423 2.29635 49 104 142 255 
9.60905 -3.95964 2.18445 49 104 142 255 
9.61746 -3.96889 2.08463 50 102 142 255 
9.61889 -3.97361 1.98531 52 97 141 255 
9.64756 -3.97339 1.90366 57 86 140 255 
9.63251 -3.97127 1.79781 31 152 139 255 
9.62338 -3.97527 1.69386 30 155 138 255 
9.61447 -3.9816 1.59611 31 149 139 255 
9.64584 -3.97464 1.51452 31 161 136 255 
9.63724 -3.97519 1.41135 31 160 136 255 
9.61838 -3.9791 1.30942 31 148 140 255 
9.63254 -3.99301 1.21571 32 147 140 255 
9.64233 -3.97319 1.13109 33 143 141 255 
9.63719 -3.98107 1.03157 31 156 137 255 
9.63564 -3.98821 0.932543 31 149 139 255 
9.64263 -4.0031 0.836359 33 144 141 255 
9.66562 -3.98476 0.75491 31 153 138 255 
9.63686 -3.98291 0.654215 31 153 138 255 
9.64168 -3.99662 0.556124 32 146 140 255 
9.64347 -4.00739 0.457776 35 138 141 255 
9.66188 -3.98716 0.37596 31 150 139 255 
9.65656 -3.995 0.277302 34 140 141 255 
9.65325 -4.00339 0.178765 34 140 141 255 
9.64457 -4.01179 0.0820419 42 118 142 255 
9.68684 -3.99944 -0.00182911 33 145 140 255 
9.67475 -4.00647 -0.100522 35 136 142 255 
9.67556 -4.0166 -0.197494 39 128 142 255 
9.67376 -4.02789 -0.29636 59 82 139 255 
6.23183 -2.57677 -0.244918 47 107 142 255 
6.22165 -2.57903 -0.307013 59 81 139 255 
9.67486 -4.01829 -0.576537 66 64 134 255 
9.69463 -4.03856 -0.677305 60 80 139 255 
6.2302 -2.57737 -0.489207 58 83 139 255 
9.73681 -4.04014 -0.862984 61 78 138 255 
9.7971 -4.07507 -0.969394 47 107 142 255 
9.73001 -4.0533 -1.06323 69 56 130 255 
6.18734 -2.56343 -0.72993 70 48 126 255 
8.35163 -3.46709 -1.07187 71 44 122 255 
7.88471 -3.28124 -1.09403 66 65 134 255 
7.37053 -3.07341 -1.09958 68 59 132 255 
6.8976 -2.86192 -1.09076 64 70 136 255 
6.56707 -2.72894 -1.106 62 73 137 255 
6.2394 -2.59782 -1.11524 66 63 133 255 
5.92781 -2.47182 -1.12322 58 84 140 255 
5.67452 -2.35908 -1.12788 58 84 140 255 
5.44096 -2.26432 -1.13701 54 93 141 255 
5.20046 -2.16524 -1.14302 57 86 140 255 
4.97154 -2.07205 -1.14779 58 83 139 255 
4.80194 -1.99926 -1.1541 52 96 141 255 
4.62062 -1.92482 -1.15929 55 90 140 255 
4.41064 -1.83821 -1.15512 65 68 135 255 
4.28406 -1.78377 -1.1708 62 76 138 255 
4.11601 -1.71789 -1.16593 61 77 138 255 
3.97225 -1.65798 -1.16786 62 76 138 255 
3.84219 -1.60208 -1.17325 62 73 137 255 
3.68955 -1.53472 -1.17079 64 69 136 255 
14.2188 -5.97002 4.63246 72 24 106 255 
12.5659 -5.26336 3.94001 69 56 130 255 
12.8089 -5.35974 3.86894 69 56 130 255 
12.8053 -5.35855 3.72727 64 70 136 255 
12.8319 -5.3798 3.61136 70 51 127 255 
16.2276 -6.80042 4.38039 71 44 122 255 
14.7746 -6.19439 3.82551 71 45 123 255 
14.8072 -6.21142 3.6776 71 45 123 255 
9.61525 -4.02926 2.29979 50 101 142 255 
9.63421 -4.03933 2.19576 48 105 142 255 
9.62638 -4.04188 2.0919 47 107 142 255 
9.59251 -4.03179 1.98493 53 95 141 255 
9.623 -4.03251 1.90366 57 86 140 255 
9.62886 -4.03907 1.80172 38 130 142 255 
9.61883 -4.04266 1.69739 35 136 142 255 
9.62812 -4.05663 1.60247 37 133 142 255 
9.64591 -4.04408 1.5184 32 146 140 255 
9.63185 -4.0423 1.41417 35 138 141 255 
9.62488 -4.05113 1.31366 35 136 142 255 
9.64264 -4.06671 1.22011 38 130 142 255 
9.65261 -4.04689 1.13519 33 142 141 255 
9.64928 -4.05555 1.03551 34 139 141 255 
9.6376 -4.05846 0.935126 37 131 142 255 
9.65278 -4.07693 0.839393 41 122 142 255 
9.65846 -4.05132 0.756279 34 139 141 255 
9.63892 -4.05318 0.656031 36 135 142 255 
9.66298 -4.07511 0.558784 41 123 142 255 
9.66655 -4.08672 0.460053 43 117 142 255 
9.65658 -4.05449 0.376714 37 131 142 255 
9.66688 -4.06891 0.27831 42 118 142 255 
9.67364 -4.08159 0.179603 44 114 142 255 
9.69713 -4.10363 0.0827016 39 127 142 255 
9.68701 -4.06926 -0.00183382 42 118 142 255 
9.67855 -4.0778 -0.10082 44 114 142 255 
9.69586 -4.09495 -0.198418 42 120 142 255 
9.72802 -4.1207 -0.298792 41 123 142 255 
9.72087 -4.08946 -0.38302 42 118 142 255 
9.71448 -4.09693 -0.480601 42 120 142 255 
9.75212 -4.12072 -0.582637 41 123 142 255 
9.75328 -4.13341 -0.683162 40 125 142 255 
9.7599 -4.10788 -0.768329 40 125 142 255 
9.78254 -4.12965 -0.869266 43 116 142 255 
9.80401 -4.14869 -0.972578 38 130 142 255 
9.71778 -4.11836 -1.06464 69 53 129 255 
9.1093 -3.83966 -1.0774 68 58 131 255 
8.32196 -3.51479 -1.07081 69 55 129 255 
7.88635 -3.33884 -1.09708 64 69 136 255 
7.39167 -3.1356 -1.10558 65 66 135 255 
6.97836 -2.94574 -1.10637 62 76 138 255 
6.5948 -2.78803 -1.11353 63 72 137 255 
6.23061 -2.63913 -1.11655 57 85 140 255 
5.94699 -2.52276 -1.12977 58 83 139 255 
5.66356 -2.39538 -1.12861 56 88 140 255 
5.43962 -2.30302 -1.13966 52 97 141 255 
5.18527 -2.19635 -1.14262 57 86 140 255 
4.96324 -2.10442 -1.14883 59 82 139 255 
4.7752 -2.0226 -1.15063 53 94 141 255 
4.60155 -1.95009 -1.15749 57 86 140 255 
4.3948 -1.86334 -1.15395 61 77 138 255 
4.27304 -1.81002 -1.1708 61 77 138 255 
4.10896 -1.74463 -1.16694 60 79 138 255 
3.97267 -1.68685 -1.171 62 74 137 255 
3.82077 -1.62074 -1.16973 64 70 136 255 
3.69244 -1.56257 -1.17473 65 68 135 255 
14.3457 -6.12712 4.68597 72 32 113 255 
12.4636 -5.31061 3.91806 70 48 126 255 
12.6198 -5.37183 3.8217 68 59 132 255 
12.7598 -5.43172 3.72364 64 69 136 255 
16.3413 -6.96933 4.61098 72 40 120 255 
16.2418 -6.92384 4.39561 69 56 130 255 
16.0703 -6.85386 4.1718 70 50 126 255 
16.8004 -7.16907 4.18348 72 29 111 255 
9.62628 -4.1035 2.30841 47 107 142 255 
9.66596 -4.12256 2.20872 48 105 142 255 
9.62033 -4.10895 2.09603 50 100 142 255 
9.66424 -4.1319 2.00498 57 85 140 255 
9.63337 -4.10652 1.91066 51 99 141 255 
9.63743 -4.11238 1.80801 44 115 142 255 
9.65011 -4.12566 1.70734 34 141 141 255 
9.67119 -4.14484 1.61384 32 146 140 255 
9.6728 -4.12532 1.52659 34 140 141 255 
9.67978 -4.13245 1.4249 34 139 141 255 
9.66916 -4.13979 1.32315 34 141 141 255 
9.67684 -4.15125 1.22764 33 142 141 255 
9.67606 -4.12671 1.14091 33 143 141 255 
9.6663 -4.13268 1.04004 32 146 140 255 
9.66928 -4.14184 0.940649 32 146 140 255 
9.67979 -4.15851 0.843945 34 139 141 255 
9.67195 -4.12695 0.759304 33 144 141 255 
9.65884 -4.13148 0.6591 30 155 138 255 
9.68552 -4.15479 0.561551 31 149 139 255 
9.68993 -4.16687 0.462374 35 136 142 255 
9.70321 -4.14429 0.379518 32 146 140 255 
9.70055 -4.15333 0.280007 33 143 141 255 
9.72376 -4.17321 0.181005 34 139 141 255 
9.69381 -4.17254 0.0828901 38 129 142 255 
9.706 -4.14748 -0.0018422 39 126 142 255 
9.7232 -4.16704 -0.10155 34 139 141 255 
9.72383 -4.17726 -0.199511 35 137 142 255 
9.73101 -4.19257 -0.299668 34 139 141 255 
9.71581 -4.15768 -0.383818 35 136 142 255 
9.72221 -4.17064 -0.48224 35 136 142 255 
9.75234 -4.19152 -0.584175 34 141 141 255 
9.75064 -4.20305 -0.684771 34 139 141 255 
9.76752 -4.18182 -0.770935 33 142 141 255 
9.80281 -4.20926 -0.873346 42 118 142 255 
9.80032 -4.21822 -0.974762 38 130 142 255 
9.72705 -4.19288 -1.06845 68 57 131 255 
9.08374 -3.89469 -1.07718 70 52 128 255 
8.35954 -3.59126 -1.07847 70 48 126 255 
7.86481 -3.38677 -1.09695 66 65 134 255 
7.3732 -3.18129 -1.10572 67 61 132 255 
7.01471 -3.01193 -1.11504 62 74 137 255 
6.5812 -2.83001 -1.11415 60 79 138 255 
6.23061 -2.68434 -1.11948 56 89 140 255 
5.92507 -2.55647 -1.12856 58 83 139 255 
5.6605 -2.43514 -1.13095 51 99 141 255 
5.42719 -2.33713 -1.14004 51 98 141 255 
5.18069 -2.232 -1.14461 59 82 139 255 
4.94574 -2.1329 -1.14779 59 81 139 255 
4.77076 -2.05534 -1.15258 53 95 141 255 
4.5895 -1.97829 -1.15749 55 91 141 255 
4.39311 -1.8945 -1.15653 59 81 139 255 
4.25384 -1.83275 -1.1686 63 72 137 255 
4.09906 -1.77019 -1.1672 60 79 138 255 
3.95781 -1.70928 -1.16969 61 77 138 255 
3.79926 -1.6392 -1.1662 64 70 136 255 
3.70217 -1.59354 -1.18091 61 77 138 255 
14.1717 -6.15588 4.64138 70 7 90 255 
11.0628 -4.79416 3.48689 72 23 105 255 
12.3691 -5.35502 3.75567 63 72 137 255 
12.5888 -5.45044 3.68345 71 17 100 255 
16.5886 -7.19542 4.69313 70 50 126 255 
16.2614 -7.05039 4.41252 69 56 130 255 
16.5865 -7.19463 4.3172 72 36 117 255 
16.8258 -7.30229 4.2009 70 51 127 255 
9.60988 -4.16637 2.31056 58 83 139 255 
9.64048 -4.18179 2.20872 47 107 142 255 
9.61112 -4.17494 2.09956 51 99 141 255 
9.62789 -4.18642 2.00273 51 98 141 255 
9.64139 -4.18003 1.9173 50 100 142 255 
9.64185 -4.18438 1.81362 45 113 142 255 
9.65901 -4.19975 1.71345 30 157 137 255 
9.67094 -4.21516 1.61809 31 150 139 255 
9.67455 -4.19641 1.5309 31 161 136 255 
9.67515 -4.20084 1.42799 30 157 137 255 
9.66632 -4.20894 1.32627 30 157 137 255 
9.67303 -4.22008 1.23042 31 152 139 255 
9.66515 -4.19234 1.14263 37 131 142 255 
9.66175 -4.20104 1.0423 40 124 142 255 
9.65008 -4.20388 0.941272 48 105 142 255 
9.66505 -4.22262 0.844903 48 105 142 255 
9.67298 -4.19773 0.761392 39 128 142 255 
9.65069 -4.19823 0.660289 42 120 142 255 
9.67723 -4.22173 0.562562 46 109 142 255 
9.67974 -4.23305 0.463119 50 101 142 255 
9.69409 -4.21091 0.380165 42 118 142 255 
9.69046 -4.21956 0.280458 47 108 142 255 
9.69522 -4.23159 0.180954 47 108 142 255 
9.65612 -4.22673 0.082788 59 82 139 255 
9.67853 -4.20616 -0.00184185 53 94 141 255 
9.7057 -4.23022 -0.101636 38 130 142 255 
9.70626 -4.24045 -0.19968 42 120 142 255 
9.71059 -4.25461 -0.299838 48 105 142 255 
9.71669 -4.22878 -0.384871 32 146 140 255 
9.71749 -4.2394 -0.483288 34 141 141 255 
9.73192 -4.25368 -0.584505 37 131 142 255 
9.73381 -4.26681 -0.685414 38 130 142 255 
9.76362 -4.25123 -0.772672 33 145 140 255 
9.80145 -4.2801 -0.875549 43 117 142 255 
9.83902 -4.30663 -0.981221 38 130 142 255 
9.72119 -4.26127 -1.07066 68 57 131 255 
9.11071 -3.97261 -1.08325 68 59 132 255 
8.34099 -3.64408 -1.07894 70 52 128 255 
7.8466 -3.43616 -1.09733 63 72 137 255 
7.36805 -3.23284 -1.1079 66 63 133 255 
6.96889 -3.04304 -1.1107 61 78 138 255 
6.55828 -2.86796 -1.11323 63 72 137 255 
6.20498 -2.71856 -1.11785 54 93 141 255 
5.91288 -2.59436 -1.12925 57 85 140 255 
5.64815 -2.47101 -1.13149 54 93 141 255 
5.42714 -2.37669 -1.14307 49 103 142 255 
5.17857 -2.26886 -1.14719 55 90 140 255 
4.95227 -2.17185 -1.15238 59 82 139 255 
4.76164 -2.08614 -1.15345 54 93 141 255 
4.59422 -2.01385 -1.16178 53 94 141 255 
4.3992 -1.92923 -1.16123 60 79 138 255 
4.25317 -1.86349 -1.17154 63 72 137 255 
4.09167 -1.79686 -1.16821 62 76 138 255 
3.94283 -1.73159 -1.16839 61 78 138 255 
3.805 -1.66944 -1.17108 61 77 138 255 
3.68178 -1.61161 -1.17754 62 73 137 255 
10.7704 -4.75721 3.53692 72 32 113 255 
10.9602 -4.8298 3.46383 67 61 132 255 
12.3986 -5.45837 3.77473 60 79 138 255 
12.7558 -5.61591 3.74232 69 5 89 255 
16.6769 -7.35566 4.73081 72 38 119 255 
14.2573 -6.28569 3.8791 69 55 129 255 
13.0802 -5.76935 3.41372 65 66 135 255 
16.6095 -7.32983 4.15803 71 46 124 255 
16.5127 -7.27976 3.98091 70 51 127 255 
9.62449 -4.24521 2.21098 54 92 141 255 
9.66695 -4.26988 2.11744 49 103 142 255 
9.65593 -4.26925 2.01397 53 95 141 255 
15.1876 -6.69559 3.02834 72 31 112 255 
9.63763 -4.25302 1.8177 37 133 142 255 
9.66195 -4.27171 1.71858 31 151 139 255 
9.66026 -4.28123 1.62067 31 152 139 255 
9.65676 -4.25929 1.53219 31 152 139 255 
9.65644 -4.26333 1.42906 31 154 138 255 
9.6512 -4.27299 1.32777 31 148 140 255 
9.65876 -4.28459 1.23192 33 143 141 255 
9.64652 -4.25477 1.14349 41 121 142 255 
9.654 -4.26829 1.04427 35 137 142 255 
9.65598 -4.27713 0.944389 34 139 141 255 
9.67175 -4.29641 0.847778 34 139 141 255 
9.66438 -4.26466 0.762761 36 134 142 255 
9.67404 -4.27917 0.66367 32 146 140 255 
9.67214 -4.29034 0.563786 35 138 141 255 
9.68371 -4.30576 0.464564 48 106 142 255 
9.67996 -4.27557 0.380633 34 140 141 255 
9.69638 -4.2931 0.281387 33 144 141 255 
9.69009 -4.30033 0.181347 36 135 142 255 
9.5962 -4.27086 0.0824974 70 51 127 255 
9.70194 -4.28729 -0.00185127 44 114 142 255 
9.68779 -4.29334 -0.101722 35 137 142 255 
9.70565 -4.31129 -0.200208 39 127 142 255 
9.70622 -4.32388 -0.300516 42 118 142 255 
9.71706 -4.30005 -0.385923 50 102 142 255 
9.71139 -4.30786 -0.48429 42 120 142 255 
9.72571 -4.32223 -0.585714 44 113 142 255 
9.7275 -4.33539 -0.68683 46 109 142 255 
9.73371 -4.30945 -0.772382 42 118 142 255 
9.83786 -4.36807 -0.881179 37 132 142 255 
9.84244 -4.38028 -0.984224 39 128 142 255 
9.72939 -4.33623 -1.07447 69 53 129 255 
9.08798 -4.02924 -1.08346 70 50 126 255 
8.30123 -3.68753 -1.0767 69 56 130 255 
7.81631 -3.48021 -1.09606 66 64 134 255 
7.3725 -3.28889 -1.11158 68 58 131 255 
6.96275 -3.09136 -1.11273 61 77 138 255 
6.56133 -2.91738 -1.11676 61 77 138 255 
6.2008 -2.7622 -1.12013 56 88 140 255 
5.89235 -2.62859 -1.12839 59 82 139 255 
5.64906 -2.51282 -1.13474 55 91 141 255 
5.42143 -2.41394 -1.14496 50 102 142 255 
5.18066 -2.30777 -1.15077 58 84 140 255 
4.94778 -2.20618 -1.15446 58 83 139 255 
4.75143 -2.11651 -1.1541 51 98 141 255 
4.59513 -2.04795 -1.16516 50 100 142 255 
4.4006 -1.96212 -1.16476 60 79 138 255 
4.22305 -1.88126 -1.1664 65 66 135 255 
4.09117 -1.82667 -1.17124 63 72 137 255 
3.92772 -1.75379 -1.16708 62 73 137 255 
3.79205 -1.69158 -1.17027 64 69 136 255 
3.66393 -1.63066 -1.17501 65 68 135 255 
8.62409 -3.87261 2.83984 65 68 135 255 
8.66679 -3.88285 2.74651 68 58 131 255 
12.3543 -5.52962 3.77151 64 70 136 255 
12.9803 -5.81008 3.81856 72 36 117 255 
13.1446 -5.89428 3.73898 69 56 130 255 
13.5915 -6.09204 3.70806 71 47 125 255 
13.0952 -5.87218 3.42696 68 57 131 255 
16.5393 -7.42044 4.15178 72 41 121 255 
16.7671 -7.51515 4.05329 70 51 127 255 
9.64558 -4.32541 2.22188 47 107 142 255 
9.64593 -4.33153 2.11862 49 104 142 255 
9.64568 -4.33566 2.01735 51 98 141 255 
9.67914 -4.33827 1.93525 60 80 139 255 
9.6635 -4.33547 1.82756 34 139 141 255 
9.66436 -4.34386 1.72372 37 131 142 255 
9.65724 -4.35098 1.62461 39 126 142 255 
9.64128 -4.32332 1.53391 33 144 141 255 
9.67078 -4.34076 1.4351 38 130 142 255 
9.6637 -4.34964 1.33314 40 124 142 255 
9.68933 -4.3695 1.23922 41 123 142 255 
9.70006 -4.34968 1.15298 43 117 142 255 
9.67936 -4.3507 1.04989 39 128 142 255 
9.68132 -4.3596 0.949466 40 125 142 255 
9.68972 -4.37577 0.851691 40 124 142 255 
9.67807 -4.34184 0.765929 41 122 142 255 
9.69311 -4.35892 0.666801 38 129 142 255 
9.69297 -4.37096 0.566552 39 128 142 255 
9.68715 -4.37868 0.466009 58 84 140 255 
9.69092 -4.35166 0.382106 41 122 142 255 
9.70632 -4.36893 0.282448 44 115 142 255 
9.6936 -4.37328 0.181912 39 126 142 255 
9.5607 -4.32553 0.0824188 71 45 123 255 
9.69734 -4.35658 -0.00185546 49 103 142 255 
9.73967 -4.38803 -0.102548 40 124 142 255 
9.74189 -4.39915 -0.201509 38 130 142 255 
9.74689 -4.41387 -0.302608 39 126 142 255 
9.74244 -4.38296 -0.387992 40 125 142 255 
9.75034 -4.39693 -0.487568 44 115 142 255 
9.76908 -4.41348 -0.589945 52 96 141 255 
9.78434 -4.43288 -0.692751 38 129 142 255 
9.78712 -4.40511 -0.77875 37 132 142 255 
9.82995 -4.43696 -0.882892 42 120 142 255 
9.84622 -4.45455 -0.987317 39 127 142 255 
9.68085 -4.38599 -1.07206 72 40 120 255 
9.02774 -4.069 -1.07924 64 70 136 255 
8.28298 -3.74044 -1.07729 68 57 131 255 
7.80656 -3.53342 -1.09771 66 64 134 255 
7.3585 -3.33692 -1.11254 66 64 134 255 
6.93734 -3.13118 -1.11172 59 82 139 255 
6.56221 -2.96613 -1.11999 61 77 138 255 
6.2107 -2.81241 -1.12501 56 89 140 255 
5.88687 -2.66957 -1.13046 57 86 140 255 
5.63085 -2.54622 -1.1342 54 92 141 255 
5.37878 -2.43461 -1.13909 51 99 141 255 
5.17087 -2.34154 -1.15177 56 89 140 255 
4.93326 -2.23609 -1.15425 61 78 138 255 
4.75525 -2.15327 -1.15821 51 98 141 255 
4.57183 -2.07128 -1.16245 49 103 142 255 
4.40087 -1.99471 -1.16805 55 90 140 255 
4.20083 -1.90234 -1.16346 64 69 136 255 
4.07724 -1.85054 -1.17048 60 79 138 255 
3.9248 -1.78144 -1.16943 62 76 138 255 
3.77546 -1.71203 -1.16837 59 81 139 255 
3.65385 -1.65311 -1.17501 66 64 134 255 
8.64024 -3.94374 2.85307 66 63 133 255 
10.449 -4.7585 3.32048 67 62 133 255 
12.3447 -5.61649 3.77902 70 51 127 255 
12.3633 -5.62523 3.64714 71 46 124 255 
13.1003 -5.97121 3.73672 68 58 131 255 
13.1909 -6.00997 3.60877 66 64 134 255 
14.5263 -6.62129 3.81204 72 33 115 255 
16.4775 -7.5145 4.14776 68 57 131 255 
16.71 -7.61303 4.0507 72 40 120 255 
9.64112 -4.39466 2.22703 46 109 142 255 
16.7765 -7.65755 3.69501 72 26 108 255 
9.5903 -4.3817 2.01135 69 55 129 255 
9.6604 -4.40125 1.93687 51 99 141 255 
9.66092 -4.40572 1.83215 34 141 141 255 
9.70935 -4.43589 1.73657 32 147 140 255 
9.70136 -4.44266 1.63659 33 145 140 255 
9.71633 -4.42878 1.55015 34 139 141 255 
9.69175 -4.42182 1.44221 33 142 141 255 
9.69187 -4.43404 1.34075 34 141 141 255 
9.71561 -4.45329 1.24605 32 146 140 255 
9.71933 -4.43014 1.15848 46 110 142 255 
9.72127 -4.44144 1.05737 31 150 139 255 
9.70329 -4.44131 0.954276 33 142 141 255 
9.70799 -4.45594 0.855683 33 144 141 255 
9.71658 -4.43094 0.771115 33 143 141 255 
9.70703 -4.43698 0.669619 31 154 138 255 
9.71136 -4.45115 0.569213 31 148 140 255 
9.70277 -4.45764 0.468068 46 111 142 255 
9.72949 -4.44092 0.384694 32 146 140 255 
9.72842 -4.45086 0.28388 33 143 141 255 
9.72566 -4.45976 0.183023 32 146 140 255 
9.67934 -4.45096 0.0836755 71 42 122 255 
9.69044 -4.42514 -0.0018593 54 92 141 255 
9.75257 -4.46603 -0.10297 34 141 141 255 
9.75833 -4.47886 -0.202413 34 140 141 255 
9.76139 -4.49281 -0.303909 33 143 141 255 
9.75535 -4.46095 -0.389589 32 146 140 255 
9.75587 -4.47166 -0.489208 33 145 140 255 
9.76722 -4.48501 -0.591484 45 113 142 255 
9.76965 -4.49868 -0.693652 42 120 142 255 
9.78439 -4.47629 -0.780704 34 139 141 255 
9.81885 -4.50467 -0.884361 42 120 142 255 
9.85309 -4.53069 -0.990774 39 126 142 255 
9.57603 -4.40952 -1.06343 68 59 132 255 
9.08304 -4.16117 -1.08888 69 53 129 255 
8.27702 -3.79906 -1.07952 69 55 129 255 
7.78563 -3.58167 -1.09784 67 62 133 255 
7.34508 -3.38533 -1.11363 65 68 135 255 
6.93598 -3.18194 -1.11461 60 80 139 255 
6.52862 -2.99933 -1.11738 63 72 137 255 
6.2005 -2.85376 -1.12632 54 92 141 255 
5.88022 -2.71018 -1.13235 55 91 141 255 
5.60708 -2.57702 -1.13258 54 92 141 255 
5.3798 -2.47496 -1.1425 52 97 141 255 
5.15819 -2.37404 -1.15216 56 89 140 255 
4.92833 -2.27041 -1.15634 56 88 140 255 
4.75081 -2.18649 -1.16038 53 94 141 255 
4.55903 -2.09929 -1.16245 51 99 141 255 
4.39914 -2.02655 -1.17087 53 95 141 255 
4.19084 -1.92889 -1.16395 63 71 136 255 
4.10007 -1.89132 -1.18035 61 78 138 255 
3.92957 -1.81277 -1.17415 61 78 138 255 
3.77363 -1.73919 -1.17108 64 70 136 255 
3.63056 -1.66948 -1.17079 65 68 135 255 
8.66714 -4.02046 2.87004 65 66 135 255 
8.67777 -4.01635 2.7654 49 103 142 255 
15.449 -7.14357 4.74263 72 37 118 255 
12.3277 -5.70058 3.64688 72 26 108 255 
13.1284 -6.08159 3.75531 72 38 119 255 
13.0297 -6.0333 3.57471 69 55 129 255 
14.5648 -6.74709 3.83294 72 22 104 255 
10.0573 -4.66134 2.5388 69 55 129 255 
9.61284 -4.45101 2.33684 70 51 127 255 
9.65838 -4.4743 2.23731 60 80 139 255 
16.7203 -7.75622 3.69305 67 62 133 255 
16.8751 -7.83556 3.54919 72 35 116 255 
9.67159 -4.47821 1.94458 49 103 142 255 
9.67841 -4.48563 1.84066 33 145 140 255 
9.70075 -4.50411 1.73994 31 160 136 255 
9.70528 -4.5167 1.64189 31 152 139 255 
9.71591 -4.50079 1.55446 31 159 136 255 
9.7013 -4.4983 1.44771 31 156 137 255 
9.67887 -4.50011 1.34275 31 159 136 255 
9.69891 -4.51785 1.24744 31 148 140 255 
9.71812 -4.50181 1.16161 50 101 142 255 
9.69835 -4.5031 1.05786 31 160 136 255 
9.69302 -4.50875 0.955968 31 151 139 255 
9.69131 -4.52048 0.856641 31 152 139 255 
9.71093 -4.50054 0.772843 31 158 137 255 
9.69773 -4.50487 0.670871 31 161 135 255 
9.69925 -4.51782 0.570117 32 146 140 255 
9.70692 -4.53188 0.4696 45 113 142 255 
9.72291 -4.51021 0.385521 31 152 139 255 
9.7254 -4.52185 0.284596 33 145 140 255 
9.70808 -4.524 0.183212 34 139 141 255 
9.66181 -4.51492 0.0837619 72 40 120 255 
9.73567 -4.51819 -0.00187326 53 95 141 255 
9.73858 -4.53211 -0.103114 34 141 141 255 
9.75513 -4.55007 -0.202922 34 139 141 255 
9.7608 -4.56533 -0.304757 39 128 142 255 
9.74864 -4.53041 -0.390424 34 140 141 255 
9.74726 -4.54029 -0.490164 37 131 142 255 
9.74856 -4.54908 -0.592033 40 125 142 255 
9.73011 -4.55304 -0.692815 58 84 140 255 
9.78116 -4.54759 -0.782658 34 139 141 255 
9.84883 -4.59179 -0.889582 42 120 142 255 
9.86751 -4.61087 -0.99505 43 116 142 255 
9.66685 -4.52344 -1.07658 71 46 124 255 
9.05012 -4.21346 -1.08801 62 74 137 255 
8.26975 -3.85733 -1.08164 71 46 124 255 
7.7644 -3.62979 -1.09797 68 57 131 255 
7.35468 -3.44462 -1.11827 65 66 135 255 
6.93516 -3.23321 -1.11764 61 77 138 255 
6.51816 -3.04309 -1.11876 62 74 137 255 
6.17125 -2.88632 -1.1242 55 90 140 255 
5.86259 -2.74579 -1.13218 57 86 140 255 
5.59561 -2.61346 -1.13348 53 95 141 255 
5.37163 -2.51125 -1.14402 48 105 142 255 
5.14796 -2.40772 -1.15316 54 93 141 255 
4.93822 -2.31181 -1.16196 54 92 141 255 
4.73554 -2.21477 -1.15995 56 89 140 255 
4.56018 -2.13383 -1.16606 50 101 142 255 
4.3655 -2.04362 -1.16523 55 91 141 255 
4.17981 -1.95498 -1.1642 63 71 136 255 
4.08488 -1.9148 -1.17934 63 72 137 255 
3.91924 -1.83726 -1.17441 62 73 137 255 
3.77857 -1.76966 -1.17597 63 71 136 255 
3.61416 -1.68888 -1.16882 64 70 136 255 
8.60159 -4.05438 2.85652 52 97 141 255 
8.66339 -4.07442 2.76873 52 97 141 255 
8.63226 -4.05601 2.65758 64 70 136 255 
13.2863 -6.24312 3.94174 72 33 115 255 
12.5794 -5.92128 3.60859 70 48 126 255 
10.0448 -4.72625 2.76371 69 53 129 255 
10.1723 -4.78829 2.68466 50 100 142 255 
31.3932 -14.7848 7.94748 71 14 97 255 
15.8492 -7.45707 3.86394 70 50 126 255 
9.66173 -4.54807 2.24451 53 95 141 255 
9.74993 -4.59572 2.15968 58 84 140 255 
9.76146 -4.60552 2.05895 66 65 134 255 
9.68043 -4.55465 1.95194 50 101 142 255 
9.68102 -4.55921 1.84644 32 146 140 255 
9.68989 -4.57155 1.74299 33 144 141 255 
9.69526 -4.58462 1.64492 33 144 141 255 
9.69617 -4.56412 1.55575 31 154 138 255 
9.69323 -4.56703 1.45066 32 147 140 255 
9.68068 -4.5734 1.34687 34 141 141 255 
9.69704 -4.5896 1.2508 35 138 141 255 
9.70561 -4.56856 1.16344 45 113 142 255 
9.68854 -4.57102 1.05983 33 145 140 255 
9.68948 -4.57963 0.958373 35 137 142 255 
9.68951 -4.59224 0.858957 38 130 142 255 
9.70299 -4.56939 0.774428 33 144 141 255 
9.69337 -4.57536 0.672499 42 118 142 255 
9.70023 -4.59092 0.57182 44 114 142 255 
9.71233 -4.6072 0.471221 52 96 141 255 
9.72037 -4.58171 0.386528 33 142 141 255 
9.72458 -4.59425 0.285392 37 133 142 255 
9.70906 -4.59717 0.183759 41 121 142 255 
9.72878 -4.61916 0.0845865 65 66 135 255 
9.73761 -4.59192 -0.00187902 54 93 141 255 
9.73228 -4.60204 -0.103345 39 126 142 255 
9.73877 -4.6154 -0.203167 44 113 142 255 
9.77324 -4.64444 -0.306029 46 111 142 255 
9.76133 -4.60934 -0.392057 40 124 142 255 
9.76708 -4.62267 -0.492577 45 113 142 255 
9.7764 -4.63533 -0.59544 44 115 142 255 
9.79482 -4.65679 -0.699444 44 113 142 255 
9.77021 -4.61562 -0.784033 56 88 140 255 
9.87271 -4.67688 -0.894315 40 124 142 255 
9.87231 -4.68714 -0.998417 46 111 142 255 
9.65958 -4.59249 -1.07889 68 57 131 255 
9.0906 -4.30037 -1.09603 69 56 130 255 
8.27464 -3.92161 -1.08541 69 53 129 255 
7.74109 -3.67694 -1.09784 68 59 132 255 
7.33966 -3.49266 -1.11922 64 69 136 255 
6.91967 -3.27782 -1.11836 62 76 138 255 
6.49668 -3.08176 -1.1183 58 83 139 255 
6.14986 -2.92244 -1.12355 55 91 141 255 
5.83852 -2.77833 -1.1308 57 85 140 255 
5.60258 -2.65871 -1.13817 53 94 141 255 
5.3508 -2.54163 -1.14288 52 96 141 255 
5.12778 -2.43674 -1.15197 51 99 141 255 
4.92748 -2.34374 -1.1628 54 93 141 255 
4.73332 -2.24923 -1.16276 50 100 142 255 
4.54876 -2.16261 -1.16651 53 95 141 255 
4.36692 -2.07704 -1.16899 54 92 141 255 
4.18875 -1.99058 -1.17007 64 69 136 255 
4.06083 -1.93401 -1.1758 61 78 138 255 
3.90441 -1.85961 -1.17336 64 70 136 255 
3.73375 -1.77669 -1.16539 64 69 136 255 
3.62194 -1.71967 -1.17473 66 63 133 255 
8.60938 -4.1228 2.86745 59 82 139 255 
8.63563 -4.12626 2.7679 51 99 141 255 
13.1651 -6.28474 4.06488 71 47 125 255 
12.1322 -5.79193 3.6098 67 61 132 255 
12.0914 -5.78246 3.47871 70 52 128 255 
9.93419 -4.74887 2.74124 70 48 126 255 
9.82156 -4.69703 2.59965 63 72 137 255 
9.4946 -4.54292 2.41065 68 57 131 255 
15.8508 -7.57692 3.87557 71 45 123 255 
9.67602 -4.62753 2.25438 48 105 142 255 
9.72509 -4.65715 2.16047 46 109 142 255 
9.7029 -4.65089 2.05257 53 94 141 255 
9.68692 -4.6305 1.95894 51 99 141 255 
9.68131 -4.63214 1.85188 34 141 141 255 
9.6937 -4.64628 1.74877 40 125 142 255 
9.71149 -4.66542 1.6525 41 121 142 255 
9.69655 -4.63719 1.56035 41 121 142 255 
9.70615 -4.6461 1.45683 42 118 142 255 
9.71953 -4.66491 1.35623 39 127 142 255 
9.71883 -4.67312 1.25728 38 129 142 255 
9.69892 -4.63832 1.16603 49 104 142 255 
9.70967 -4.65404 1.06524 41 122 142 255 
9.74111 -4.67737 0.9663 38 129 142 255 
9.74917 -4.69398 0.866782 37 131 142 255 
9.71975 -4.65036 0.778029 52 96 141 255 
9.73531 -4.66841 0.677383 35 136 142 255 
9.75287 -4.6893 0.576609 38 130 142 255 
9.76937 -4.70791 0.475381 44 114 142 255 
9.77319 -4.68012 0.389763 39 128 142 255 
9.77552 -4.69189 0.287726 38 130 142 255 
9.77888 -4.7039 0.185623 36 135 142 255 
9.68944 -4.67355 0.0844923 72 35 116 255 
9.74713 -4.66973 -0.00188635 50 102 142 255 
9.77867 -4.69761 -0.104141 35 138 141 255 
9.78233 -4.70977 -0.204675 38 130 142 255 
9.80127 -4.7317 -0.30781 38 129 142 255 
9.80764 -4.70502 -0.39507 34 139 141 255 
9.78535 -4.70502 -0.494945 37 132 142 255 
9.79636 -4.71863 -0.598407 39 128 142 255 
9.81728 -4.74154 -0.703113 35 136 142 255 
9.79745 -4.70223 -0.78852 58 84 140 255 
9.87706 -4.75336 -0.897334 39 126 142 255 
9.87028 -4.7606 -1.00115 48 106 142 255 
9.67422 -4.67245 -1.08371 72 41 121 255 
9.073 -4.36038 -1.09712 65 66 135 255 
8.28084 -3.98696 -1.08941 69 53 129 255 
7.76216 -3.74549 -1.10406 68 58 131 255 
7.30204 -3.52987 -1.11677 66 65 134 255 
6.90299 -3.32194 -1.11894 62 74 137 255 
6.49278 -3.12886 -1.12091 59 81 139 255 
6.15314 -2.97041 -1.12745 55 91 141 255 
5.84531 -2.82567 -1.13545 53 94 141 255 
5.57996 -2.69004 -1.13691 52 96 141 255 
5.34925 -2.58124 -1.14591 53 95 141 255 
5.11538 -2.46943 -1.15256 52 97 141 255 
4.9042 -2.36968 -1.16071 56 88 140 255 
4.72119 -2.27908 -1.1632 53 95 141 255 
4.53278 -2.18921 -1.16584 54 93 141 255 
4.35672 -2.10507 -1.16969 59 82 139 255 
4.18694 -2.0213 -1.173 62 74 137 255 
4.05672 -1.96268 -1.17807 61 78 138 255 
3.90249 -1.88816 -1.17624 62 73 137 255 
3.76177 -1.81841 -1.17759 63 71 136 255 
3.64071 -1.75604 -1.18428 67 62 133 255 
8.66143 -4.21325 2.89335 50 102 142 255 
8.67842 -4.21231 2.78985 50 102 142 255 
13.1358 -6.37002 4.06784 72 32 113 255 
12.1068 -5.87132 3.61291 70 51 127 255 
12.0443 -5.85104 3.47544 69 55 129 255 
9.70934 -4.71479 2.68713 56 88 140 255 
9.72694 -4.72533 2.58224 60 80 139 255 
9.51038 -4.62239 2.42182 63 71 136 255 
15.7952 -7.66977 3.87342 69 56 130 255 
9.70114 -4.7129 2.26693 45 112 142 255 
9.71044 -4.7236 2.16361 44 113 142 255 
9.67859 -4.71249 2.05351 58 84 140 255 
9.70965 -4.71478 1.96935 64 70 136 255 
9.71918 -4.72376 1.86463 38 130 142 255 
9.72446 -4.73462 1.75953 32 146 140 255 
9.7271 -4.7466 1.66008 31 148 140 255 
9.74269 -4.73292 1.57242 31 154 138 255 
9.74073 -4.73634 1.46636 32 147 140 255 
9.73353 -4.74534 1.36222 32 147 140 255 
9.75334 -4.76361 1.26551 31 151 139 255 
9.73108 -4.72728 1.17336 49 104 142 255 
9.7364 -4.74053 1.07135 35 138 141 255 
9.75878 -4.75976 0.970932 31 151 139 255 
9.75421 -4.77036 0.869817 33 145 140 255 
9.74935 -4.73825 0.78271 31 150 139 255 
9.75493 -4.75166 0.680765 31 161 136 255 
9.75532 -4.76439 0.578471 31 148 140 255 
9.75466 -4.77479 0.476082 42 120 142 255 
9.79192 -4.76316 0.391668 30 155 138 255 
9.77081 -4.76362 0.288443 32 147 140 255 
9.77768 -4.77742 0.186153 32 147 140 255 
9.71896 -4.76151 0.0850028 72 38 119 255 
9.75516 -4.74739 -0.00189351 50 101 142 255 
9.77662 -4.77068 -0.104429 32 147 140 255 
9.7793 -4.78244 -0.205222 35 137 142 255 
9.78731 -4.79923 -0.308291 34 141 141 255 
9.79476 -4.77299 -0.395723 33 145 140 255 
9.79489 -4.78382 -0.496903 34 140 141 255 
9.78874 -4.78918 -0.599726 35 138 141 255 
9.79965 -4.8074 -0.703949 38 130 142 255 
9.80159 -4.77843 -0.791198 55 91 141 255 
9.88084 -4.83007 -0.900352 41 123 142 255 
9.90885 -4.85437 -1.00806 46 109 142 255 
9.64359 -4.73084 -1.08351 71 44 122 255 
9.0559 -4.42076 -1.09831 70 52 128 255 
8.27496 -4.04685 -1.09188 70 51 127 255 
7.73458 -3.79086 -1.10343 67 61 132 255 
7.27847 -3.57374 -1.11649 65 66 135 255 
6.89137 -3.36858 -1.12039 62 73 137 255 
6.4992 -3.18124 -1.12537 59 81 139 255 
6.13746 -3.00941 -1.12794 57 85 140 255 
5.8703 -2.88233 -1.14372 55 91 141 255 
5.59073 -2.73764 -1.14251 52 97 141 255 
5.32978 -2.61229 -1.14515 50 101 142 255 
5.10893 -2.50509 -1.15455 51 99 141 255 
4.88517 -2.39757 -1.15967 57 86 140 255 
4.69923 -2.30414 -1.16125 53 94 141 255 
4.52713 -2.22084 -1.16787 50 100 142 255 
4.33587 -2.12791 -1.16758 62 73 137 255 
4.17271 -2.0461 -1.17251 63 72 137 255 
4.04026 -1.9854 -1.17681 62 73 137 255 
3.90988 -1.92143 -1.182 62 76 138 255 
3.75227 -1.84231 -1.17814 65 68 135 255 
3.62728 -1.77708 -1.18344 66 65 134 255 
8.66375 -4.28032 2.90284 56 89 140 255 
8.69377 -4.28587 2.80318 48 106 142 255 
8.66156 -4.26614 2.69033 64 69 136 255 
12.651 -6.23142 3.78666 71 47 125 255 
12.437 -6.13641 3.59955 71 44 122 255 
9.66804 -4.76827 2.68375 62 74 137 255 
9.7248 -4.79826 2.58944 58 84 140 255 
9.47398 -4.67678 2.41981 49 104 142 255 
15.7321 -7.75877 3.86954 71 14 97 255 
9.69222 -4.78229 2.27166 47 108 142 255 
9.70677 -4.79568 2.16931 46 110 142 255 
9.71642 -4.80488 2.06775 56 88 140 255 
9.70612 -4.78689 1.97456 51 99 141 255 
9.76777 -4.82169 1.87959 46 109 142 255 
9.70939 -4.8012 1.7621 31 151 139 255 
9.72259 -4.81848 1.66433 30 157 137 255 
9.7392 -4.80531 1.57658 32 163 134 255 
9.7257 -4.80304 1.46851 31 160 136 255 
9.72379 -4.81465 1.36496 31 150 139 255 
9.73728 -4.82999 1.26724 33 145 140 255 
9.71527 -4.7935 1.17498 48 105 142 255 
9.72319 -4.80813 1.07312 34 140 141 255 
9.74367 -4.82662 0.972357 31 148 140 255 
9.72386 -4.82967 0.869737 48 106 142 255 
9.74781 -4.81167 0.784943 31 152 139 255 
9.74617 -4.82161 0.682205 31 152 139 255 
9.74469 -4.83348 0.579588 42 119 142 255 
9.73949 -4.84167 0.476783 45 113 142 255 
9.77057 -4.82714 0.391992 32 146 140 255 
9.75125 -4.82836 0.288734 33 142 141 255 
9.75714 -4.84177 0.186324 35 136 142 255 
9.76207 -4.85714 0.0856389 57 86 140 255 
9.76529 -4.82665 -0.00190119 50 101 142 255 
9.76867 -4.84123 -0.10466 35 136 142 255 
9.75872 -4.84681 -0.20541 39 126 142 255 
9.77289 -4.86677 -0.308771 39 126 142 255 
9.77604 -4.83832 -0.396159 35 137 142 255 
9.77251 -4.84738 -0.497268 37 133 142 255 
9.78242 -4.8607 -0.601155 41 121 142 255 
9.79051 -4.87768 -0.70543 41 122 142 255 
9.79979 -4.8522 -0.793441 55 91 141 255 
9.88583 -4.90789 -0.903534 42 119 142 255 
9.93148 -4.94125 -1.01343 55 91 141 255 
9.66603 -4.81566 -1.08933 71 42 122 255 
9.00901 -4.46653 -1.09592 66 65 134 255 
8.25442 -4.09976 -1.09247 70 50 126 255 
7.7236 -3.84444 -1.10521 66 63 133 255 
7.27147 -3.62584 -1.11881 66 63 133 255 
6.86702 -3.40904 -1.11981 61 78 138 255 
6.48929 -3.22589 -1.12706 60 79 138 255 
6.14537 -3.06021 -1.13283 55 90 140 255 
5.85515 -2.91961 -1.14424 58 84 140 255 
5.59056 -2.78021 -1.14594 51 98 141 255 
5.30399 -2.64013 -1.14307 54 93 141 255 
5.08206 -2.53071 -1.15197 49 104 142 255 
4.87737 -2.43099 -1.16134 58 83 139 255 
4.68151 -2.33119 -1.16038 52 96 141 255 
4.50557 -2.24467 -1.16584 52 96 141 255 
4.31664 -2.15144 -1.16593 63 71 136 255 
4.16963 -2.07642 -1.1752 62 74 137 255 
4.028 -2.01016 -1.17681 60 79 138 255 
3.89025 -1.94151 -1.17964 62 73 137 255 
3.72453 -1.85714 -1.17298 64 70 136 255 
3.60685 -1.7946 -1.18035 64 69 136 255 
8.55942 -4.29431 2.87666 57 85 140 255 
8.7386 -4.37483 2.82624 46 111 142 255 
8.83079 -4.41703 2.75126 49 103 142 255 
8.88287 -4.4433 2.6669 62 74 137 255 
9.2206 -4.62 2.6768 62 74 137 255 
10.1297 -5.07346 2.82048 70 50 126 255 
9.50125 -4.76068 2.53764 54 92 141 255 
9.47647 -4.75055 2.42785 46 110 142 255 
30.4541 -15.2525 7.51353 70 10 93 255 
9.62945 -4.82502 2.26384 72 29 111 255 
9.68943 -4.86131 2.17206 50 101 142 255 
9.69114 -4.86662 2.06869 52 97 141 255 
9.71263 -4.86441 1.98192 48 105 142 255 
9.82962 -4.92746 1.89728 45 112 142 255 
9.74325 -4.89257 1.77366 36 135 142 255 
9.72727 -4.89538 1.67024 36 134 142 255 
9.74139 -4.88094 1.58176 32 146 140 255 
9.71996 -4.87462 1.47213 35 136 142 255 
9.72952 -4.89206 1.36996 38 130 142 255 
9.72963 -4.90082 1.27014 41 123 142 255 
9.70434 -4.86237 1.17724 55 91 141 255 
9.73085 -4.88645 1.07725 33 145 140 255 
9.72811 -4.89347 0.973782 42 118 142 255 
9.72341 -4.90406 0.872372 60 79 138 255 
9.74129 -4.88301 0.786815 49 104 142 255 
9.75474 -4.90058 0.684897 48 106 142 255 
9.75409 -4.91294 0.581929 45 112 142 255 
9.74706 -4.92025 0.478622 47 107 142 255 
9.7631 -4.8982 0.39289 38 130 142 255 
9.75002 -4.90247 0.289583 42 118 142 255 
9.76653 -4.92135 0.187077 44 114 142 255 
9.73298 -4.9174 0.0856468 69 56 130 255 
9.75873 -4.89814 -0.00190572 48 106 142 255 
9.7629 -4.91322 -0.104919 39 126 142 255 
9.75826 -4.92145 -0.206032 49 104 142 255 
9.74462 -4.92755 -0.308828 67 62 133 255 
9.77028 -4.91033 -0.397139 41 122 142 255 
9.75418 -4.9131 -0.49786 53 94 141 255 
9.74974 -4.91929 -0.60099 68 57 131 255 
9.74793 -4.93135 -0.704529 72 35 116 255 
9.78587 -4.92031 -0.794744 59 82 139 255 
9.89736 -4.98955 -0.907369 41 122 142 255 
9.94097 -5.02231 -1.01752 60 80 139 255 
9.65849 -4.88611 -1.09184 70 50 126 255 
9.01429 -4.53826 -1.09993 62 73 137 255 
8.23177 -4.15167 -1.09283 69 55 129 255 
7.71934 -3.9016 -1.108 67 61 132 255 
7.25881 -3.67532 -1.12031 64 69 136 255 
6.85658 -3.45645 -1.12154 64 70 136 255 
6.46849 -3.2652 -1.1269 57 85 140 255 
6.14233 -3.10587 -1.13576 53 94 141 255 
5.82482 -2.94925 -1.14183 56 88 140 255 
5.57427 -2.81491 -1.14612 52 97 141 255 
5.28593 -2.67174 -1.14269 53 94 141 255 
5.06119 -2.55919 -1.15077 50 100 142 255 
4.85451 -2.4569 -1.15946 59 81 139 255 
4.68106 -2.36692 -1.16385 55 91 141 255 
4.49432 -2.27359 -1.16651 50 101 142 255 
4.31029 -2.18139 -1.16781 62 74 137 255 
4.17498 -2.11115 -1.18034 61 78 138 255 
4.02422 -2.03921 -1.17934 61 77 138 255 
3.87654 -1.96447 -1.17912 62 76 138 255 
3.72509 -1.88604 -1.17678 62 73 137 255 
3.58635 -1.81193 -1.17726 68 58 131 255 
8.55851 -4.35979 2.88529 54 92 141 255 
8.74242 -4.44403 2.83624 55 90 140 255 
8.78291 -4.46066 2.74482 54 92 141 255 
8.84166 -4.49072 2.66275 57 85 140 255 
9.14894 -4.65454 2.66424 55 91 141 255 
8.99209 -4.57292 2.5115 64 70 136 255 
9.99374 -5.0844 2.67746 67 62 133 255 
9.33595 -4.75201 2.39927 57 85 140 255 
30.0153 -15.2637 7.42823 70 10 93 255 
9.68863 -4.92927 2.28482 65 68 135 255 
9.67689 -4.92957 2.17599 50 101 142 255 
9.6786 -4.93491 2.07244 57 85 140 255 
9.70716 -4.9364 1.98694 50 101 142 255 
9.77461 -4.97517 1.89252 56 89 140 255 
9.77724 -4.98499 1.78538 34 141 141 255 
9.75338 -4.98376 1.67994 35 137 142 255 
9.75624 -4.9635 1.58908 38 130 142 255 
9.76405 -4.97194 1.4834 34 139 141 255 
9.74527 -4.97512 1.37645 36 135 142 255 
9.76305 -4.99299 1.27848 34 140 141 255 
9.69647 -4.9331 1.17994 59 82 139 255 
9.7326 -4.96234 1.0808 34 139 141 255 
9.7733 -4.99158 0.981353 32 146 140 255 
9.76323 -4.99952 0.87868 37 132 142 255 
9.78137 -4.97843 0.792505 33 144 141 255 
9.77783 -4.98755 0.688654 32 146 140 255 
9.78955 -5.00635 0.585867 35 138 141 255 
9.77803 -5.0114 0.481644 37 132 142 255 
9.7943 -4.98932 0.39537 37 131 142 255 
9.81324 -5.00993 0.292368 36 134 142 255 
9.81448 -5.02126 0.188582 34 141 141 255 
9.73199 -4.99209 0.085906 67 62 133 255 
9.75344 -4.97064 -0.00191061 51 99 141 255 
9.77531 -4.99487 -0.10538 71 47 125 255 
9.84268 -5.04002 -0.208464 70 50 126 255 
9.8387 -5.05116 -0.312786 69 4 87 255 
9.7275 -4.96383 -0.39663 69 5 89 255 
9.75765 -4.99014 -0.49959 70 11 94 255 
9.77891 -5.00952 -0.604672 70 8 92 255 
9.87639 -5.07268 -0.716049 69 4 87 255 
9.79902 -5.00248 -0.79829 57 86 140 255 
9.90648 -5.07062 -0.911041 41 122 142 255 
10.081 -5.17093 -1.03508 54 93 141 255 
9.66462 -4.96391 -1.09595 71 45 123 255 
9.01548 -4.60842 -1.10351 68 57 131 255 
8.21763 -4.20799 -1.09436 69 55 129 255 
7.69084 -3.94663 -1.10737 68 59 132 255 
7.24141 -3.7225 -1.12113 66 65 134 255 
6.85198 -3.50703 -1.12429 60 79 138 255 
6.45361 -3.30754 -1.12783 60 79 138 255 
6.1214 -3.1426 -1.13543 58 83 139 255 
5.82764 -2.99574 -1.14596 55 91 141 255 
5.5639 -2.85265 -1.14756 52 97 141 255 
5.29215 -2.71578 -1.14762 53 94 141 255 
5.06283 -2.59915 -1.15475 50 100 142 255 
4.84021 -2.48708 -1.15967 59 81 139 255 
4.65602 -2.39025 -1.16125 55 91 141 255 
4.48722 -2.30469 -1.16832 51 99 141 255 
4.31325 -2.21624 -1.17228 60 80 139 255 
4.14987 -2.13053 -1.17692 62 73 137 255 
4.02024 -2.06829 -1.18187 61 78 138 255 
3.87128 -1.99175 -1.18122 62 76 138 255 
3.72714 -1.9159 -1.18112 62 74 137 255 
3.57431 -1.83347 -1.17697 66 64 134 255 
8.75108 -4.52573 2.95952 62 73 137 255 
8.89426 -4.59011 2.89458 56 88 140 255 
8.85641 -4.56656 2.77649 61 78 138 255 
8.98991 -4.63563 2.71591 66 63 133 255 
9.08237 -4.69104 2.65318 52 96 141 255 
9.02853 -4.6614 2.52962 47 107 142 255 
10.6053 -5.47771 2.85026 62 73 137 255 
10.9606 -5.66391 2.82568 63 71 136 255 
26.9847 -13.9317 6.69926 71 19 101 255 
9.69472 -5.00749 2.29346 50 102 142 255 
9.67781 -5.00507 2.18306 62 74 137 255 
15.1814 -7.85842 3.261 72 41 121 255 
9.67668 -4.99587 1.98694 62 76 138 255 
9.71413 -5.01967 1.88674 51 98 141 255 
9.75962 -5.0517 1.78779 31 149 139 255 
9.75245 -5.05898 1.6851 31 153 138 255 
9.77308 -5.0478 1.59684 31 160 136 255 
9.77121 -5.05132 1.48917 31 158 137 255 
9.76037 -5.05857 1.38294 30 157 137 255 
9.76749 -5.07111 1.28311 31 153 138 255 
9.69164 -5.00573 1.18307 61 78 138 255 
9.77002 -5.05719 1.08838 33 145 140 255 
9.76106 -5.06108 0.983223 31 150 139 255 
9.77129 -5.07956 0.882194 32 147 140 255 
9.77456 -5.05072 0.794449 32 147 140 255 
9.77895 -5.06398 0.690909 30 157 137 255 
9.78081 -5.07782 0.587197 33 144 141 255 
9.78786 -5.09252 0.483658 35 136 142 255 
9.8141 -5.07549 0.397419 31 154 138 255 
9.79917 -5.07879 0.292872 33 143 141 255 
9.79769 -5.08876 0.188856 33 144 141 255 
9.73842 -5.0711 0.0862358 66 63 133 255 
9.77249 -5.05613 -0.00192039 50 102 142 255 
9.83768 -5.1031 -0.106388 70 52 128 255 
9.84706 -5.11876 -0.209218 70 48 126 255 
9.78979 -5.10219 -0.31222 70 7 90 255 
9.74833 -5.05009 -0.398735 70 8 92 255 
9.71089 -5.04163 -0.498771 70 8 92 255 
9.81886 -5.10628 -0.609068 70 7 90 255 
9.8026 -5.11104 -0.712959 70 7 90 255 
9.82836 -5.09372 -0.803211 58 84 140 255 
9.90702 -5.14785 -0.913978 42 118 142 255 
10.1277 -5.27362 -1.04318 51 99 141 255 
9.66309 -5.0383 -1.09926 70 48 126 255 
8.99939 -4.67006 -1.10502 70 50 126 255 
8.21192 -4.26887 -1.09706 70 52 128 255 
7.67352 -3.99741 -1.10838 69 56 130 255 
7.22809 -3.77191 -1.12263 62 74 137 255 
6.85404 -3.56132 -1.12819 62 76 138 255 
6.44372 -3.35255 -1.12967 59 81 139 255 
6.1195 -3.18922 -1.13869 55 91 141 255 
5.81177 -3.03281 -1.14648 56 89 140 255 
5.55763 -2.89264 -1.14991 53 95 141 255 
5.278 -2.74956 -1.14818 51 99 141 255 
5.07112 -2.64285 -1.16032 50 101 142 255 
4.824 -2.51628 -1.15946 61 77 138 255 
4.66205 -2.4296 -1.16644 53 94 141 255 
4.48854 -2.34028 -1.17238 48 106 142 255 
4.30647 -2.24626 -1.17416 58 84 140 255 
4.14876 -2.16223 -1.18034 64 70 136 255 
4.0049 -2.09157 -1.18111 62 76 138 255 
3.86412 -2.01814 -1.18279 61 78 138 255 
3.71105 -1.93651 -1.17976 62 73 137 255 
3.60385 -1.87664 -1.19047 64 69 136 255 
10.464 -5.49325 3.55015 71 45 123 255 
9.08036 -4.75693 2.96459 68 57 131 255 
9.19692 -4.8138 2.89245 57 85 140 255 
10.2251 -5.35223 3.09893 72 32 113 255 
9.09456 -4.76826 2.66524 60 80 139 255 
9.65727 -5.0613 2.71443 66 63 133 255 
9.85738 -5.16826 2.65772 72 24 106 255 
10.9024 -5.71883 2.81965 68 57 131 255 
10.125 -5.30626 2.52167 72 27 109 255 
9.65601 -5.06279 2.29161 67 61 132 255 
15.0069 -7.8782 3.396 71 47 125 255 
15.1416 -7.956 3.26287 72 29 111 255 
22.1898 -11.6291 4.57087 72 32 113 255 
9.67442 -5.0746 1.88504 72 35 116 255 
9.74242 -5.11883 1.79036 43 117 142 255 
9.75884 -5.13853 1.69162 34 141 141 255 
9.77172 -5.12329 1.60172 30 155 138 255 
9.7567 -5.11993 1.49172 31 149 139 255 
9.75198 -5.13037 1.38618 33 142 141 255 
9.76168 -5.14437 1.28647 36 135 142 255 
9.69508 -5.08311 1.18727 62 73 137 255 
9.75554 -5.12584 1.09025 34 141 141 255 
9.75891 -5.13619 0.986162 35 138 141 255 
9.76727 -5.15384 0.884669 37 131 142 255 
9.7743 -5.12682 0.79697 47 107 142 255 
9.78127 -5.14153 0.693288 32 146 140 255 
9.78039 -5.15404 0.589059 38 130 142 255 
9.78382 -5.16694 0.485016 43 116 142 255 
9.79605 -5.14258 0.397959 35 136 142 255 
9.80233 -5.15697 0.293907 41 122 142 255 
9.79635 -5.16463 0.189437 41 123 142 255 
9.76547 -5.1616 0.0867542 62 73 137 255 
9.79972 -5.14668 -0.0019319 48 105 142 255 
9.81149 -5.16616 -0.106445 69 5 89 255 
9.85702 -5.20102 -0.210104 70 7 90 255 
9.84666 -5.20891 -0.315047 70 7 90 255 
9.81622 -5.1619 -0.402801 70 8 92 255 
9.88922 -5.2115 -0.509563 69 5 89 255 
9.80677 -5.17669 -0.610277 69 5 89 255 
9.79928 -5.18603 -0.715019 69 5 89 255 
9.84723 -5.1804 -0.807336 58 84 140 255 
9.90787 -5.22575 -0.916997 42 120 142 255 
10.2166 -5.39988 -1.05573 62 73 137 255 
9.64607 -5.10495 -1.10087 71 45 123 255 
8.97672 -4.72844 -1.10578 69 55 129 255 
8.18996 -4.32149 -1.09765 70 50 126 255 
7.66463 -4.05276 -1.11067 68 58 131 255 
7.2232 -3.82592 -1.1255 64 70 136 255 
6.82593 -3.60008 -1.12718 57 86 140 255 
6.43176 -3.39663 -1.13121 61 77 138 255 
6.10941 -3.23179 -1.14048 56 88 140 255 
5.78348 -3.06334 -1.14458 57 86 140 255 
5.55282 -2.93358 -1.15261 51 98 141 255 
5.26364 -2.78327 -1.14875 54 93 141 255 
5.03661 -2.66429 -1.15614 50 102 142 255 
4.82143 -2.5527 -1.16259 59 82 139 255 
4.66776 -2.46912 -1.17164 54 92 141 255 
4.46463 -2.36277 -1.1699 51 98 141 255 
4.30635 -2.27992 -1.17792 55 90 140 255 
4.14827 -2.19444 -1.18401 61 78 138 255 
3.98002 -2.10976 -1.17757 63 72 137 255 
3.8636 -2.04815 -1.18645 64 69 136 255 
3.72206 -1.97141 -1.18709 65 66 135 255 
3.59397 -1.89961 -1.19103 64 69 136 255 
9.41924 -5.01873 3.20607 68 59 132 255 
9.49885 -5.05068 3.11128 50 100 142 255 
9.74143 -5.1752 3.07363 64 70 136 255 
9.44494 -5.01793 2.87176 57 85 140 255 
9.04292 -4.81215 2.65871 55 91 141 255 
9.68857 -5.15373 2.73206 65 68 135 255 
9.76881 -5.19849 2.64239 48 106 142 255 
12.045 -6.41274 3.12528 72 20 103 255 
10.0414 -5.34122 2.50896 56 88 140 255 
14.9559 -7.95899 3.56094 72 41 121 255 
14.8484 -7.91157 3.37105 67 62 133 255 
10.9512 -5.84023 2.36756 72 28 110 255 
15.6179 -8.30753 3.22757 72 23 105 255 
22.1845 -11.8108 4.33664 72 38 119 255 
9.73782 -5.19291 1.79534 41 122 142 255 
9.77246 -5.22254 1.6995 41 122 142 255 
9.76369 -5.19571 1.6056 41 121 142 255 
9.76884 -5.20299 1.49842 43 117 142 255 
9.78421 -5.22422 1.39529 43 116 142 255 
9.8 -5.24165 1.29573 38 129 142 255 
9.67599 -5.14904 1.18878 67 61 132 255 
9.77133 -5.21089 1.09557 32 146 140 255 
9.79573 -5.23258 0.99311 39 126 142 255 
9.81191 -5.25462 0.891616 38 130 142 255 
9.81133 -5.22325 0.802587 39 127 142 255 
9.81117 -5.23434 0.697671 43 117 142 255 
9.81638 -5.25021 0.593156 48 106 142 255 
9.81005 -5.25802 0.487906 49 104 142 255 
