ply
format ascii 1.0
comment VTK generated PLY File
obj_info vtkPolyData points and polygons: vtk4.0
element vertex 1239
property float x
property float y
property float z
property uchar red
property uchar green
property uchar blue
property uchar alpha
element face 0
property list uchar int vertex_indices
end_header
-0.62032 11.0963 -0.403635 59 82 139 255 
-0.590648 10.7366 -0.490164 61 78 138 255 
-0.577772 10.6362 -0.586209 58 84 140 255 
-0.558743 10.4913 -0.677562 62 74 137 255 
-0.564561 10.1306 -0.736198 56 89 140 255 
-0.55438 10.1419 -0.83149 54 92 141 255 
-0.547797 10.1828 -0.931637 55 91 141 255 
-0.53353 10.0179 -1.01195 63 72 137 255 
-0.511351 9.26296 -1.01109 58 84 140 255 
-0.468211 8.59301 -1.02008 60 80 139 255 
-0.43508 8.11394 -1.04091 59 82 139 255 
-0.404329 7.6421 -1.05375 58 83 139 255 
-0.394488 7.21456 -1.05535 53 95 141 255 
-0.370655 6.84655 -1.06636 55 90 140 255 
-0.347227 6.49675 -1.07357 57 86 140 255 
-0.326162 6.16468 -1.07963 54 93 141 255 
-0.319954 5.92722 -1.08943 53 94 141 255 
-0.302991 5.65151 -1.09192 51 98 141 255 
-0.288719 5.40205 -1.09768 54 92 141 255 
-0.275033 5.1812 -1.10569 59 82 139 255 
-0.267546 5.00496 -1.11208 58 84 140 255 
-0.255347 4.79413 -1.11191 57 86 140 255 
-0.245986 4.63284 -1.12152 57 85 140 255 
-0.23881 4.46937 -1.12921 57 86 140 255 
-0.225971 4.29745 -1.12496 57 85 140 255 
-0.219554 4.17701 -1.13487 56 89 140 255 
-0.212211 4.00995 -1.13175 60 80 139 255 
-0.205533 3.82159 -1.1213 62 74 137 255 
-0.5101 10.1112 3.04122 57 86 140 255 
-0.541816 10.5598 3.05794 62 73 137 255 
-0.553372 10.7102 2.98827 55 91 141 255 
-0.548462 10.6192 2.85517 58 84 140 255 
-0.538027 10.5551 2.74312 71 46 124 255 
-0.537275 10.5071 2.61924 70 51 127 255 
-0.683635 13.413 3.20701 71 17 100 255 
-0.709314 13.9698 3.20364 69 56 130 255 
-0.692309 13.5355 2.98977 72 31 112 255 
-0 0 0 68 1 84 255 
-0 0 0 68 1 84 255 
-0 0 0 68 1 84 255 
-0.63332 12.3821 2.2621 69 56 130 255 
-0.641199 12.6259 2.18141 71 17 100 255 
-1.70504 34.0373 5.54417 69 5 89 255 
-1.75215 35.611 5.46858 70 8 92 255 
-1.8348 35.9955 5.23229 71 14 97 255 
-0.773606 15.2858 2.07209 58 84 140 255 
-0.828322 16.7106 2.10473 46 111 142 255 
-2.63067 53.8486 6.28561 69 5 89 255 
-2.73017 53.561 5.81667 70 8 92 255 
-0.766296 15.3 1.51556 70 51 127 255 
-0 0 0 69 4 87 255 
-0 0 0 68 2 86 255 
-0.653767 12.8699 0.930494 72 37 118 255 
-0.758435 15.1962 0.954586 70 51 127 255 
-0.74399 15.2242 0.812158 70 50 126 255 
-0.698979 14.5682 0.639345 72 35 116 255 
-0.650199 12.8883 0.464171 62 76 138 255 
-0.63762 12.8657 0.341813 62 73 137 255 
-0.627171 12.8799 0.220582 62 73 137 255 
-0.590404 12.3956 0.0974669 60 80 139 255 
-0.61704 12.2735 -0.00214484 61 77 138 255 
-0.589532 11.98 -0.115142 64 69 136 255 
-0.57177 11.8271 -0.223222 59 82 139 255 
-0.534032 11.2949 -0.319797 64 70 136 255 
-0.548101 11.0171 -0.400623 55 91 141 255 
-0.529341 10.8338 -0.494444 59 82 139 255 
-0.508752 10.5618 -0.581922 58 84 140 255 
-0.494828 10.5045 -0.678206 56 88 140 255 
-0.508662 10.2604 -0.745389 59 82 139 255 
-0.491754 10.1371 -0.830837 53 94 141 255 
-0.482604 10.1293 -0.926451 55 91 141 255 
-0.471396 10.0071 -1.01054 61 78 138 255 
-0.454505 9.26592 -1.01109 61 78 138 255 
-0.415093 8.58778 -1.01914 58 83 139 255 
-0.385003 8.11051 -1.04015 58 84 140 255 
-0.356737 7.6296 -1.0517 55 91 141 255 
-0.350741 7.22771 -1.05694 55 90 140 255 
-0.328259 6.8408 -1.06513 57 85 140 255 
-0.308056 6.51354 -1.07601 56 88 140 255 
-0.28902 6.18133 -1.08222 57 86 140 255 
-0.282593 5.90844 -1.08564 56 89 140 255 
-0.268355 5.65425 -1.09211 53 94 141 255 
-0.254734 5.3861 -1.0941 55 91 141 255 
-0.243558 5.18963 -1.10715 58 84 140 255 
-0.236647 5.00261 -1.11121 55 90 140 255 
-0.22643 4.80631 -1.11439 57 86 140 255 
-0.217737 4.63815 -1.12246 56 89 140 255 
-0.210924 4.46107 -1.12677 57 86 140 255 
-0.200047 4.30842 -1.12749 56 88 140 255 
-0.194099 4.18214 -1.13592 58 84 140 255 
-0.187738 4.01406 -1.13256 59 82 139 255 
-0.183222 3.84675 -1.12833 61 78 138 255 
-0.465766 10.5141 3.16148 59 82 139 255 
-0.481692 10.6666 3.08794 62 74 137 255 
-0.531097 11.668 3.25454 71 44 122 255 
-0.489922 10.768 2.89432 72 37 118 255 
-0.462633 10.3213 2.68157 70 51 127 255 
-0.466427 10.3687 2.58397 52 97 141 255 
-0.624272 13.929 3.32941 70 10 93 255 
-0.625495 14.0168 3.21346 72 26 108 255 
-0.632817 14.0633 3.10545 58 84 140 255 
-0 0 0 68 1 84 255 
-0 0 0 68 1 84 255 
-0.537714 12.2412 2.33739 72 36 117 255 
-0.55521 12.3386 2.25348 69 53 129 255 
-0 0 0 68 2 86 255 
-1.60952 36.6267 5.96422 70 8 92 255 
-1.5439 35.86 5.50526 70 7 90 255 
-1.60898 35.8963 5.21634 71 14 97 255 
-0.678919 15.2705 2.0694 72 33 115 255 
-0.726245 16.7263 2.10611 55 91 141 255 
-0 0 0 69 4 87 255 
-0 0 0 68 2 86 255 
-0.672402 15.3045 1.51556 53 95 141 255 
-0 0 0 68 1 84 255 
-3.21466 76.2119 6.11052 70 10 93 255 
-0.676131 15.1434 1.09456 69 5 89 255 
-0.665921 15.2175 0.95565 57 86 140 255 
-0.650221 15.2205 0.811732 64 70 136 255 
-0.613502 14.6661 0.643462 67 61 132 255 
-0.631741 14.2608 0.513453 64 70 136 255 
-0.61676 14.2076 0.377357 64 69 136 255 
-0.598026 14.0562 0.240662 70 11 94 255 
-0.514626 12.4059 0.0975219 61 78 138 255 
-0.535284 12.1312 -0.00211935 60 80 139 255 
-0.518508 12.0413 -0.115699 61 78 138 255 
-0.499738 11.8434 -0.223467 65 66 135 255 
-0.468579 11.3918 -0.322454 63 71 136 255 
-0.479403 10.9953 -0.399715 58 84 140 255 
-0.462813 10.8359 -0.494399 61 77 138 255 
-0.443224 10.5477 -0.580988 58 84 140 255 
-0.424484 10.3638 -0.668939 57 86 140 255 
-0.445047 10.2484 -0.744303 55 90 140 255 
-0.429671 10.1429 -0.831082 50 101 142 255 
-0.420361 10.1301 -0.926269 52 96 141 255 
-0.410188 10.0147 -1.01104 61 78 138 255 
-0.397088 9.25563 -1.00968 61 77 138 255 
-0.36235 8.58918 -1.01902 54 92 141 255 
-0.335558 8.12065 -1.04117 58 84 140 255 
-0.309232 7.61482 -1.04938 56 89 140 255 
-0.30647 7.23171 -1.05723 54 92 141 255 
-0.287022 6.86045 -1.06789 57 85 140 255 
-0.267029 6.48968 -1.07177 54 93 141 255 
-0.250127 6.15936 -1.07808 61 77 138 255 
-0.24617 5.90614 -1.08492 56 89 140 255 
-0.232967 5.63911 -1.08889 52 97 141 255 
-0.220915 5.36896 -1.09032 53 95 141 255 
-0.211351 5.18223 -1.10527 56 88 140 255 
-0.206067 5.00689 -1.11186 56 89 140 255 
-0.196815 4.80469 -1.11372 54 93 141 255 
-0.189076 4.63454 -1.12129 55 90 140 255 
-0.18287 4.44581 -1.12261 57 86 140 255 
-0.172867 4.2912 -1.12268 58 83 139 255 
-0.168668 4.18903 -1.13749 54 93 141 255 
-0.163495 4.02475 -1.13528 56 88 140 255 
-0.160053 3.85835 -1.13142 62 74 137 255 
-0.377875 9.90426 2.97735 58 84 140 255 
-0.416571 10.678 3.09044 70 50 126 255 
-0.404051 10.2628 2.86185 53 95 141 255 
-0.405044 10.2932 2.76596 71 42 122 255 
-0.536432 13.8697 3.60256 72 28 110 255 
-0.402572 10.3655 2.58252 58 84 140 255 
-0.401079 10.3714 2.47842 72 40 120 255 
-0.445555 11.5794 2.654 72 40 120 255 
-0.548106 14.1079 3.1145 72 32 113 255 
-0 0 0 68 1 84 255 
-0 0 0 68 2 86 255 
-0.460627 12.1923 2.32746 67 62 133 255 
-0.480216 12.3605 2.2569 69 5 89 255 
-0 0 0 68 1 84 255 
-0 0 0 69 4 87 255 
-0 0 0 68 2 86 255 
-1.71861 44.4356 6.4556 70 7 90 255 
-1.70407 44.4773 6.02589 69 4 87 255 
-0.569201 15.271 1.92238 58 84 140 255 
-0.557028 15.2365 1.77759 65 68 135 255 
-0.589166 15.2332 1.6534 65 68 135 255 
-0.577919 15.2934 1.51408 49 103 142 255 
-0.566554 15.2715 1.36657 60 80 139 255 
-0.550406 15.2741 1.22436 60 80 139 255 
-0.586999 15.246 1.10169 72 41 121 255 
-0.57261 15.2233 0.955776 58 83 139 255 
-0.55638 15.2122 0.811094 61 78 138 255 
-0.526458 14.7524 0.647097 70 52 128 255 
-0.548303 14.3712 0.517299 68 58 131 255 
-0.533034 14.304 0.379824 66 64 134 255 
-0.447028 12.2811 0.210218 72 23 105 255 
-0.435528 12.3249 0.0968622 68 59 132 255 
-0.463229 12.1972 -0.00213035 57 86 140 255 
-0.44384 12.0233 -0.115497 60 80 139 255 
-0.422268 11.7133 -0.22096 60 80 139 255 
-0.394338 11.2706 -0.318949 62 76 138 255 
-0.416342 11.1159 -0.403998 58 84 140 255 
-0.389089 10.6408 -0.485383 58 83 139 255 
-0.375023 10.4534 -0.575658 60 80 139 255 
-0.362065 10.4001 -0.671127 56 89 140 255 
-0.378812 10.1612 -0.73779 59 82 139 255 
-0.365191 10.0836 -0.826023 50 101 142 255 
-0.357105 10.1016 -0.923449 55 91 141 255 
-0.348766 10.0181 -1.01114 62 74 137 255 
-0.33839 9.20623 -1.00405 62 74 137 255 
-0.309641 8.59124 -1.01902 56 88 140 255 
-0.286108 8.13346 -1.04257 57 85 140 255 
-0.262264 7.60964 -1.04843 60 79 138 255 
-0.261768 7.22455 -1.05593 53 94 141 255 
-0.245239 6.87097 -1.06928 58 83 139 255 
-0.227549 6.50105 -1.0734 60 80 139 255 
-0.212092 6.15389 -1.07688 59 81 139 255 
-0.209961 5.90852 -1.0851 56 88 140 255 
-0.197948 5.62866 -1.08662 55 91 141 255 
-0.188071 5.37315 -1.09092 55 90 140 255 
-0.178873 5.16388 -1.1011 57 85 140 255 
-0.174249 4.97684 -1.10493 57 86 140 255 
-0.16628 4.77562 -1.10672 58 83 139 255 
-0.159828 4.6123 -1.11565 61 78 138 255 
-0.155384 4.44103 -1.12114 58 84 140 255 
-0.146434 4.28928 -1.12193 57 85 140 255 
-0.143027 4.19192 -1.13801 56 88 140 255 
-0.138332 4.01221 -1.13148 59 81 139 255 
-0.13624 3.85542 -1.1303 62 76 138 255 
-0.31627 9.88055 2.96959 60 79 138 255 
-0.346848 10.5526 3.05349 68 58 131 255 
-0.340081 10.2352 2.85352 53 94 141 255 
-0.338994 10.2086 2.74262 71 42 122 255 
-0.348088 10.6996 2.77855 70 7 90 255 
-0.340199 10.4056 2.59195 69 56 130 255 
-0.337022 10.3611 2.4754 64 70 136 255 
-0.451613 13.9669 3.20051 71 13 96 255 
-0.458148 14.0076 3.09167 70 11 94 255 
-0.461262 14.1844 2.98294 72 36 117 255 
-0.385965 12.06 2.41763 68 57 131 255 
-0.382671 12.0957 2.30854 71 14 97 255 
-0 0 0 68 1 84 255 
-0 0 0 68 2 86 255 
-0 0 0 68 1 84 255 
-0 0 0 68 1 84 255 
-0 0 0 68 2 86 255 
-0 0 0 68 2 86 255 
-0.518834 16.6665 2.09762 70 11 94 255 
-1.8539 60.9518 7.10955 69 4 87 255 
-0 0 0 69 4 87 255 
-0 0 0 69 4 87 255 
-0 0 0 69 4 87 255 
-2.2773 76.1828 6.10549 70 7 90 255 
-0.49286 15.2314 1.10039 72 23 105 255 
-0.478469 15.2036 0.954336 60 80 139 255 
-0.462998 15.2144 0.81104 62 73 137 255 
-0.438909 14.8562 0.65152 69 55 129 255 
-0.462031 14.4343 0.519456 68 57 131 255 
-0.440374 14.1502 0.37566 66 64 134 255 
-0.421679 13.9366 0.238507 72 35 116 255 
-0.358232 12.2704 0.0964145 65 66 135 255 
-0.386693 12.1468 -0.0021211 64 70 136 255 
-0.371904 12.0857 -0.116073 60 80 139 255 
-0.351764 11.7617 -0.221827 65 66 135 255 
-0.324541 11.2508 -0.318327 65 68 135 255 
-0.347471 11.0972 -0.403236 58 83 139 255 
-0.323487 10.633 -0.484927 52 96 141 255 
-0.31129 10.4695 -0.576427 57 86 140 255 
-0.297959 10.3921 -0.670483 61 78 138 255 
-0.315432 10.1304 -0.735402 55 91 141 255 
-0.302353 10.0538 -0.823412 54 92 141 255 
-0.29468 10.0887 -0.922084 51 98 141 255 
-0.28632 9.9862 -1.00773 65 66 135 255 
-0.280953 9.17733 -1.00069 66 65 134 255 
-0.256831 8.59 -1.01867 50 100 142 255 
-0.235937 8.12614 -1.04142 59 82 139 255 
-0.215511 7.60913 -1.04815 60 79 138 255 
-0.217077 7.21415 -1.05419 54 93 141 255 
-0.203104 6.87334 -1.06943 54 93 141 255 
-0.187541 6.49838 -1.07275 58 84 140 255 
-0.174998 6.17871 -1.08101 59 82 139 255 
-0.173096 5.88905 -1.08131 55 90 140 255 
-0.16335 5.6278 -1.08624 54 92 141 255 
-0.155748 5.39673 -1.09549 56 89 140 255 
-0.146961 5.15706 -1.09944 59 81 139 255 
-0.144018 4.98855 -1.10731 55 91 141 255 
-0.136974 4.77655 -1.10672 57 86 140 255 
-0.131413 4.6093 -1.11471 61 77 138 255 
-0.128019 4.43803 -1.12016 58 83 139 255 
-0.120357 4.2988 -1.1242 56 89 140 255 
-0.117168 4.18789 -1.1367 56 89 140 255 
-0.11322 3.99567 -1.12659 60 79 138 255 
-0.112525 3.85426 -1.12974 62 74 137 255 
-0.357922 13.8364 4.15777 71 47 125 255 
-0.271029 10.1407 2.93375 54 92 141 255 
-0.386971 14.2873 3.98248 71 45 123 255 
-0.379274 14.0133 3.7641 72 36 117 255 
-0.305514 11.5763 3.00565 72 31 112 255 
-0.276782 10.424 2.59605 53 95 141 255 
-0.277957 10.5341 2.51627 72 22 104 255 
-0.304828 11.6376 2.66628 71 19 101 255 
-0.314048 11.8215 2.6087 72 27 109 255 
-0.314843 11.936 2.50965 66 63 133 255 
-0.310742 12.0151 2.4082 72 38 119 255 
-0 0 0 68 1 84 255 
-0 0 0 68 1 84 255 
-0 0 0 68 1 84 255 
-0 0 0 68 2 86 255 
-0 0 0 68 1 84 255 
-0 0 0 68 1 84 255 
-0 0 0 68 2 86 255 
-0.381389 15.2619 1.92051 49 103 142 255 
-0.369986 15.2412 1.77748 58 84 140 255 
-0.401951 15.2303 1.65243 64 69 136 255 
-0.387665 15.1998 1.50424 60 79 138 255 
-0.378291 15.2445 1.36363 58 83 139 255 
-0.361815 15.2329 1.2206 60 79 138 255 
-0.398295 15.1922 1.09736 72 35 116 255 
-0.384693 15.1873 0.953146 64 70 136 255 
-0.368884 15.186 0.809391 65 68 135 255 
-0.34737 14.8427 0.650819 70 52 128 255 
-0.374231 14.4668 0.520535 67 62 133 255 
-0.353792 14.1626 0.375925 64 69 136 255 
-0.33382 13.8419 0.236848 65 68 135 255 
-0.280378 12.1614 0.0955427 66 63 133 255 
-0.310305 12.077 -0.00210853 63 72 137 255 
-0.292988 11.8948 -0.11422 60 79 138 255 
-0.279518 11.7606 -0.221771 62 74 137 255 
-0.263171 11.5904 -0.327882 65 66 135 255 
-0.278217 11.0532 -0.401567 59 82 139 255 
-0.258941 10.6638 -0.486248 55 90 140 255 
-0.248387 10.5281 -0.57956 60 80 139 255 
-0.233649 10.3698 -0.668939 59 81 139 255 
-0.254439 10.1791 -0.738803 61 78 138 255 
-0.241207 10.0784 -0.825289 56 88 140 255 
-0.232129 10.0624 -0.919537 54 93 141 255 
-0.225197 9.99473 -1.00843 62 73 137 255 
-0.22522 9.20273 -1.00329 64 70 136 255 
-0.20386 8.58049 -1.01737 54 93 141 255 
-0.185913 8.1205 -1.04053 58 83 139 255 
-0.16917 7.62615 -1.05034 57 86 140 255 
-0.172595 7.20645 -1.05289 57 86 140 255 
-0.16051 6.85667 -1.06666 52 96 141 255 
-0.147373 6.48659 -1.07063 56 88 140 255 
-0.137039 6.17769 -1.08067 58 84 140 255 
-0.137713 5.92245 -1.08727 53 94 141 255 
-0.128861 5.63066 -1.08662 55 91 141 255 
-0.122721 5.40151 -1.09629 54 92 141 255 
-0.115534 5.16764 -1.10152 61 77 138 255 
-0.113184 4.97958 -1.10514 54 92 141 255 
-0.107641 4.77633 -1.1065 57 85 140 255 
-0.103281 4.61683 -1.11635 58 83 139 255 
-0.100984 4.44745 -1.12236 58 84 140 255 
-0.0941678 4.30817 -1.12648 55 91 141 255 
-0.0908793 4.16152 -1.12937 57 86 140 255 
-0.0881246 3.97031 -1.11927 61 78 138 255 
-0.088829 3.85296 -1.12918 62 76 138 255 
-0.203932 10.3366 3.10567 72 37 118 255 
-0.212065 10.3006 2.97959 71 45 123 255 
-0.216087 10.3166 2.87527 61 78 138 255 
-0.288595 13.7914 3.70394 71 16 99 255 
-0.212371 10.4863 2.72227 72 40 120 255 
-0.216758 10.6186 2.64413 58 83 139 255 
-0.236412 11.6763 2.78871 63 71 136 255 
-0.232575 11.5973 2.65668 72 31 112 255 
-0.241587 11.8271 2.60956 65 66 135 255 
-0.240352 11.876 2.49669 72 38 119 255 
-0.227229 11.5207 2.30879 71 13 96 255 
-0 0 0 68 1 84 255 
-0 0 0 68 1 84 255 
-0 0 0 68 1 84 255 
-0 0 0 68 1 84 255 
-0 0 0 68 2 86 255 
-0 0 0 68 1 84 255 
-0.3012 15.1438 2.05062 71 14 97 255 
-0 0 0 69 4 87 255 
-0 0 0 69 4 87 255 
-0 0 0 69 4 87 255 
-0.295107 15.2387 1.50788 46 110 142 255 
-1.72551 92.3912 8.26339 69 5 89 255 
-1.33784 75.9549 6.08544 70 10 93 255 
-0.303808 15.1315 1.09283 72 26 108 255 
-0.291288 15.1784 0.952457 62 76 138 255 
-0.27568 15.187 0.809338 58 83 139 255 
-0.259981 15.0583 0.660191 68 59 132 255 
-0.283525 14.3709 0.517012 64 70 136 255 
-0.267808 14.2135 0.377225 66 64 134 255 
-0.247263 13.7538 0.235308 71 19 101 255 
-0.210318 12.4328 0.0976633 65 68 135 255 
-0.236861 12.1127 -0.00211447 55 90 140 255 
-0.219775 11.8844 -0.114105 58 83 139 255 
-0.208338 11.8181 -0.222826 62 73 137 255 
-0.192794 11.6367 -0.329154 66 63 133 255 
-0.207443 10.8998 -0.395941 56 88 140 255 
-0.193704 10.6762 -0.486749 60 80 139 255 
-0.184376 10.5634 -0.581428 57 85 140 255 
-0.169771 10.3561 -0.667973 56 89 140 255 
-0.190735 10.1146 -0.734027 58 83 139 255 
-0.179132 10.0667 -0.824228 55 91 141 255 
-0.169927 10.0368 -0.91708 53 95 141 255 
-0.163899 9.99791 -1.00864 60 80 139 255 
-0.168968 9.21587 -1.00459 63 71 136 255 
-0.151014 8.57066 -1.01608 55 91 141 255 
-0.135884 8.10958 -1.03901 63 72 137 255 
-0.122596 7.64091 -1.05225 56 89 140 255 
-0.128374 7.20737 -1.05289 55 91 141 255 
-0.11794 6.82888 -1.06221 55 90 140 255 
-0.107242 6.46764 -1.06738 56 89 140 255 
-0.0992097 6.18334 -1.08153 54 92 141 255 
-0.101371 5.92318 -1.08727 52 97 141 255 
-0.0943749 5.63527 -1.08738 52 97 141 255 
-0.089429 5.39334 -1.0945 55 90 140 255 
-0.0837446 5.16336 -1.10048 60 79 138 255 
-0.0825954 4.97823 -1.10471 53 95 141 255 
-0.0783 4.77495 -1.10604 60 80 139 255 
-0.0749189 4.61543 -1.11588 58 83 139 255 
-0.0735804 4.4412 -1.12065 57 86 140 255 
-0.0681422 4.33478 -1.13331 56 88 140 255 
-0.0650703 4.14463 -1.12466 59 82 139 255 
-0.0647506 4.03237 -1.13663 62 76 138 255 
-0.0651048 3.84864 -1.12777 61 77 138 255 
-0.140673 10.3501 3.10941 61 77 138 255 
-0.174146 12.0518 3.48578 72 40 120 255 
-0.152881 10.3245 2.87715 55 91 141 255 
-0.159027 10.7539 2.88784 69 53 129 255 
-0.148529 10.5232 2.73157 50 100 142 255 
-0.165561 11.5978 2.88764 70 52 128 255 
-0.162403 11.5102 2.74876 67 61 132 255 
-0.162618 11.6853 2.67655 69 55 129 255 
-0.168538 11.7952 2.60224 72 24 106 255 
-0.163669 11.6072 2.43992 71 42 122 255 
-0.156682 11.5327 2.31095 65 68 135 255 
-0 0 0 68 1 84 255 
-0 0 0 68 1 84 255 
-0 0 0 68 1 84 255 
-0 0 0 68 1 84 255 
-0 0 0 68 1 84 255 
-0 0 0 68 2 86 255 
-0.208478 15.1603 2.05263 72 31 112 255 
-0.780074 61.3594 7.71948 70 7 90 255 
-0.716552 59.7162 6.96271 69 5 89 255 
-0.84246 59.688 6.47429 69 5 89 255 
-0.201598 15.2403 1.50788 46 110 142 255 
-0 0 0 68 2 86 255 
-0.871687 75.9547 6.08488 70 8 92 255 
-0 0 0 68 2 86 255 
-0.198123 15.1779 0.952332 63 72 137 255 
-0.182309 15.1734 0.80854 59 82 139 255 
-0.165068 14.8338 0.650293 69 53 129 255 
-0.193372 14.2275 0.5118 66 64 134 255 
-0.178572 14.0559 0.373007 65 66 135 255 
-0.151846 12.8242 0.219385 71 42 122 255 
-0.134092 12.4399 0.0977104 64 70 136 255 
-0.162548 12.1149 -0.00211464 57 85 140 255 
-0.148629 12.0295 -0.115488 58 83 139 255 
-0.136233 11.8551 -0.223505 69 56 130 255 
-0.119272 11.4348 -0.323415 63 72 137 255 
-0.141718 10.9908 -0.399207 60 80 139 255 
-0.128121 10.6711 -0.486475 58 84 140 255 
-0.119059 10.5204 -0.57901 57 86 140 255 
-0.106091 10.344 -0.667136 59 82 139 255 
-0.129989 10.2193 -0.741553 57 85 140 255 
-0.117244 10.0577 -0.823412 55 91 141 255 
-0.108576 10.0595 -0.919082 55 90 140 255 
-0.102183 9.96292 -1.00502 62 74 137 255 
-0.112368 9.21276 -1.00415 65 66 135 255 
-0.0985711 8.58433 -1.01761 57 85 140 255 
-0.0859742 8.09638 -1.03723 60 80 139 255 
-0.0756706 7.63756 -1.0517 57 86 140 255 
-0.084217 7.21396 -1.05376 50 100 142 255 
-0.0758608 6.81366 -1.05975 57 86 140 255 
-0.0674424 6.45732 -1.06559 54 92 141 255 
-0.0611309 6.17005 -1.07912 59 82 139 255 
-0.0646469 5.88927 -1.08095 54 92 141 255 
-0.0597853 5.63476 -1.08719 47 108 142 255 
-0.0562526 5.38595 -1.09291 56 89 140 255 
-0.0519035 5.14813 -1.09714 60 80 139 255 
-0.0521092 4.9845 -1.10601 50 100 142 255 
-0.0491099 4.78606 -1.10853 55 90 140 255 
-0.046431 4.59928 -1.11189 57 86 140 255 
-0.0464294 4.45127 -1.1231 60 80 139 255 
-0.0413485 4.3148 -1.128 57 86 140 255 
-0.0395735 4.13819 -1.12282 59 81 139 255 
-0.0396635 3.99804 -1.12687 61 78 138 255 
-0.0415612 3.85568 -1.12974 59 81 139 255 
-0.0704665 9.45245 2.83955 56 89 140 255 
-0.0986529 11.8673 3.43216 70 51 127 255 
-0.0925099 10.6691 2.97297 71 42 122 255 
-0.0916275 10.5914 2.84401 72 35 116 255 
-0.0850149 10.6566 2.76598 70 51 127 255 
-0.0898384 11.0387 2.74825 69 55 129 255 
-0.0931702 11.6861 2.79057 70 50 126 255 
-0.0913476 11.7416 2.68927 72 20 103 255 
-0.0963123 11.8145 2.60633 72 35 116 255 
-0.0928122 11.654 2.44958 68 57 131 255 
-0.0861271 11.5619 2.31665 46 110 142 255 
-0 0 0 68 2 86 255 
-0 0 0 68 1 84 255 
-0 0 0 68 2 86 255 
-0 0 0 68 1 84 255 
-0 0 0 68 1 84 255 
-0 0 0 68 1 84 255 
-0.115754 15.2009 2.058 68 57 131 255 
-0 0 0 69 4 87 255 
-0 0 0 69 4 87 255 
-0.474984 59.5389 6.45769 69 5 89 255 
-0.108124 15.2472 1.50847 48 105 142 255 
-0 0 0 68 2 86 255 
-0.405323 75.9028 6.08041 69 5 89 255 
-0.592739 75.9589 5.48495 69 5 89 255 
-0.104997 15.1798 0.952394 61 78 138 255 
-0.0890806 15.1532 0.807422 61 77 138 255 
-0.0747444 14.9744 0.656425 67 62 133 255 
-0.107359 14.4013 0.518018 69 56 130 255 
-0.091082 13.8678 0.367994 67 61 132 255 
-0.0762405 13.3658 0.228638 71 17 100 255 
-0.0577739 12.4435 0.0977339 64 70 136 255 
-0.0886383 12.1747 -0.00212494 61 78 138 255 
-0.074416 11.9662 -0.114873 58 83 139 255 
-0.0623966 11.6518 -0.21966 66 63 133 255 
-0.0491843 11.4533 -0.323924 62 74 137 255 
-0.0751484 11.1204 -0.403889 57 85 140 255 
-0.0627995 10.6987 -0.487705 58 83 139 255 
-0.0543135 10.484 -0.576977 57 86 140 255 
-0.0426154 10.3434 -0.667072 56 88 140 255 
-0.0672885 10.2209 -0.741626 58 84 140 255 
-0.0555789 10.0672 -0.824147 49 103 142 255 
-0.0469243 10.0759 -0.920538 51 99 141 255 
-0.0410495 9.96336 -1.00502 59 81 139 255 
-0.0557716 9.20234 -1.00296 64 69 136 255 
-0.0459446 8.59371 -1.01867 59 82 139 255 
-0.0362631 8.08981 -1.03634 61 77 138 255 
-0.0288134 7.63986 -1.05197 54 92 141 255 
-0.0399514 7.21434 -1.05376 51 99 141 255 
-0.0340318 6.81005 -1.05913 58 84 140 255 
-0.0278197 6.45761 -1.06559 54 92 141 255 
-0.0232042 6.15257 -1.07602 60 80 139 255 
-0.0285431 5.89644 -1.08221 52 97 141 255 
-0.0252275 5.63895 -1.08794 47 108 142 255 
-0.023204 5.38619 -1.09291 56 88 140 255 
-0.0202408 5.12977 -1.09318 57 86 140 255 
-0.0214818 4.97497 -1.10384 49 103 142 255 
-0.0197503 4.78822 -1.10898 57 85 140 255 
-0.0181825 4.59267 -1.11024 59 82 139 255 
-0.0191161 4.45147 -1.1231 60 80 139 255 
-0.0148826 4.31788 -1.12875 62 73 137 255 
-0.0142011 4.14415 -1.12439 57 85 140 255 
-0.0150948 3.98858 -1.12415 61 78 138 255 
-0.0179381 3.86354 -1.13199 61 78 138 255 
-0.0125203 9.49389 2.85192 58 84 140 255 
-0.0208892 9.59575 2.77512 58 83 139 255 
-0.0263648 10.4017 2.89835 69 55 129 255 
-0.0265408 10.5532 2.83364 57 85 140 255 
-0.0198666 10.7875 2.7999 68 58 131 255 
-0.0213177 10.646 2.65041 63 72 137 255 
-0.0241187 13.1318 3.1357 72 28 110 255 
-0.0217216 13.2148 3.0266 69 4 87 255 
-0.0264045 13.0981 2.88939 69 56 130 255 
-0.0212994 11.6524 2.44917 72 22 104 255 
-0.01516 11.5445 2.31311 71 16 99 255 
-0 0 0 68 1 84 255 
-0 0 0 68 2 86 255 
-0 0 0 68 1 84 255 
-0 0 0 68 1 84 255 
-0 0 0 68 1 84 255 
-0 0 0 68 1 84 255 
-0.022503 15.2162 2.06001 62 73 137 255 
-0.0268889 61.0181 7.67592 69 5 89 255 
0.0168048 61.5272 7.17336 69 5 89 255 
-0.110918 60.2287 6.53231 69 5 89 255 
-0.0145527 15.2326 1.50699 56 89 140 255 
-0 0 0 68 2 86 255 
0.0603787 75.858 6.07674 70 7 90 255 
-0 0 0 69 4 87 255 
-0.0118535 15.1801 0.952394 58 84 140 255 
0.00390117 15.1595 0.807742 61 78 138 255 
0.0170732 14.9177 0.653928 66 64 134 255 
-0.0185998 14.1039 0.507306 66 65 134 255 
-0.00598588 13.8611 0.367808 64 69 136 255 
0.00551387 12.7681 0.21841 70 52 128 255 
0.0186193 12.4706 0.097946 62 74 137 255 
-0.0140624 12.287 -0.00214449 61 78 138 255 
-0.00100569 12.1404 -0.116543 65 68 135 255 
0.00917266 11.7469 -0.22145 66 63 133 255 
0.0208333 11.3125 -0.319938 61 78 138 255 
-0.00701527 11.2846 -0.409842 58 84 140 255 
0.00285807 10.7378 -0.489481 56 89 140 255 
0.0100371 10.5061 -0.578186 57 85 140 255 
0.0209501 10.3924 -0.670226 58 83 139 255 
-0.00457158 10.2181 -0.741409 59 82 139 255 
0.00619007 10.0623 -0.823739 52 96 141 255 
0.0149072 10.08 -0.920902 52 96 141 255 
0.0200913 9.9664 -1.00532 63 72 137 255 
0.000691231 9.16672 -0.999062 67 62 133 255 
0.00676672 8.56901 -1.01573 56 88 140 255 
0.0133315 8.0631 -1.03291 59 81 139 255 
0.0180105 7.61711 -1.04884 58 84 140 255 
0.00431033 7.20554 -1.05246 54 92 141 255 
0.00776914 6.82297 -1.06113 55 91 141 255 
0.0118274 6.47049 -1.0677 55 91 141 255 
0.0145524 6.15457 -1.07636 57 86 140 255 
0.00762585 5.88765 -1.08059 52 96 141 255 
0.00937298 5.639 -1.08794 48 105 142 255 
0.00981864 5.37153 -1.08992 57 86 140 255 
0.0112867 5.15327 -1.09819 55 90 140 255 
0.00902317 4.96329 -1.10125 57 86 140 255 
0.00965347 4.79994 -1.11169 56 88 140 255 
0.00998103 4.58492 -1.10837 59 81 139 255 
0.00821226 4.45926 -1.12506 57 85 140 255 
0.0115727 4.30337 -1.12496 61 78 138 255 
0.0112272 4.14416 -1.12439 60 79 138 255 
0.00937667 3.98764 -1.12388 59 81 139 255 
0.00575707 3.8559 -1.12974 61 78 138 255 
0.0456688 9.48038 2.84789 51 98 141 255 
0.037731 9.53037 2.75623 60 80 139 255 
0.0496811 13.7954 3.84398 71 46 124 255 
0.0449795 12.4219 3.33544 70 51 127 255 
0.0486318 11.3247 2.93933 70 52 128 255 
0.0437607 10.5868 2.63567 63 72 137 255 
0.0493814 11.486 2.74273 69 56 130 255 
0 0 0 68 1 84 255 
0 0 0 68 1 84 255 
0.0502197 11.6572 2.4502 72 35 116 255 
0.0564045 11.6954 2.34337 65 68 135 255 
0 0 0 68 1 84 255 
0 0 0 68 1 84 255 
0 0 0 68 2 86 255 
0 0 0 68 2 86 255 
0 0 0 68 1 84 255 
0 0 0 68 2 86 255 
0.070876 15.219 2.06042 55 90 140 255 
0 0 0 69 4 87 255 
0 0 0 68 2 86 255 
0.263507 61.3616 6.65523 69 4 87 255 
0.0787895 15.2085 1.50463 57 85 140 255 
0.114326 19.4769 1.74173 70 50 126 255 
0.136604 19.7064 1.57865 72 35 116 255 
0.0870045 19.4701 1.4059 66 63 133 255 
0.0811781 15.159 0.951079 57 85 140 255 
0.0968478 15.1482 0.807156 61 77 138 255 
0.106628 14.6455 0.642016 66 63 133 255 
0.0680365 14.1237 0.508025 62 74 137 255 
0.0787452 13.8049 0.366323 64 69 136 255 
0.0843041 12.8358 0.219573 65 68 135 255 
0.0947709 12.4223 0.097569 64 69 136 255 
0.0617138 12.3638 -0.00215793 66 65 134 255 
0.0728753 12.0392 -0.115574 61 77 138 255 
0.0794176 11.4817 -0.216455 64 69 136 255 
0.0900056 11.2821 -0.31909 64 69 136 255 
0.0608755 11.0396 -0.400949 58 83 139 255 
0.0691407 10.7996 -0.492304 56 89 140 255 
0.0748481 10.5548 -0.580878 56 89 140 255 
0.0846755 10.3871 -0.669904 57 85 140 255 
0.0578365 10.1671 -0.737718 57 85 140 255 
0.067864 10.0521 -0.822923 52 97 141 255 
0.0766429 10.0648 -0.919537 50 102 142 255 
0.0810977 9.94818 -1.00352 63 72 137 255 
0.056826 9.14865 -0.997112 62 74 137 255 
0.0594826 8.58867 -1.01808 54 93 141 255 
0.0629909 8.08667 -1.03596 57 86 140 255 
0.0645795 7.59704 -1.04611 59 81 139 255 
0.048476 7.19845 -1.05145 54 92 141 255 
0.0496771 6.82873 -1.06205 55 90 140 255 
0.0516472 6.48509 -1.07015 52 96 141 255 
0.0526173 6.18983 -1.08256 53 94 141 255 
0.0439271 5.9111 -1.08492 52 97 141 255 
0.0439042 5.63 -1.08624 58 83 139 255 
0.0427229 5.36451 -1.08853 55 90 140 255 
0.0428819 5.15017 -1.09756 57 85 140 255 
0.0396092 4.97974 -1.10493 50 100 142 255 
0.0390575 4.79394 -1.11033 55 90 140 255 
0.0381053 4.5838 -1.10813 59 82 139 255 
0.0353802 4.43488 -1.11894 59 81 139 255 
0.0378494 4.28871 -1.12117 58 83 139 255 
0.0365526 4.13243 -1.12125 60 79 138 255 
0.0340484 4.01157 -1.13066 58 84 140 255 
0.0293651 3.84908 -1.12777 58 83 139 255 
0.103734 9.47035 2.84501 53 95 141 255 
0.0952184 9.43198 2.72789 69 55 129 255 
0.139617 14.3381 3.99536 69 55 129 255 
0.11218 11.4972 3.08726 69 53 129 255 
0.121712 11.6687 3.02877 72 23 105 255 
0.114349 11.1345 2.77217 66 63 133 255 
0.117898 11.2977 2.6979 50 102 142 255 
0.119913 11.2822 2.58412 69 5 89 255 
0 0 0 68 1 84 255 
0 0 0 68 2 86 255 
0.127101 11.5978 2.32392 69 53 129 255 
0 0 0 68 2 86 255 
0 0 0 68 1 84 255 
0 0 0 68 1 84 255 
0 0 0 68 2 86 255 
0 0 0 68 1 84 255 
0 0 0 68 2 86 255 
0.164225 15.2153 2.06001 50 100 142 255 
0 0 0 69 4 87 255 
0.494049 39.3801 4.59163 69 5 89 255 
0.632523 60.6411 6.57738 69 5 89 255 
0.171903 15.1899 1.50286 63 72 137 255 
0.251291 20.93 1.87177 66 63 133 255 
0.273136 20.9003 1.6744 70 7 90 255 
0.220346 20.7777 1.50039 70 48 126 255 
0.173984 15.1402 0.949952 59 82 139 255 
0.189443 15.1194 0.805667 62 76 138 255 
0.200295 14.9283 0.654454 65 66 135 255 
0.154773 14.13 0.508277 68 59 132 255 
0.161638 13.6512 0.362264 66 64 134 255 
0.164446 12.9441 0.221438 70 48 126 255 
0.173179 12.5804 0.0988178 66 64 134 255 
0.137142 12.3242 -0.00215112 56 88 140 255 
0.147038 12.0625 -0.115804 67 62 133 255 
0.155765 11.9329 -0.224975 66 64 134 255 
0.159498 11.3004 -0.319627 68 59 132 255 
0.128414 11.022 -0.400332 55 91 141 255 
0.135066 10.772 -0.491075 57 85 140 255 
0.140389 10.613 -0.58412 54 92 141 255 
0.148308 10.3794 -0.669453 55 90 140 255 
0.119771 10.1287 -0.734968 55 91 141 255 
0.129439 10.0436 -0.82227 54 93 141 255 
0.138234 10.0522 -0.918445 52 97 141 255 
0.142123 9.9465 -1.00342 60 79 138 255 
0.11296 9.14813 -0.997112 63 71 136 255 
0.112193 8.58913 -1.0182 55 90 140 255 
0.112512 8.07919 -1.03507 56 88 140 255 
0.111178 7.59551 -1.04597 56 89 140 255 
0.0927076 7.20297 -1.05217 53 94 141 255 
0.0913644 6.81248 -1.05959 55 90 140 255 
0.0910764 6.459 -1.06591 54 92 141 255 
0.0907838 6.20219 -1.0848 51 98 141 255 
0.0801294 5.9058 -1.08402 53 95 141 255 
0.0782842 5.61784 -1.08397 56 88 140 255 
0.0757348 5.371 -1.08992 53 94 141 255 
0.0746941 5.16448 -1.10069 57 85 140 255 
0.0700397 4.97061 -1.10298 53 95 141 255 
0.0683049 4.78192 -1.10762 54 92 141 255 
0.0662584 4.58543 -1.1086 60 79 138 255 
0.062742 4.44525 -1.12163 56 88 140 255 
0.0639611 4.27485 -1.11763 57 85 140 255 
0.0617345 4.12055 -1.11811 59 81 139 255 
0.0587889 4.01994 -1.13311 55 91 141 255 
0.0530084 3.85074 -1.12833 58 84 140 255 
0.161791 9.46666 2.84415 62 76 138 255 
0.153667 9.46676 2.73817 54 93 141 255 
0.16663 10.4968 2.92519 60 80 139 255 
0.189845 11.9444 3.20759 72 35 116 255 
0.183527 11.0774 2.87552 59 81 139 255 
0.188541 11.4916 2.86131 72 41 121 255 
0.18696 11.2812 2.69418 59 81 139 255 
0.189088 11.2784 2.58345 69 4 87 255 
0 0 0 68 2 86 255 
0 0 0 68 1 84 255 
0 0 0 68 1 84 255 
0 0 0 68 1 84 255 
0 0 0 68 2 86 255 
0 0 0 68 1 84 255 
0 0 0 68 1 84 255 
0 0 0 68 1 84 255 
0 0 0 69 4 87 255 
0.257363 15.2011 2.05827 44 115 142 255 
0.705842 39.281 4.94225 70 10 93 255 
0.729011 39.0198 4.55005 71 13 96 255 
0.94116 56.807 6.16203 69 5 89 255 
0.265051 15.1855 1.50256 69 56 130 255 
0.3798 20.933 1.87221 62 74 137 255 
1.45312 75.6596 6.06197 70 10 93 255 
1.26726 75.6933 5.46637 70 10 93 255 
0.266651 15.1259 0.949138 57 85 140 255 
0.282471 15.1319 0.806411 60 79 138 255 
0.292671 14.9668 0.656206 68 59 132 255 
0.241812 14.1488 0.508996 68 59 132 255 
0.246961 13.7369 0.364572 67 62 133 255 
0.254075 13.4846 0.230708 68 58 131 255 
0.252079 12.6651 0.0994932 65 68 135 255 
0.212673 12.3182 -0.00215025 64 70 136 255 
0.220775 12.0464 -0.11566 61 78 138 255 
0.226794 11.8177 -0.222826 66 63 133 255 
0.224987 11.1093 -0.314256 60 79 138 255 
0.19517 10.972 -0.398554 57 85 140 255 
0.200973 10.7609 -0.490619 58 84 140 255 
0.205139 10.593 -0.583076 55 90 140 255 
0.210361 10.2985 -0.664305 57 85 140 255 
0.181935 10.1287 -0.73504 55 90 140 255 
0.190664 10.0217 -0.820557 51 99 141 255 
0.200227 10.0671 -0.919901 52 96 141 255 
0.203069 9.94147 -1.00301 62 73 137 255 
0.168428 9.11148 -0.993211 62 74 137 255 
0.164531 8.56942 -1.01596 56 88 140 255 
0.161943 8.0714 -1.03418 56 88 140 255 
0.157884 7.59964 -1.04665 61 77 138 255 
0.136978 7.20622 -1.05275 57 86 140 255 
0.132951 6.80093 -1.0579 55 91 141 255 
0.130906 6.46819 -1.06754 56 89 140 255 
0.12806 6.16409 -1.07826 53 94 141 255 
0.115997 5.88652 -1.08059 51 99 141 255 
0.112556 5.60744 -1.08207 58 84 140 255 
0.108431 5.3577 -1.08734 52 97 141 255 
0.106623 5.17566 -1.10319 60 79 138 255 
0.0999847 4.94276 -1.09691 52 97 141 255 
0.097446 4.77167 -1.10537 51 99 141 255 
0.0945928 4.59465 -1.11095 54 92 141 255 
0.0900753 4.44769 -1.12236 58 84 140 255 
0.0903532 4.28212 -1.11965 58 84 140 255 
0.0874445 4.14036 -1.12361 60 80 139 255 
0.0831341 4.00411 -1.12876 57 86 140 255 
0.0766543 3.85131 -1.12861 59 82 139 255 
0.219675 9.45687 2.84156 68 58 131 255 
0.212825 9.51366 2.75206 66 64 134 255 
0.230907 10.4898 2.92358 70 48 126 255 
0.257323 11.6794 3.13679 71 42 122 255 
0.245231 10.8003 2.80392 53 94 141 255 
0.248529 11.0236 2.74511 72 38 119 255 
0.248889 10.959 2.61754 71 46 124 255 
0 0 0 68 1 84 255 
0 0 0 68 1 84 255 
0 0 0 68 1 84 255 
0 0 0 68 1 84 255 
0 0 0 68 1 84 255 
0 0 0 68 1 84 255 
0 0 0 68 1 84 255 
0 0 0 68 1 84 255 
0 0 0 69 4 87 255 
0.871493 38.3817 5.57335 70 11 94 255 
0.350173 15.1794 2.05559 44 114 142 255 
0.908234 37.674 4.74068 71 16 99 255 
0.962774 38.7872 4.52354 70 8 92 255 
0 0 0 68 2 86 255 
0.358176 15.1816 1.50237 72 38 119 255 
0.50809 20.9243 1.87168 60 80 139 255 
1.91802 75.6762 6.06412 70 8 92 255 
1.73649 75.8945 5.48156 69 5 89 255 
0.359456 15.124 0.949138 55 90 140 255 
0.375413 15.1339 0.806624 56 88 140 255 
0.385783 15.0146 0.658395 63 71 136 255 
0.327903 14.1161 0.507882 67 61 132 255 
0.333968 13.8481 0.367569 71 47 125 255 
0.338059 13.5328 0.231563 66 64 134 255 
0.334576 12.8472 0.100938 66 63 133 255 
0.286731 12.2516 -0.0021389 65 66 135 255 
0.294686 12.0448 -0.11566 61 78 138 255 
0.290668 11.4753 -0.216399 62 74 137 255 
0.299082 11.3325 -0.320616 60 79 138 255 
0.261892 10.9456 -0.397647 52 96 141 255 
0.268608 10.8244 -0.493579 59 82 139 255 
0.266059 10.4318 -0.574284 62 76 138 255 
0.2727 10.265 -0.662245 58 83 139 255 
0.241509 10.0207 -0.727297 59 82 139 255 
0.252178 10.0213 -0.820638 55 91 141 255 
0.261216 10.0358 -0.917171 52 97 141 255 
0.264013 9.93804 -1.00281 62 76 138 255 
0.224919 9.13413 -0.995812 62 76 138 255 
0.217109 8.56825 -1.01596 54 93 141 255 
0.211596 8.07522 -1.03481 53 95 141 255 
0.203712 7.56882 -1.04256 60 79 138 255 
0.181316 7.21019 -1.05347 56 89 140 255 
0.17516 6.81875 -1.06082 57 86 140 255 
0.170566 6.46628 -1.06738 55 91 141 255 
0.165695 6.1563 -1.07705 53 95 141 255 
0.151834 5.87488 -1.0786 54 93 141 255 
0.146909 5.60468 -1.08169 56 89 140 255 
0.140968 5.3442 -1.08475 53 95 141 255 
0.137202 5.13091 -1.09381 57 85 140 255 
0.130929 4.96548 -1.10211 50 102 142 255 
0.126645 4.76806 -1.10469 51 99 141 255 
0.122939 4.59981 -1.11236 57 86 140 255 
0.116648 4.41991 -1.11552 56 88 140 255 
0.116468 4.27568 -1.11813 57 85 140 255 
0.113058 4.14746 -1.1257 58 84 140 255 
0.107546 3.99775 -1.12714 59 81 139 255 
0.100684 3.86611 -1.13311 56 88 140 255 
0.419146 14.2716 4.28895 72 36 117 255 
0.416595 14.612 4.22755 72 32 113 255 
0.315029 11.1901 3.11926 70 48 126 255 
0.325636 11.5588 3.1049 68 59 132 255 
0.312528 10.8344 2.81322 71 44 122 255 
0.321729 11.2159 2.79343 70 51 127 255 
0.316071 10.9553 2.61707 71 17 100 255 
0 0 0 68 2 86 255 
0 0 0 68 1 84 255 
0 0 0 68 1 84 255 
0 0 0 68 1 84 255 
0 0 0 68 1 84 255 
0 0 0 68 1 84 255 
0 0 0 68 1 84 255 
0 0 0 68 2 86 255 
1.16128 37.9334 5.82091 70 8 92 255 
1.10661 38.3627 5.57149 71 17 100 255 
0.443277 15.176 2.05545 41 121 142 255 
1.14217 37.76 4.75228 71 14 97 255 
1.19131 38.4758 4.48798 70 11 94 255 
1.1518 39.9291 4.33244 70 10 93 255 
0.450257 15.1433 1.49882 72 31 112 255 
0.636531 20.9228 1.87186 62 76 138 255 
2.38756 75.8294 6.07746 69 5 89 255 
2.19737 75.7179 5.46968 70 8 92 255 
0.45201 15.1135 0.948637 56 88 140 255 
0.467802 15.1163 0.805826 60 80 139 255 
0.481019 15.1098 0.662687 61 78 138 255 
0.413426 14.0768 0.506552 66 63 133 255 
0.425583 14.0656 0.373405 63 71 136 255 
0.418227 13.4385 0.229989 65 66 135 255 
0.413978 12.8629 0.10108 64 70 136 255 
0.366035 12.3896 -0.00216334 63 72 137 255 
0.371431 12.1358 -0.116553 61 78 138 255 
0.370981 11.7881 -0.222336 69 56 130 255 
0.366433 11.2635 -0.318722 59 81 139 255 
0.328808 10.9358 -0.397356 58 84 140 255 
0.335205 10.8286 -0.493852 57 85 140 255 
0.330473 10.443 -0.574999 57 86 140 255 
0.332874 10.1774 -0.65671 58 84 140 255 
0.303534 10.037 -0.728599 59 82 139 255 
0.313787 10.0235 -0.820965 53 95 141 255 
0.322662 10.03 -0.916808 54 92 141 255 
0.323685 9.89646 -0.9988 58 84 140 255 
0.280594 9.12065 -0.994511 60 79 138 255 
0.269554 8.56278 -1.01549 55 91 141 255 
0.260852 8.06484 -1.03367 62 74 137 255 
0.250379 7.57436 -1.04352 58 83 139 255 
0.225306 7.20103 -1.05231 54 92 141 255 
0.217216 6.82446 -1.0619 58 83 139 255 
0.210335 6.46807 -1.06787 57 86 140 255 
0.204377 6.18273 -1.08187 53 95 141 255 
0.187942 5.8758 -1.07896 54 92 141 255 
0.181296 5.60367 -1.08169 55 91 141 255 
0.173533 5.33638 -1.08336 51 99 141 255 
0.168971 5.13877 -1.09568 56 89 140 255 
0.161299 4.96165 -1.10146 52 97 141 255 
0.156026 4.77109 -1.10559 51 98 141 255 
0.150841 4.58926 -1.11001 56 88 140 255 
0.143766 4.41911 -1.11552 58 83 139 255 
0.142217 4.26038 -1.11434 57 86 140 255 
0.138601 4.14958 -1.12649 55 90 140 255 
0.13255 4.01145 -1.13121 57 85 140 255 
0.124929 3.88173 -1.13789 58 84 140 255 
0.523803 14.7502 4.43367 71 47 125 255 
0.356903 10.2995 2.98043 56 88 140 255 
0.422907 12.3317 3.43813 72 28 110 255 
0.393507 11.4678 3.08104 61 78 138 255 
0.455795 13.0271 3.38324 69 5 89 255 
0.380477 10.9247 2.72143 66 65 134 255 
0.382673 10.9357 2.61289 69 53 129 255 
0 0 0 68 1 84 255 
0 0 0 68 1 84 255 
0 0 0 68 2 86 255 
0 0 0 68 2 86 255 
0 0 0 68 1 84 255 
0 0 0 68 2 86 255 
0 0 0 68 1 84 255 
1.38005 38.4771 6.26353 69 5 89 255 
1.41831 38.5864 5.92233 70 8 92 255 
1.32575 37.8914 5.50411 71 17 100 255 
0.535722 15.1542 2.0529 42 119 142 255 
1.38102 37.9496 4.77712 70 11 94 255 
1.42524 38.4102 4.48127 70 7 90 255 
0 0 0 68 2 86 255 
0.542346 15.1174 1.49656 72 20 103 255 
0.764425 20.9056 1.8707 57 85 140 255 
0 0 0 68 2 86 255 
0.531038 15.1023 1.09117 70 7 90 255 
0.544377 15.1005 0.948011 56 88 140 255 
0.560397 15.1092 0.805613 61 78 138 255 
0.574177 15.1186 0.663213 61 78 138 255 
0.511035 14.3906 0.517946 69 55 129 255 
0.509953 14.0098 0.371999 68 57 131 255 
0.506746 13.5986 0.232777 60 80 139 255 
0.498794 13.014 0.102289 63 72 137 255 
0.446221 12.504 -0.00218376 64 70 136 255 
0.447981 12.1902 -0.1171 64 69 136 255 
0.448302 11.9185 -0.224843 64 70 136 255 
0.434534 11.2351 -0.317987 59 82 139 255 
0.393733 10.8737 -0.395179 58 84 140 255 
0.393568 10.6087 -0.483925 55 91 141 255 
0.394204 10.4318 -0.574504 59 82 139 255 
0.394579 10.1562 -0.655488 58 83 139 255 
0.364969 10.031 -0.72831 57 86 140 255 
0.373121 9.96366 -0.816233 53 94 141 255 
0.383512 10.0099 -0.91517 52 96 141 255 
0.38139 9.81674 -0.990972 58 84 140 255 
0.335416 9.08796 -0.991153 58 83 139 255 
0.321641 8.54906 -1.01408 57 85 140 255 
0.31098 8.07994 -1.03583 57 85 140 255 
0.297432 7.58753 -1.04556 60 80 139 255 
0.268931 7.18468 -1.05015 54 92 141 255 
0.258449 6.80622 -1.05929 57 85 140 255 
0.250438 6.4775 -1.06966 55 91 141 255 
0.240998 6.1479 -1.07602 51 99 141 255 
0.224441 5.88633 -1.08113 51 98 141 255 
0.215676 5.60246 -1.08169 53 94 141 255 
0.206614 5.34403 -1.08515 53 95 141 255 
0.200041 5.12591 -1.09318 59 81 139 255 
0.191627 4.95764 -1.10081 51 98 141 255 
0.185752 4.78173 -1.1083 53 94 141 255 
0.179036 4.58922 -1.11024 53 94 141 255 
0.169454 4.38133 -1.10622 60 80 139 255 
0.167324 4.23333 -1.10751 57 86 140 255 
0.163488 4.13419 -1.12256 57 85 140 255 
0.156483 3.99325 -1.12632 59 81 139 255 
0.148524 3.87513 -1.1362 58 83 139 255 
0.462707 11.1076 3.33956 72 38 119 255 
0.43419 10.6427 3.08044 72 24 106 255 
0.56995 14.0941 3.93041 72 38 119 255 
0.474523 11.7286 3.15183 71 45 123 255 
0.444544 10.8075 2.80744 71 46 124 255 
0.523934 12.7876 3.18624 69 53 129 255 
0 0 0 68 2 86 255 
0 0 0 68 1 84 255 
0 0 0 68 1 84 255 
0 0 0 68 1 84 255 
0 0 0 68 1 84 255 
0 0 0 68 1 84 255 
0 0 0 68 2 86 255 
0 0 0 68 1 84 255 
0 0 0 68 2 86 255 
0 0 0 68 2 86 255 
1.55448 37.7916 5.49089 71 14 97 255 
0.62923 15.1635 2.05465 40 124 142 255 
1.59403 37.4745 4.71846 70 8 92 255 
1.65952 38.369 4.47756 70 10 93 255 
0 0 0 68 2 86 255 
0.635888 15.1327 1.49843 71 13 96 255 
0.892557 20.8975 1.87043 56 89 140 255 
3.30389 75.4737 6.05175 69 5 89 255 
0.623653 15.0978 1.0911 71 16 99 255 
0.636811 15.0919 0.947698 58 84 140 255 
0.652836 15.0995 0.805294 60 80 139 255 
0.666932 15.1148 0.663213 65 68 135 255 
0.609681 14.6358 0.526897 67 62 133 255 
0.591274 13.8975 0.369108 68 57 131 255 
0.595682 13.7221 0.234949 68 58 131 255 
0.578992 13.0187 0.102352 66 63 133 255 
0.52465 12.542 -0.00219091 65 68 135 255 
0.529412 12.3421 -0.118588 64 69 136 255 
0.522298 11.9355 -0.22522 67 62 133 255 
0.504089 11.2462 -0.318383 62 76 138 255 
0.46514 10.9819 -0.399207 58 84 140 255 
0.462625 10.6979 -0.488115 52 97 141 255 
0.457372 10.4102 -0.57346 62 76 138 255 
0.454018 10.0898 -0.651369 56 89 140 255 
0.427316 10.0475 -0.729685 59 81 139 255 
0.434424 9.96517 -0.816559 55 90 140 255 
0.443996 9.9865 -0.913259 54 92 141 255 
0.442243 9.82813 -0.992377 66 63 133 255 
0.390573 9.07183 -0.989636 57 86 140 255 
0.375046 8.56875 -1.01667 56 88 140 255 
0.359756 8.06004 -1.03354 58 83 139 255 
0.344251 7.5915 -1.04638 59 82 139 255 
0.311934 7.15818 -1.04653 55 90 140 255 
0.300206 6.8045 -1.05929 56 89 140 255 
0.289913 6.46993 -1.06868 53 94 141 255 
0.27827 6.13646 -1.07429 53 95 141 255 
0.260207 5.87698 -1.07968 50 100 142 255 
0.250136 5.60299 -1.08207 55 91 141 255 
0.240015 5.35636 -1.08793 53 95 141 255 
0.23224 5.1412 -1.09673 57 86 140 255 
0.222698 4.971 -1.10406 52 97 141 255 
0.214782 4.77368 -1.10672 52 97 141 255 
0.206884 4.58124 -1.1086 55 90 140 255 
0.196421 4.38214 -1.10671 57 85 140 255 
0.195326 4.27668 -1.11914 56 89 140 255 
0.188411 4.12346 -1.11994 60 80 139 255 
0.180939 3.99125 -1.12605 59 82 139 255 
0.171659 3.85977 -1.13199 59 82 139 255 
0.462256 9.66961 2.90802 61 77 138 255 
0.592461 12.6204 3.65386 72 28 110 255 
0.652788 14.0124 3.90867 70 51 127 255 
0.588025 12.6169 3.39145 72 36 117 255 
0.523237 11.0666 2.87552 71 45 123 255 
0.684599 14.5289 3.62109 72 29 111 255 
0.631007 13.3445 3.19005 72 36 117 255 
0 0 0 68 1 84 255 
0 0 0 68 1 84 255 
0 0 0 68 2 86 255 
0 0 0 68 2 86 255 
0 0 0 68 2 86 255 
0 0 0 68 1 84 255 
0 0 0 68 1 84 255 
0 0 0 69 4 87 255 
1.94358 39.6234 6.0847 70 8 92 255 
1.84551 39.0328 5.67277 70 10 93 255 
0.722354 15.1613 2.05492 41 122 142 255 
1.8361 37.7137 4.74991 70 10 93 255 
1.90609 38.5843 4.50396 70 11 94 255 
1.82867 38.6767 4.19949 69 5 89 255 
0.72825 15.1186 1.49745 70 8 92 255 
1.01804 20.8359 1.86544 60 80 139 255 
1.94251 38.9087 3.12074 70 7 90 255 
0.711977 15.003 1.08454 71 19 101 255 
0.729931 15.0986 0.948387 55 91 141 255 
0.745669 15.0992 0.805507 62 76 138 255 
0.759813 15.1134 0.663344 62 76 138 255 
0.703244 14.7107 0.529737 64 70 136 255 
0.685823 14.0843 0.374174 68 58 131 255 
0.672098 13.5614 0.232264 66 63 133 255 
0.665233 13.1408 0.103342 64 70 136 255 
0.612811 12.7723 -0.00223175 61 77 138 255 
0.601507 12.2647 -0.117878 58 83 139 255 
0.594377 11.9091 -0.224786 66 63 133 255 
0.575121 11.2828 -0.319514 59 82 139 255 
0.533822 11.0058 -0.400187 55 90 140 255 
0.527568 10.6809 -0.487477 64 70 136 255 
0.514397 10.2706 -0.565932 62 76 138 255 
0.517602 10.1197 -0.653493 56 88 140 255 
0.487649 10.0178 -0.727731 56 89 140 255 
0.497046 9.99218 -0.819007 55 91 141 255 
0.506623 10.0104 -0.915716 52 96 141 255 
0.502793 9.8302 -0.992878 67 62 133 255 
0.446816 9.08117 -0.990936 59 82 139 255 
0.426477 8.54348 -1.01396 62 76 138 255 
0.408601 8.0458 -1.03202 58 84 140 255 
0.388839 7.55066 -1.04106 61 78 138 255 
0.355751 7.15416 -1.04624 57 85 140 255 
0.341902 6.80154 -1.05913 55 90 140 255 
0.328903 6.45423 -1.0664 57 86 140 255 
0.316272 6.14152 -1.0755 55 91 141 255 
0.295123 5.85268 -1.07553 49 103 142 255 
0.28466 5.60429 -1.08264 54 92 141 255 
0.272527 5.34794 -1.08654 51 99 141 255 
0.263781 5.13967 -1.09673 57 86 140 255 
0.252549 4.95687 -1.10125 56 89 140 255 
0.244566 4.78201 -1.10898 50 102 142 255 
0.234741 4.57503 -1.10743 52 97 141 255 
0.223898 4.39248 -1.10964 58 84 140 255 
0.221614 4.27637 -1.1194 55 90 140 255 
0.213958 4.12705 -1.12125 58 83 139 255 
0.20592 3.99968 -1.12876 58 83 139 255 
0.195533 3.86248 -1.13311 62 76 138 255 
0.561208 10.4011 3.12897 72 26 108 255 
0.760907 14.3307 4.15032 70 11 94 255 
0.652156 12.3661 3.45048 72 35 116 255 
0.60193 11.4094 3.06781 72 29 111 255 
0.568355 10.6369 2.76473 71 14 97 255 
0.572261 10.7424 2.67819 71 46 124 255 
0.577722 10.8112 2.58526 68 59 132 255 
0.568849 10.6067 2.43276 72 38 119 255 
0 0 0 68 2 86 255 
0 0 0 68 1 84 255 
0 0 0 68 2 86 255 
0 0 0 68 1 84 255 
0 0 0 68 1 84 255 
0 0 0 68 1 84 255 
0 0 0 68 2 86 255 
2.13338 38.6455 5.93643 69 5 89 255 
2.09738 39.253 5.70653 70 7 90 255 
0.81473 15.1447 2.05331 43 116 142 255 
2.05411 37.4581 4.71921 70 10 93 255 
2.15536 38.798 4.53037 70 7 90 255 
2.06744 38.6926 4.20251 71 13 96 255 
2.10853 38.816 3.84581 71 14 97 255 
1.14757 20.8601 1.8682 60 80 139 255 
4.2287 75.4076 6.05015 70 7 90 255 
0.805569 15.0272 1.08663 72 27 109 255 
0.822941 15.1009 0.948825 57 86 140 255 
0.837637 15.0823 0.804868 62 76 138 255 
0.851463 15.0895 0.662512 58 83 139 255 
0.79527 14.739 0.530923 67 61 132 255 
0.771628 14.0689 0.373882 69 56 130 255 
0.780603 14.0112 0.240046 69 53 129 255 
0.744434 13.1115 0.103145 66 63 133 255 
0.693709 12.8152 -0.00223996 60 80 139 255 
0.686009 12.4285 -0.11949 59 82 139 255 
0.652831 11.6446 -0.219867 63 71 136 255 
0.654659 11.4597 -0.324631 62 76 138 255 
0.600851 10.9933 -0.399861 56 88 140 255 
0.600407 10.8091 -0.493488 60 80 139 255 
0.579537 10.3051 -0.56802 59 82 139 255 
0.578258 10.0914 -0.651884 54 93 141 255 
0.547633 9.9877 -0.725777 54 93 141 255 
0.55718 9.96804 -0.817293 55 90 140 255 
0.56798 10.0062 -0.915625 57 86 140 255 
0.561109 9.79216 -0.989366 71 47 125 255 
0.501924 9.06734 -0.989744 61 77 138 255 
0.47928 8.54764 -1.01478 62 74 137 255 
0.458976 8.06096 -1.03431 58 83 139 255 
0.435332 7.5511 -1.04147 60 79 138 255 
0.400249 7.1627 -1.04783 53 95 141 255 
0.383128 6.79044 -1.05775 56 88 140 255 
0.368556 6.45308 -1.06656 54 92 141 255 
0.353666 6.13455 -1.07464 58 84 140 255 
0.329751 5.82818 -1.07138 51 99 141 255 
0.31826 5.58872 -1.07999 55 90 140 255 
0.304275 5.32758 -1.08276 52 97 141 255 
0.293966 5.11453 -1.09172 54 92 141 255 
0.283516 4.96497 -1.10341 50 100 142 255 
0.273625 4.77555 -1.10785 50 101 142 255 
0.263645 4.58806 -1.11095 56 88 140 255 
0.251565 4.4036 -1.11282 55 90 140 255 
0.247849 4.27493 -1.1194 54 93 141 255 
0.239445 4.12855 -1.12204 59 82 139 255 
0.229295 3.97816 -1.12307 59 81 139 255 
0.219501 3.86599 -1.13452 59 82 139 255 
0.671221 11.166 3.36028 72 29 111 255 
0.854165 14.4159 4.17643 72 20 103 255 
0.712899 12.1051 3.37881 68 57 131 255 
0.628077 10.6612 2.86761 67 62 133 255 
0.634762 10.6525 2.76975 52 97 141 255 
0.640639 10.7803 2.68858 58 84 140 255 
0.635253 10.6599 2.54995 67 62 133 255 
0.634385 10.6108 2.43454 72 29 111 255 
0 0 0 69 4 87 255 
0 0 0 68 1 84 255 
0 0 0 68 2 86 255 
0 0 0 68 1 84 255 
0 0 0 68 1 84 255 
0 0 0 68 1 84 255 
0 0 0 68 1 84 255 
2.29855 37.4597 5.75632 70 8 92 255 
2.22093 37.2715 5.42035 70 8 92 255 
0.906989 15.1286 2.05183 41 123 142 255 
0.917307 15.0393 1.89542 71 14 97 255 
0.927718 15.0334 1.75605 72 31 112 255 
2.30493 38.6811 4.20273 69 5 89 255 
3.04701 50.3825 4.99355 69 5 89 255 
1.27487 20.8417 1.86722 64 70 136 255 
0.937483 15.0635 1.20902 72 27 109 255 
0.900496 15.0678 1.08995 72 40 120 255 
0.91377 15.0656 0.946947 60 80 139 255 
0.930411 15.0809 0.805081 61 78 138 255 
0.944346 15.089 0.662731 60 79 138 255 
0.892708 14.8506 0.535129 69 55 129 255 
0.882225 14.462 0.384466 70 52 128 255 
0.859397 13.8904 0.238062 69 55 129 255 
0.837244 13.3033 0.104692 68 59 132 255 
0.774255 12.8427 -0.00224554 62 74 137 255 
0.762807 12.433 -0.119577 60 80 139 255 
0.73054 11.7412 -0.221771 65 68 135 255 
0.719596 11.3707 -0.322228 62 74 137 255 
0.667202 10.9715 -0.399207 56 89 140 255 
0.670534 10.867 -0.496311 55 91 141 255 
0.641886 10.2874 -0.567251 61 78 138 255 
0.644023 10.1485 -0.655809 59 82 139 255 
0.608906 9.98415 -0.725777 55 90 140 255 
0.617653 9.95349 -0.816396 54 92 141 255 
0.627552 9.97366 -0.912986 52 96 141 255 
0.619669 9.76471 -0.986957 64 70 136 255 
0.556757 9.05119 -0.988336 61 78 138 255 
0.531163 8.53562 -1.01372 60 79 138 255 
0.507742 8.04711 -1.03291 61 78 138 255 
0.481972 7.55323 -1.04215 60 80 139 255 
0.444375 7.16308 -1.04827 57 86 140 255 
0.423861 6.77317 -1.05544 56 89 140 255 
0.407895 6.44676 -1.06591 57 85 140 255 
0.391426 6.13423 -1.07498 55 91 141 255 
0.365999 5.8339 -1.07283 54 92 141 255 
0.351804 5.5749 -1.07771 56 89 140 255 
0.336525 5.31876 -1.08137 53 95 141 255 
0.32528 5.11165 -1.09152 56 88 140 255 
0.314098 4.96509 -1.10384 53 94 141 255 
0.302675 4.76989 -1.10695 51 99 141 255 
0.290928 4.57277 -1.10766 53 95 141 255 
