ply
format ascii 1.0
comment VTK generated PLY File
obj_info vtkPolyData points and polygons: vtk4.0
element vertex 1238
property float x
property float y
property float z
property uchar red
property uchar green
property uchar blue
property uchar alpha
element face 0
property list uchar int vertex_indices
end_header
-24.476 77.1423 10.1811 69 5 89 255 
-0 0 0 69 4 87 255 
-0 0 0 68 2 86 255 
-6.28332 19.7682 2.05212 68 57 131 255 
-6.24275 19.6875 1.84692 69 53 129 255 
-4.72168 14.9457 1.25558 72 20 103 255 
-4.71773 14.8061 1.12207 64 69 136 255 
-4.62057 14.5457 0.957529 60 79 138 255 
-4.58298 14.4795 0.809231 64 70 136 255 
-4.44927 14.1005 0.648148 66 65 134 255 
-3.84834 12.0922 0.456443 68 59 132 255 
-3.82 12.0401 0.335181 65 66 135 255 
-3.8134 12.0554 0.21629 66 65 134 255 
-3.79894 12.0541 0.0992655 68 58 131 255 
-3.60382 11.3307 -0.0020752 67 62 133 255 
-3.43515 10.8402 -0.109162 66 64 134 255 
-3.42564 10.8427 -0.214363 69 55 129 255 
-3.41188 10.8392 -0.32138 69 55 129 255 
-3.43132 10.8079 -0.411838 65 66 135 255 
-3.25132 10.2726 -0.491166 66 64 134 255 
-3.04067 9.63008 -0.555766 70 48 126 255 
-3.03474 9.64691 -0.652205 65 66 135 255 
-3.04143 9.58562 -0.729685 70 48 126 255 
-3.03539 9.60196 -0.824392 61 78 138 255 
-3.0378 9.63853 -0.923267 63 72 137 255 
-3.02928 9.62953 -1.01827 64 70 136 255 
-2.8677 9.05449 -1.03514 57 85 140 255 
-2.68585 8.5014 -1.05681 49 103 142 255 
-2.50911 7.96593 -1.06988 50 100 142 255 
-2.3361 7.4351 -1.07312 54 93 141 255 
-2.24687 7.1072 -1.08874 53 95 141 255 
-2.12335 6.72912 -1.0974 53 94 141 255 
-2.00566 6.37145 -1.10222 48 105 142 255 
-1.90095 6.05014 -1.10909 52 96 141 255 
-1.82645 5.79139 -1.11453 50 101 142 255 
-1.73596 5.51151 -1.11484 58 83 139 255 
-1.66054 5.27512 -1.12214 57 85 140 255 
-1.58516 5.04201 -1.12632 62 76 138 255 
-1.53285 4.86928 -1.13265 61 78 138 255 
-1.46818 4.66701 -1.13312 59 81 139 255 
-1.4081 4.47863 -1.13492 64 69 136 255 
-1.36655 4.34138 -1.1483 59 82 139 255 
-1.31498 4.18993 -1.14798 62 74 137 255 
-1.26715 4.03784 -1.14822 60 79 138 255 
-1.22392 3.89518 -1.15074 64 69 136 255 
-1.17979 3.74349 -1.14998 68 58 131 255 
-3.46133 11.1116 3.49607 71 42 122 255 
-3.46423 11.0874 3.35937 70 52 128 255 
-3.4879 11.1491 3.25507 59 81 139 255 
-3.42518 10.9494 3.08052 70 48 126 255 
-3.27975 10.5093 2.85743 59 82 139 255 
-3.45866 11.0764 2.88885 63 72 137 255 
-3.51448 11.2617 2.81705 56 89 140 255 
-3.47812 11.1527 2.67565 68 59 132 255 
-3.55871 11.3962 2.63369 56 89 140 255 
-4.20381 13.471 2.96608 71 46 124 255 
-5.96807 19.1591 4.02074 68 57 131 255 
-6.06201 19.4859 3.89285 71 45 123 255 
-0 0 0 68 1 84 255 
-0 0 0 68 1 84 255 
-0 0 0 68 2 86 255 
-0 0 0 68 1 84 255 
-0 0 0 68 2 86 255 
-0 0 0 68 2 86 255 
-0 0 0 68 2 86 255 
-0 0 0 69 4 87 255 
-0 0 0 68 1 84 255 
-6.15924 19.7978 2.05123 71 13 96 255 
-6.07991 19.5904 1.83427 70 50 126 255 
-5.55416 17.9637 1.50623 72 36 117 255 
-4.61996 14.8129 1.12041 65 68 135 255 
-4.50516 14.49 0.952019 62 76 138 255 
-4.48045 14.4634 0.806784 63 71 136 255 
-4.37711 14.1743 0.650293 64 69 136 255 
-3.80588 12.2177 0.460289 71 46 124 255 
-3.77007 12.1406 0.33733 68 59 132 255 
-3.76716 12.1683 0.217897 67 61 132 255 
-3.75291 12.168 0.100012 68 57 131 255 
-3.68404 11.8338 -0.00216316 69 56 130 255 
-3.38338 10.9088 -0.109642 67 62 133 255 
-3.37263 10.9075 -0.21523 67 62 133 255 
-3.37414 10.9535 -0.32415 69 55 129 255 
-3.37769 10.8698 -0.413399 66 65 134 255 
-3.17463 10.2484 -0.489071 69 53 129 255 
-2.9945 9.69053 -0.558184 68 59 132 255 
-2.99517 9.72925 -0.656517 66 64 134 255 
-3.00622 9.6803 -0.735474 59 81 139 255 
-2.99615 9.6842 -0.829858 58 83 139 255 
-2.98593 9.68078 -0.925542 59 82 139 255 
-2.99326 9.72306 -1.0262 50 100 142 255 
-2.81209 9.07191 -1.03514 57 86 140 255 
-2.62982 8.50539 -1.05528 49 103 142 255 
-2.45493 7.96412 -1.0676 52 97 141 255 
-2.3015 7.48528 -1.0783 59 82 139 255 
-2.1962 7.09817 -1.08527 52 96 141 255 
-2.08231 6.74296 -1.09755 49 104 142 255 
-1.96711 6.38552 -1.10255 49 104 142 255 
-1.8661 6.06922 -1.11047 53 94 141 255 
-1.78856 5.79497 -1.11308 49 103 142 255 
-1.69257 5.4911 -1.10859 60 80 139 255 
-1.62642 5.27959 -1.12094 60 79 138 255 
-1.54902 5.03482 -1.12257 60 80 139 255 
-1.49518 4.85341 -1.12681 63 72 137 255 
-1.4441 4.69083 -1.13673 60 80 139 255 
-1.37859 4.48068 -1.13327 62 73 137 255 
-1.32362 4.29687 -1.13435 65 68 135 255 
-1.28186 4.17387 -1.1414 62 76 138 255 
-1.24235 4.04554 -1.14822 56 89 140 255 
-1.19971 3.90169 -1.15047 64 70 136 255 
-1.16754 3.78551 -1.16067 68 58 131 255 
-3.33641 10.9467 3.43767 62 76 138 255 
-3.35625 10.978 3.31992 70 52 128 255 
-3.204 10.4666 3.05 61 78 138 255 
-3.22196 10.526 2.95578 67 62 133 255 
-3.22086 10.5478 2.86246 61 78 138 255 
-3.2517 10.6426 2.77048 57 86 140 255 
-3.47116 11.3677 2.83818 70 52 128 255 
-3.45002 11.3063 2.70735 66 63 133 255 
-3.4853 11.4067 2.6311 50 100 142 255 
-3.63409 11.9016 2.61558 71 42 122 255 
-4.10894 13.4816 2.82391 64 69 136 255 
-5.74554 18.8762 3.76393 69 53 129 255 
-0 0 0 68 1 84 255 
-0 0 0 68 1 84 255 
-0 0 0 68 2 86 255 
-0 0 0 68 1 84 255 
-0 0 0 68 1 84 255 
-0 0 0 68 2 86 255 
-0 0 0 68 2 86 255 
-0 0 0 68 2 86 255 
-0 0 0 68 1 84 255 
-0 0 0 69 4 87 255 
-5.49715 18.1043 1.69194 69 55 129 255 
-4.57053 15.1103 1.2646 72 28 110 255 
-4.51443 14.7932 1.11681 65 68 135 255 
-4.45131 14.6329 0.959595 54 93 141 255 
-4.38815 14.4792 0.806145 67 61 132 255 
-4.32328 14.3109 0.65533 64 69 136 255 
-3.74745 12.2953 0.462338 72 40 120 255 
-3.71381 12.2238 0.339001 68 59 132 255 
-3.71822 12.2764 0.219419 68 59 132 255 
-3.69348 12.2415 0.100428 69 53 129 255 
-3.59854 11.8141 -0.00215548 70 48 126 255 
-3.33381 10.9868 -0.110218 66 63 133 255 
-3.32504 10.9921 -0.216493 67 61 132 255 
-3.31956 11.0161 -0.325394 67 61 132 255 
-3.33797 10.9792 -0.416774 66 63 133 255 
-3.10329 10.24 -0.48775 68 58 131 255 
-2.95319 9.76894 -0.561646 69 55 129 255 
-2.94548 9.78089 -0.65877 68 59 132 255 
-2.96184 9.74819 -0.739238 62 76 138 255 
-2.96353 9.79111 -0.837446 59 81 139 255 
-2.95237 9.78472 -0.93373 59 82 139 255 
-2.93555 9.74791 -1.0269 58 83 139 255 
-2.75493 9.08424 -1.0346 47 108 142 255 
-2.57729 8.52042 -1.05516 53 95 141 255 
-2.32698 7.71693 -1.03253 55 91 141 255 
-2.26922 7.5448 -1.08485 53 94 141 255 
-2.14487 7.08594 -1.08137 54 93 141 255 
-2.03975 6.75183 -1.09694 51 99 141 255 
-1.92333 6.38236 -1.09994 52 96 141 255 
-1.8311 6.0881 -1.11185 50 102 142 255 
-1.75098 5.79924 -1.11182 53 94 141 255 
-1.66083 5.50796 -1.10992 59 82 139 255 
-1.59314 5.28665 -1.12035 58 84 140 255 
-1.5195 5.04891 -1.12361 62 76 138 255 
-1.46565 4.86342 -1.12702 57 86 140 255 
-1.40602 4.66882 -1.12928 61 78 138 255 
-1.35556 4.50395 -1.13703 61 77 138 255 
-1.30366 4.32626 -1.13998 61 78 138 255 
-1.25539 4.17888 -1.14064 58 84 140 255 
-1.21834 4.05586 -1.14901 57 85 140 255 
-1.17658 3.91175 -1.15128 61 78 138 255 
-1.14318 3.78893 -1.15954 66 65 134 255 
-3.1031 10.4098 3.26303 62 76 138 255 
-3.25663 10.8907 3.28742 59 82 139 255 
-3.09799 10.3467 3.00947 69 56 130 255 
-3.11908 10.4179 2.92 65 66 135 255 
-3.30787 11.0756 3.00013 69 56 130 255 
-3.29858 11.038 2.86808 64 70 136 255 
-3.21597 10.7681 2.6835 54 93 141 255 
-3.27744 10.9816 2.62475 67 61 132 255 
-3.38756 11.3352 2.60978 55 91 141 255 
-3.568 11.9471 2.62072 68 57 131 255 
-3.57126 11.9806 2.50486 69 56 130 255 
-5.83784 19.6106 3.90315 72 40 120 255 
-0 0 0 68 1 84 255 
-0 0 0 68 1 84 255 
-0 0 0 68 1 84 255 
-0 0 0 68 2 86 255 
-0 0 0 68 1 84 255 
-0 0 0 68 1 84 255 
-0 0 0 68 2 86 255 
-0 0 0 68 2 86 255 
-0 0 0 69 4 87 255 
-0 0 0 68 2 86 255 
-5.38709 18.1415 1.69229 67 61 132 255 
-5.31407 17.9655 1.5008 67 62 133 255 
-4.46151 14.9478 1.12639 66 65 134 255 
-4.34807 14.6149 0.956652 61 78 138 255 
-4.28702 14.4647 0.803857 64 69 136 255 
-4.23737 14.3438 0.655636 66 63 133 255 
-3.71932 12.477 0.468305 72 37 118 255 
-3.66806 12.345 0.341733 66 64 134 255 
-3.65333 12.3345 0.220052 64 69 136 255 
-3.64094 12.3407 0.101056 69 53 129 255 
-3.47716 11.6721 -0.00212564 72 41 121 255 
-3.28596 11.0732 -0.11088 66 64 134 255 
-3.27454 11.0698 -0.217624 65 68 135 255 
-3.26857 11.0928 -0.327062 69 55 129 255 
-3.29048 11.0666 -0.419315 66 65 134 255 
-3.03415 10.2378 -0.486749 68 58 131 255 
-2.90508 9.82709 -0.563954 69 55 129 255 
-2.9012 9.85239 -0.662374 68 59 132 255 
-2.92129 9.83119 -0.744159 50 100 142 255 
-2.91754 9.8569 -0.841526 52 96 141 255 
-2.90439 9.84373 -0.937642 66 64 134 255 
-2.85039 9.67984 -1.01787 63 72 137 255 
-2.69602 9.09049 -1.03341 59 81 139 255 
-2.52299 8.5294 -1.05433 59 82 139 255 
-2.31998 7.86806 -1.05082 52 97 141 255 
-2.22065 7.55097 -1.08376 55 91 141 255 
-2.11062 7.13028 -1.08613 52 96 141 255 
-1.99465 6.7519 -1.09494 51 99 141 255 
-1.88414 6.39404 -1.09994 54 92 141 255 
-1.78398 6.06615 -1.10582 52 97 141 255 
-1.71063 5.79384 -1.10875 53 94 141 255 
-1.63533 5.5463 -1.1156 59 81 139 255 
-1.55956 5.29257 -1.11955 58 84 140 255 
-1.49208 5.07034 -1.12632 62 76 138 255 
-1.43634 4.8742 -1.12746 59 82 139 255 
-1.37983 4.68577 -1.13131 59 82 139 255 
-1.32543 4.50379 -1.13492 61 78 138 255 
-1.27654 4.33232 -1.13949 63 71 136 255 
-1.23218 4.19486 -1.14292 61 77 138 255 
-1.19262 4.06048 -1.14822 58 84 140 255 
-1.15364 3.92259 -1.15237 63 71 136 255 
-1.11665 3.78483 -1.15617 65 66 135 255 
-3.01184 10.3349 3.23369 55 90 140 255 
-2.97706 10.183 3.06822 50 102 142 255 
-3.15543 10.7788 3.12946 69 56 130 255 
-3.07599 10.5082 2.93996 64 69 136 255 
-3.1902 10.9256 2.95415 72 36 117 255 
-3.25202 11.1307 2.88692 67 62 133 255 
-3.11985 10.6849 2.65795 69 53 129 255 
-3.21191 11.0081 2.62631 66 64 134 255 
-3.34068 11.4336 2.62766 72 40 120 255 
-3.50093 11.9904 2.62545 56 88 140 255 
-3.47629 11.9288 2.48954 60 80 139 255 
-3.50455 12.0423 2.39248 71 14 97 255 
-5.63168 19.2746 3.66373 70 11 94 255 
-0 0 0 68 2 86 255 
-0 0 0 68 1 84 255 
-0 0 0 68 2 86 255 
-0 0 0 68 2 86 255 
-0 0 0 68 2 86 255 
-0 0 0 68 2 86 255 
-0 0 0 69 4 87 255 
-0 0 0 68 2 86 255 
-0 0 0 69 4 87 255 
-5.29845 18.2527 1.6996 68 57 131 255 
-5.19543 17.9691 1.4984 69 55 129 255 
-4.37195 14.9825 1.12696 66 65 134 255 
-4.27587 14.7017 0.960597 62 74 137 255 
-4.21375 14.5444 0.806837 63 72 137 255 
-4.12877 14.2985 0.652396 64 69 136 255 
-3.64493 12.5073 0.468593 72 36 117 255 
-3.62041 12.4643 0.344412 66 65 134 255 
-3.61539 12.4873 0.222378 68 58 131 255 
-3.59258 12.4579 0.101834 68 58 131 255 
-3.35263 11.5117 -0.00209265 71 45 123 255 
-3.23216 11.1421 -0.111369 68 58 131 255 
-3.24155 11.2107 -0.219999 66 65 134 255 
-3.22645 11.203 -0.32972 69 56 130 255 
-3.2398 11.146 -0.421565 68 59 132 255 
-2.96683 10.2408 -0.48602 68 57 131 255 
-2.87438 9.94737 -0.569833 69 53 129 255 
-2.86995 9.97166 -0.669196 69 53 129 255 
-2.87538 9.89874 -0.747922 59 82 139 255 
-2.8703 9.92057 -0.845442 63 71 136 255 
-2.86105 9.92069 -0.943283 66 64 134 255 
-2.82204 9.8052 -1.02921 64 70 136 255 
-2.6413 9.11068 -1.03384 56 88 140 255 
-2.46813 8.53614 -1.05328 58 84 140 255 
-2.26314 7.8526 -1.04689 48 106 142 255 
-2.16333 7.52637 -1.0783 51 98 141 255 
-2.06188 7.12598 -1.08353 53 94 141 255 
-1.93426 6.69851 -1.08434 56 89 140 255 
-1.84596 6.40927 -1.10059 52 97 141 255 
-1.7323 6.0268 -1.09669 53 95 141 255 
-1.67287 5.79667 -1.1073 55 90 140 255 
-1.59909 5.54868 -1.11409 59 82 139 255 
-1.52815 5.3058 -1.12035 58 84 140 255 
-1.45851 5.07094 -1.12445 61 78 138 255 
-1.40559 4.88011 -1.12681 59 82 139 255 
-1.35293 4.7007 -1.13289 57 85 140 255 
-1.29696 4.50903 -1.13421 60 79 138 255 
-1.25047 4.34193 -1.13998 62 74 137 255 
-1.20027 4.18095 -1.1371 61 78 138 255 
-1.16821 4.06957 -1.14875 61 77 138 255 
-1.12609 3.91756 -1.14884 64 70 136 255 
-1.09474 3.79622 -1.15757 64 70 136 255 
-2.94312 10.3347 3.22794 65 66 135 255 
-2.90159 10.1558 3.05461 52 96 141 255 
-2.91965 10.2052 2.95767 50 102 142 255 
-3.14056 10.9782 3.066 72 31 112 255 
-3.11434 10.9143 2.94586 64 70 136 255 
-3.3571 11.7579 3.04419 66 63 133 255 
-3.54129 12.4108 3.08182 68 59 132 255 
-3.43297 12.04 2.86742 72 35 116 255 
-3.44688 12.0717 2.7694 57 85 140 255 
-3.43508 12.039 2.63142 51 99 141 255 
-3.41135 11.9792 2.49563 61 78 138 255 
-3.38196 11.8925 2.35857 69 4 87 255 
-0 0 0 68 1 84 255 
-0 0 0 68 2 86 255 
-0 0 0 68 1 84 255 
-0 0 0 68 2 86 255 
-0 0 0 68 2 86 255 
-4.44582 15.6019 2.19632 58 83 139 255 
-4.42911 15.6048 2.04058 56 89 140 255 
-4.41228 15.5878 1.88876 58 83 139 255 
-4.44025 15.561 1.75508 72 28 110 255 
-4.41581 15.5275 1.59708 72 41 121 255 
-4.41201 15.5549 1.44584 70 48 126 255 
-4.38566 15.5247 1.29231 69 55 129 255 
-4.27665 14.9976 1.1261 65 66 135 255 
-4.19649 14.7661 0.963102 56 88 140 255 
-4.10729 14.5095 0.803485 68 58 131 255 
-4.04909 14.3525 0.653709 56 89 140 255 
-3.57195 12.5429 0.469096 72 37 118 255 
-3.56679 12.567 0.34664 67 62 133 255 
-3.54877 12.5448 0.223011 68 57 131 255 
-3.54075 12.5673 0.102548 68 59 132 255 
-3.26605 11.4763 -0.00208253 70 50 126 255 
-3.21063 11.3272 -0.113021 66 65 134 255 
-3.18983 11.291 -0.221186 64 70 136 255 
-3.17037 11.2678 -0.331048 69 55 129 255 
-3.19975 11.2657 -0.42534 63 71 136 255 
-2.89823 10.2387 -0.485064 68 58 131 255 
-2.835 10.0417 -0.574229 71 47 125 255 
-2.82708 10.0544 -0.673572 70 48 126 255 
-2.83883 10.0016 -0.754362 60 79 138 255 
-2.811 9.94375 -0.845931 62 73 137 255 
-2.79688 9.92655 -0.942191 65 66 135 255 
-2.70742 9.62885 -1.00894 58 83 139 255 
-2.58589 9.12863 -1.03406 54 93 141 255 
-2.4157 8.55112 -1.05328 59 81 139 255 
-2.21465 7.86538 -1.04676 49 104 142 255 
-2.1163 7.53664 -1.07789 49 103 142 255 
-2.01246 7.1185 -1.0805 52 96 141 255 
-1.88696 6.68837 -1.0808 50 101 142 255 
-1.80793 6.42522 -1.10141 51 99 141 255 
-1.69289 6.02878 -1.09514 47 108 142 255 
-1.6386 5.81156 -1.10821 53 94 141 255 
-1.56262 5.54988 -1.11238 58 83 139 255 
-1.49025 5.29621 -1.11637 60 79 138 255 
-1.42658 5.07696 -1.12382 64 69 136 255 
-1.37403 4.883 -1.12551 60 79 138 255 
-1.32011 4.69484 -1.12951 57 85 140 255 
-1.27085 4.52252 -1.13562 56 89 140 255 
-1.22565 4.35606 -1.14169 62 76 138 255 
-1.17904 4.20407 -1.1414 62 76 138 255 
-1.13957 4.06366 -1.14508 62 76 138 255 
-1.10229 3.92533 -1.14911 64 69 136 255 
-1.06804 3.79085 -1.15392 64 69 136 255 
-2.83243 10.1828 3.175 56 89 140 255 
-2.82605 10.1262 3.04044 54 92 141 255 
-2.83442 10.1422 2.93432 56 88 140 255 
-2.88703 10.3312 2.88032 72 40 120 255 
-3.45896 12.4101 3.3438 70 48 126 255 
-3.51143 12.5905 3.25413 68 58 131 255 
-3.47787 12.4782 3.0932 68 58 131 255 
-3.40872 12.2392 2.90984 71 47 125 255 
-3.37563 12.103 2.77177 59 81 139 255 
-3.37139 12.0966 2.63944 62 74 137 255 
-3.3257 11.9564 2.48659 58 84 140 255 
-5.22746 18.8203 3.72608 70 8 92 255 
-0 0 0 68 2 86 255 
-0 0 0 68 2 86 255 
-0 0 0 68 2 86 255 
-0 0 0 68 1 84 255 
-0 0 0 68 2 86 255 
-4.35505 15.6471 2.19887 68 59 132 255 
-4.33884 15.6517 2.0432 71 46 124 255 
-4.33111 15.6673 1.89513 72 37 118 255 
-4.3623 15.6512 1.7622 52 97 141 255 
-4.35721 15.6866 1.61066 55 90 140 255 
-4.34388 15.6805 1.45502 65 66 135 255 
-4.28449 15.5302 1.29055 68 57 131 255 
-4.20943 15.1129 1.1328 66 65 134 255 
-4.10448 14.7867 0.962789 61 77 138 255 
-4.02191 14.5479 0.80423 62 76 138 255 
-3.96493 14.3915 0.654366 66 64 134 255 
-3.51448 12.6348 0.47172 70 50 126 255 
-3.50937 12.66 0.348603 68 59 132 255 
-3.49543 12.6521 0.224533 70 52 128 255 
-3.48028 12.6496 0.103043 69 55 129 255 
-3.1945 11.4923 -0.00208183 70 50 126 255 
-3.15681 11.4036 -0.113587 66 63 133 255 
-3.13458 11.3614 -0.222185 66 64 134 255 
-3.1221 11.3632 -0.333282 71 47 125 255 
-3.1498 11.3544 -0.427953 66 63 133 255 
-2.83189 10.2437 -0.484472 67 61 132 255 
-2.78262 10.0926 -0.576153 70 50 126 255 
-2.77458 10.1052 -0.675825 70 50 126 255 
-2.79419 10.0794 -0.758922 68 59 132 255 
-2.78043 10.0713 -0.855314 67 62 133 255 
-2.73275 9.93201 -0.941099 68 59 132 255 
-2.71573 9.8909 -1.03463 64 69 136 255 
-2.52374 9.12228 -1.03157 53 94 141 255 
-2.36319 8.56578 -1.05328 59 82 139 255 
-2.16924 7.88935 -1.04816 51 98 141 255 
-2.06923 7.54662 -1.07748 53 94 141 255 
-1.97138 7.14026 -1.08194 50 100 142 255 
-1.85717 6.74079 -1.08741 57 85 140 255 
-1.76612 6.42763 -1.09994 50 100 142 255 
-1.66316 6.06566 -1.09996 51 98 141 255 
-1.60265 5.82055 -1.10803 48 105 142 255 
-1.52073 5.53096 -1.1067 58 84 140 255 
-1.46214 5.32132 -1.11975 52 97 141 255 
-1.391 5.06959 -1.12028 63 72 137 255 
-1.34405 4.89134 -1.12551 60 79 138 255 
-1.28921 4.69534 -1.1277 58 84 140 255 
-1.2423 4.52742 -1.13492 57 86 140 255 
-1.19941 4.36536 -1.14218 58 83 139 255 
-1.15578 4.22056 -1.14393 58 83 139 255 
-1.11156 4.0594 -1.14194 62 76 138 255 
-1.08328 3.95058 -1.15454 61 78 138 255 
-1.0412 3.78438 -1.14998 62 73 137 255 
-2.73576 10.0743 3.13587 59 82 139 255 
-2.8818 10.5762 3.17018 69 53 129 255 
-2.77315 10.1631 2.93539 50 100 142 255 
-2.81392 10.3133 2.87047 65 68 135 255 
-2.76312 10.1541 2.73132 69 53 129 255 
-2.79802 10.2758 2.65138 72 41 121 255 
-3.52332 12.9479 3.20422 72 35 116 255 
-3.32486 12.2279 2.90225 70 52 128 255 
-3.44986 12.669 2.8965 58 84 140 255 
-3.29274 12.101 2.63594 71 44 122 255 
-3.27206 12.0495 2.50172 55 91 141 255 
-5.12577 18.9032 3.7362 71 19 101 255 
-5.15498 18.9308 3.57973 65 66 135 255 
-0 0 0 68 2 86 255 
-0 0 0 68 1 84 255 
-0 0 0 68 2 86 255 
-0 0 0 68 2 86 255 
-4.36836 16.0761 2.25535 70 8 92 255 
-0 0 0 68 2 86 255 
-0 0 0 69 4 87 255 
-4.27167 15.6978 1.76446 64 69 136 255 
-0 0 0 68 2 86 255 
-5.22133 19.3076 1.78858 68 57 131 255 
-4.18212 15.5302 1.2884 69 56 130 255 
-4.09621 15.0633 1.12718 64 69 136 255 
-4.00949 14.7962 0.961787 66 65 134 255 
-3.9461 14.6224 0.806997 66 65 134 255 
-3.88719 14.4551 0.656162 66 64 134 255 
-3.47093 12.7815 0.476393 71 42 122 255 
-3.4533 12.7614 0.350805 68 59 132 255 
-3.4422 12.7641 0.226141 68 57 131 255 
-3.42412 12.7508 0.103695 68 58 131 255 
-3.12891 11.53 -0.00208514 69 55 129 255 
-3.10948 11.5067 -0.114422 62 73 137 255 
-3.08301 11.448 -0.223505 66 64 134 255 
-3.07329 11.4603 -0.335572 68 57 131 255 
-3.09914 11.444 -0.430602 66 65 134 255 
-2.77002 10.2648 -0.484654 67 61 132 255 
-2.74192 10.1885 -0.580659 67 62 133 255 
-2.73525 10.2069 -0.681488 65 68 135 255 
-2.75392 10.1762 -0.764928 65 68 135 255 
-2.74659 10.1921 -0.864126 66 63 133 255 
-2.74227 10.2112 -0.965937 62 74 137 255 
-2.65293 9.89969 -1.03383 63 72 137 255 
-2.46331 9.12128 -1.02972 54 93 141 255 
-2.3062 8.56382 -1.05127 53 94 141 255 
-2.13622 7.95999 -1.05578 50 102 142 255 
-2.01905 7.54482 -1.07543 51 99 141 255 
-1.92624 7.14744 -1.08122 50 101 142 255 
-1.82937 6.80263 -1.09555 52 97 141 255 
-1.72384 6.42787 -1.09815 48 106 142 255 
-1.63381 6.10525 -1.1053 55 91 141 255 
-1.56512 5.82363 -1.10676 54 92 141 255 
-1.48269 5.52502 -1.10367 57 86 140 255 
-1.43099 5.33587 -1.12094 52 97 141 255 
-1.36265 5.08842 -1.12257 57 86 140 255 
-1.31477 4.90232 -1.12616 58 84 140 255 
-1.26265 4.71163 -1.12974 56 89 140 255 
-1.21525 4.53778 -1.13562 59 82 139 255 
-1.1731 4.37451 -1.14267 61 78 138 255 
-1.13211 4.23599 -1.14621 60 79 138 255 
-1.0809 4.0447 -1.13592 62 73 137 255 
-1.05553 3.94414 -1.15074 62 73 137 255 
-1.01547 3.78143 -1.14717 63 72 137 255 
-2.67512 10.0955 3.13731 54 92 141 255 
-2.99187 11.2519 3.36715 71 46 124 255 
-2.78362 10.4536 3.01431 57 85 140 255 
-2.80625 10.5395 2.92855 66 64 134 255 
-2.69928 10.1652 2.72981 66 63 133 255 
-2.708 10.1915 2.62528 62 73 137 255 
-2.73362 10.2948 2.54345 70 50 126 255 
-5.32337 20.0633 4.75411 72 33 115 255 
-3.24089 12.1963 2.78384 72 29 111 255 
-3.25384 12.2543 2.66494 65 66 135 255 
-0 0 0 68 1 84 255 
-5.00843 18.9296 3.73526 71 14 97 255 
-5.02989 18.9288 3.57345 68 58 131 255 
-0 0 0 68 1 84 255 
-0 0 0 68 2 86 255 
-0 0 0 68 2 86 255 
-4.11606 15.5007 2.32824 71 13 96 255 
-4.32754 16.321 2.28594 71 46 124 255 
-0 0 0 69 5 89 255 
-0 0 0 68 1 84 255 
-4.18088 15.7448 1.76683 72 36 117 255 
-0 0 0 69 4 87 255 
-5.11242 19.3759 1.79196 67 61 132 255 
-4.08421 15.546 1.2876 67 62 133 255 
-4.00908 15.1084 1.12869 67 61 132 255 
-3.94873 14.9344 0.969176 64 69 136 255 
-3.85427 14.6386 0.806571 64 69 136 255 
-3.8111 14.527 0.658351 64 69 136 255 
-3.40447 12.848 0.478082 71 44 122 255 
-3.38412 12.8171 0.35176 69 55 129 255 
-3.38773 12.8758 0.227749 69 55 129 255 
-3.37294 12.8751 0.104535 70 48 126 255 
-3.06322 11.5683 -0.00208864 71 45 123 255 
-3.04799 11.5604 -0.114768 65 68 135 255 
-3.04523 11.5905 -0.225917 66 64 134 255 
-3.02391 11.5592 -0.337918 69 55 129 255 
-3.04392 11.5198 -0.432744 65 68 135 255 
-2.71512 10.3125 -0.486111 67 62 133 255 
-2.69887 10.2795 -0.58489 68 58 131 255 
-2.6862 10.2756 -0.684964 62 73 137 255 
-2.70441 10.2421 -0.768619 65 66 135 255 
-2.69414 10.2473 -0.86739 65 66 135 255 
-2.68436 10.2461 -0.967665 66 64 134 255 
-2.58936 9.90519 -1.03272 62 74 137 255 
-2.40426 9.12469 -1.02842 54 93 141 255 
-2.25336 8.57685 -1.05116 53 94 141 255 
-2.09537 8.00365 -1.05985 52 96 141 255 
-1.97046 7.54844 -1.07421 48 105 142 255 
-1.8831 7.162 -1.08165 50 100 142 255 
-1.78333 6.79748 -1.09294 51 98 141 255 
-1.68636 6.44596 -1.09945 48 105 142 255 
-1.59184 6.098 -1.1022 57 86 140 255 
-1.52886 5.83122 -1.1064 52 97 141 255 
-1.45125 5.54351 -1.10556 58 84 140 255 
-1.39574 5.33507 -1.11896 53 95 141 255 
-1.33288 5.10236 -1.12382 57 86 140 255 
-1.28244 4.9018 -1.12421 59 82 139 255 
-1.23224 4.71363 -1.12838 57 86 140 255 
-1.18518 4.53668 -1.13351 60 80 139 255 
-1.14673 4.38351 -1.14316 62 76 138 255 
-1.09853 4.21383 -1.13836 59 81 139 255 
-1.05679 4.05406 -1.1367 58 84 140 255 
-1.03277 3.95613 -1.15237 63 72 137 255 
-0.992248 3.78759 -1.14717 65 68 135 255 
-2.6208 10.1414 3.14652 65 68 135 255 
-2.71635 10.4741 3.12934 66 63 133 255 
-2.6458 10.1871 2.93271 59 81 139 255 
-2.66676 10.2686 2.84868 59 82 139 255 
-2.71985 10.5021 2.81573 72 41 121 255 
-2.64663 10.2126 2.62649 66 64 134 255 
-2.66406 10.2869 2.53741 53 94 141 255 
-5.22971 20.2098 4.78112 72 27 109 255 
-3.28335 12.6688 2.88702 72 24 106 255 
-3.28776 12.6956 2.75648 71 44 122 255 
-0 0 0 68 2 86 255 
-0 0 0 68 1 84 255 
-4.89933 18.9041 3.56304 72 38 119 255 
-0 0 0 68 2 86 255 
-0 0 0 68 2 86 255 
-8.29506 32.2642 5.10957 70 7 90 255 
-4.02038 15.5238 2.32795 71 44 122 255 
-4.28586 16.5736 2.3176 71 44 122 255 
-0 0 0 68 2 86 255 
-0 0 0 68 2 86 255 
-4.02313 15.5344 1.74042 70 10 93 255 
-0 0 0 68 2 86 255 
-4.99492 19.4127 1.7925 66 64 134 255 
-3.97341 15.5109 1.28265 67 61 132 255 
-3.97452 15.3577 1.14547 66 65 134 255 
-3.86649 14.9951 0.971555 64 70 136 255 
-3.77232 14.6929 0.808274 67 62 133 255 
-3.7365 14.6072 0.660935 65 68 135 255 
-3.33882 12.9199 0.479987 71 45 123 255 
-3.33856 12.9664 0.355288 69 55 129 255 
-3.32805 12.9719 0.229083 69 55 129 255 
-3.32555 13.0196 0.105541 69 53 129 255 
-3.00368 11.6314 -0.00209666 71 46 124 255 
-2.99343 11.6428 -0.115401 66 65 134 255 
-2.99738 11.7 -0.227689 66 63 133 255 
-2.98183 11.6909 -0.341226 69 56 130 255 
-2.98366 11.5789 -0.434268 67 61 132 255 
-2.66844 10.3938 -0.489162 66 64 134 255 
-2.64887 10.3472 -0.587802 68 57 131 255 
-2.64035 10.3596 -0.689469 67 61 132 255 
-2.6644 10.3474 -0.775277 66 64 134 255 
-2.65448 10.3544 -0.875059 68 58 131 255 
-2.6488 10.3695 -0.977764 60 79 138 255 
-2.52018 9.88811 -1.02931 62 73 137 255 
-2.34971 9.14505 -1.02907 54 92 141 255 
-2.19945 8.5857 -1.05057 52 96 141 255 
-2.04941 8.02885 -1.0615 50 102 142 255 
-1.92118 7.54887 -1.07257 57 86 140 255 
-1.83961 7.17533 -1.08194 52 96 141 255 
-1.7362 6.78723 -1.08956 54 93 141 255 
-1.64556 6.45141 -1.09864 50 102 142 255 
-1.55099 6.09429 -1.09979 59 81 139 255 
-1.49281 5.83954 -1.10622 50 101 142 255 
-1.41891 5.55897 -1.10689 57 85 140 255 
-1.35014 5.2932 -1.10842 54 92 141 255 
-1.29817 5.09718 -1.1209 59 81 139 255 
-1.25379 4.91525 -1.12551 60 79 138 255 
-1.20642 4.73338 -1.13131 56 89 140 255 
-1.15516 4.53539 -1.13139 58 83 139 255 
-1.1143 4.36885 -1.13753 61 78 138 255 
-1.08004 4.24956 -1.14621 58 83 139 255 
-1.03332 4.06608 -1.13827 59 81 139 255 
-1.00492 3.9484 -1.1483 60 79 138 255 
-0.971127 3.80198 -1.1497 63 72 137 255 
-2.56928 10.2001 3.15975 59 82 139 255 
-2.65697 10.5101 3.13517 66 63 133 255 
-2.58821 10.2227 2.93834 60 80 139 255 
-2.84949 11.2556 3.1176 68 58 131 255 
-2.89346 11.4617 3.06821 59 82 139 255 
-2.56776 10.1647 2.61006 70 52 128 255 
-2.59566 10.2823 2.5323 65 68 135 255 
-0 0 0 68 1 84 255 
-3.19933 12.6641 2.88142 71 45 123 255 
-3.23135 12.801 2.77499 59 82 139 255 
-0 0 0 68 1 84 255 
-0 0 0 68 1 84 255 
-0 0 0 68 1 84 255 
-0 0 0 68 1 84 255 
-8.02084 31.8905 5.34956 71 13 96 255 
-8.00757 31.9578 5.05317 70 10 93 255 
-3.92141 15.5337 2.3258 61 77 138 255 
-0 0 0 69 4 87 255 
-4.26859 17.0093 2.20608 71 46 124 255 
-4.26933 17.0639 2.05077 69 56 130 255 
-4.22412 16.7328 1.87175 69 4 87 255 
-4.28283 17.029 1.73717 71 13 96 255 
-4.82193 19.2285 1.77272 71 44 122 255 
-3.8644 15.4798 1.27809 66 65 134 255 
-3.87729 15.3702 1.14461 63 71 136 255 
-3.77368 15.0156 0.971367 62 73 137 255 
-3.68985 14.7468 0.809976 65 66 135 255 
-3.67724 14.752 0.666453 66 64 134 255 
-3.28829 13.0545 0.484229 71 42 122 255 
-3.27184 13.038 0.356694 70 51 127 255 
-3.26173 13.0455 0.230024 70 52 128 255 
-3.25478 13.0766 0.105839 70 52 128 255 
-2.95544 11.7418 -0.00211324 70 51 127 255 
-2.94527 11.7541 -0.116323 68 57 131 255 
-2.942 11.7841 -0.228971 66 63 133 255 
-2.91848 11.7429 -0.342215 71 45 123 255 
-2.94079 11.7094 -0.438478 67 62 133 255 
-2.61722 10.4604 -0.49153 68 59 132 255 
-2.60515 10.4427 -0.592308 68 58 131 255 
-2.60199 10.4773 -0.696226 68 58 131 255 
-2.6164 10.4254 -0.779908 65 68 135 255 
-2.60756 10.4372 -0.880689 67 62 133 255 
-2.59643 10.4309 -0.98204 63 71 136 255 
-2.45611 9.88987 -1.0279 64 69 136 255 
-2.29186 9.15254 -1.02832 59 82 139 255 
-2.14 8.57206 -1.04727 60 80 139 255 
-2.0049 8.06053 -1.06404 53 94 141 255 
-1.87482 7.56052 -1.07257 55 90 140 255 
-1.79483 7.18361 -1.08151 54 93 141 255 
-1.69238 6.78913 -1.08818 52 96 141 255 
-1.595 6.41733 -1.09115 53 95 141 255 
-1.51594 6.11325 -1.10151 54 92 141 255 
-1.45623 5.84572 -1.10568 50 101 142 255 
-1.38454 5.56662 -1.1067 61 78 138 255 
-1.31787 5.30234 -1.10862 54 93 141 255 
-1.26946 5.11549 -1.1232 56 89 140 255 
-1.22078 4.91148 -1.12291 60 80 139 255 
-1.17876 4.74637 -1.13267 58 83 139 255 
-1.12497 4.53296 -1.12904 58 83 139 255 
-1.0863 4.3709 -1.13631 58 83 139 255 
-1.05115 4.24484 -1.14317 58 83 139 255 
-1.0116 4.08546 -1.14194 58 83 139 255 
-0.977428 3.94141 -1.1445 61 78 138 255 
-0.948476 3.81066 -1.15054 60 79 138 255 
-2.61574 10.6602 3.29727 66 65 134 255 
-2.43967 9.90593 2.95042 58 84 140 255 
-2.5289 10.2524 2.94237 66 64 134 255 
-2.48388 10.0708 2.78515 61 78 138 255 
-2.75697 11.2105 2.99636 63 72 137 255 
-2.50326 10.1718 2.60789 62 73 137 255 
-2.52903 10.2839 2.52882 62 74 137 255 
-2.51787 10.247 2.41668 70 50 126 255 
-3.12063 12.6797 2.88056 72 20 103 255 
-0 0 0 68 2 86 255 
-0 0 0 68 2 86 255 
-0 0 0 68 2 86 255 
-0 0 0 68 2 86 255 
-0 0 0 68 2 86 255 
-7.833 31.9717 5.35502 72 20 103 255 
-7.66861 31.4215 4.96085 71 16 99 255 
-3.81752 15.5229 2.32063 50 101 142 255 
-0 0 0 68 2 86 255 
-4.17097 17.0632 2.2097 69 5 89 255 
-0 0 0 69 4 87 255 
-4.20756 17.1089 1.91089 71 47 125 255 
-4.18299 17.0743 1.73914 72 29 111 255 
-4.71473 19.3022 1.77682 70 50 126 255 
-3.76346 15.479 1.2761 68 58 131 255 
-3.73102 15.1826 1.12891 66 65 134 255 
-3.66795 14.9832 0.967798 64 69 136 255 
-3.61774 14.8449 0.814126 66 65 134 255 
-3.58147 14.7529 0.66549 64 69 136 255 
-3.22789 13.155 0.487213 72 38 119 255 
-3.21456 13.1511 0.35924 70 50 126 255 
-3.22208 13.2313 0.232948 71 46 124 255 
-3.21217 13.2518 0.107096 70 50 126 255 
-2.90239 11.8374 -0.00212721 72 41 121 255 
-2.88661 11.8273 -0.11687 70 51 127 255 
-2.87838 11.8379 -0.229668 67 62 133 255 
-2.87506 11.8791 -0.345664 68 58 131 255 
-2.8962 11.8389 -0.442652 64 69 136 255 
-2.56742 10.5354 -0.494308 66 64 134 255 
-2.56036 10.538 -0.596814 65 66 135 255 
-2.55431 10.5619 -0.700796 66 64 134 255 
-2.56919 10.5101 -0.785046 69 56 130 255 
-2.55525 10.5014 -0.884769 67 62 133 255 
-2.54012 10.4786 -0.985043 72 31 112 255 
-2.32451 9.61173 -0.997495 61 78 138 255 
-2.23283 9.15484 -1.02702 58 84 140 255 
-2.08806 8.58793 -1.04763 53 95 141 255 
-1.95494 8.07075 -1.06378 54 93 141 255 
-1.8291 7.57477 -1.07298 52 97 141 255 
-1.74768 7.18198 -1.07963 53 94 141 255 
-1.65045 6.79843 -1.08802 52 97 141 255 
-1.55582 6.42796 -1.09131 50 100 142 255 
-1.4747 6.10712 -1.09876 54 93 141 255 
-1.41825 5.84595 -1.10406 50 102 142 255 
-1.34342 5.54638 -1.10101 62 74 137 255 
-1.28808 5.32176 -1.111 58 83 139 255 
-1.23323 5.10322 -1.11882 57 86 140 255 
-1.19062 4.91888 -1.12291 58 83 139 255 
-1.14366 4.72889 -1.1268 58 84 140 255 
-1.09074 4.51332 -1.12246 59 81 139 255 
-1.05855 4.37371 -1.13533 57 85 140 255 
-1.02101 4.23428 -1.13862 58 83 139 255 
-0.98606 4.08971 -1.14141 59 82 139 255 
-0.952096 3.94266 -1.14314 62 73 137 255 
-0.919424 3.79309 -1.14352 65 68 135 255 
-2.48953 10.4218 3.21873 65 68 135 255 
-2.40527 10.0309 2.98321 50 100 142 255 
-2.42208 10.0851 2.89003 62 73 137 255 
-2.42227 10.0868 2.78541 57 85 140 255 
-2.63359 10.9994 2.93556 59 82 139 255 
-3.13132 13.0689 3.34569 68 58 131 255 
-2.45456 10.2519 2.5172 72 33 115 255 
-2.44361 10.2148 2.40552 71 14 97 255 
-0 0 0 68 1 84 255 
-0 0 0 68 1 84 255 
-7.53702 31.5525 6.49986 72 22 104 255 
-0 0 0 69 4 87 255 
-0 0 0 68 1 84 255 
-7.53569 31.4995 5.58862 71 16 99 255 
-7.57302 31.7523 5.31038 71 14 97 255 
-7.48274 31.4978 4.96555 71 14 97 255 
-3.7192 15.5335 2.31876 44 113 142 255 
-0 0 0 68 2 86 255 
-0 0 0 68 2 86 255 
-0 0 0 68 2 86 255 
-0 0 0 68 1 84 255 
-0 0 0 68 2 86 255 
-4.58238 19.2727 1.77148 70 48 126 255 
-3.66497 15.4873 1.2749 66 63 133 255 
-3.6408 15.2178 1.12984 66 63 133 255 
-3.57062 14.9831 0.966358 62 76 138 255 
-3.55148 14.9717 0.819873 66 65 134 255 
-3.47618 14.7124 0.662687 68 58 131 255 
-3.16917 13.2669 0.490627 71 44 122 255 
-3.15787 13.2717 0.361999 71 45 123 255 
-3.1519 13.2976 0.233769 72 40 120 255 
-3.14159 13.317 0.107465 71 47 125 255 
-2.84224 11.9075 -0.00213663 71 45 123 255 
-2.84657 11.9819 -0.118223 67 62 133 255 
-2.83493 11.9789 -0.232062 66 65 134 255 
-2.81884 11.9676 -0.347728 70 51 127 255 
-2.81702 11.8292 -0.441636 59 82 139 255 
-2.51933 10.621 -0.497587 67 61 132 255 
-2.51196 10.6225 -0.600715 69 53 129 255 
-2.50363 10.6376 -0.704786 66 64 134 255 
-2.51874 10.5848 -0.789461 69 55 129 255 
-2.50777 10.5887 -0.890806 65 66 135 255 
-2.50436 10.6152 -0.996415 70 48 126 255 
-2.23404 9.49216 -0.983645 53 94 141 255 
-2.17684 9.16934 -1.02712 58 84 140 255 
-2.03785 8.61121 -1.04892 53 95 141 255 
-1.90424 8.07776 -1.06315 52 97 141 255 
-1.78666 7.60321 -1.07543 52 97 141 255 
-1.69856 7.17139 -1.07645 53 94 141 255 
-1.60553 6.79496 -1.08587 52 97 141 255 
-1.51635 6.43738 -1.09131 52 97 141 255 
-1.4354 6.10838 -1.09738 55 91 141 255 
-1.38032 5.84592 -1.10243 51 99 141 255 
-1.31364 5.57268 -1.10461 57 85 140 255 
-1.25787 5.34005 -1.11319 54 92 141 255 
-1.19719 5.09069 -1.11444 53 94 141 255 
-1.16041 4.92609 -1.12291 60 79 138 255 
-1.10972 4.71495 -1.12184 63 72 137 255 
-1.06725 4.53791 -1.12693 61 77 138 255 
-1.02725 4.36125 -1.13044 59 82 139 255 
-0.995668 4.24329 -1.13938 54 93 141 255 
-0.960286 4.09287 -1.14063 60 80 139 255 
-0.930088 3.95779 -1.14585 59 81 139 255 
-0.896574 3.80053 -1.14408 60 80 139 255 
-2.34597 10.0945 3.11315 72 40 120 255 
-2.31356 9.91641 2.94487 58 83 139 255 
-2.63679 11.2836 3.22877 70 50 126 255 
-2.92399 12.5137 3.45058 70 48 126 255 
-2.60206 11.1699 2.97676 59 82 139 255 
-3.06803 13.1606 3.36429 71 45 123 255 
-3.01059 12.9239 3.16869 72 40 120 255 
-2.38177 10.2334 2.40641 68 57 131 255 
-0 0 0 68 1 84 255 
-0 0 0 68 1 84 255 
-7.30954 31.453 6.47 71 17 100 255 
-7.38582 31.8342 6.23399 69 4 87 255 
-7.2983 31.3049 5.8648 71 16 99 255 
-7.29044 31.3225 5.54917 72 24 106 255 
-7.46305 32.1645 5.37156 71 17 100 255 
-7.24816 31.3649 4.9375 72 23 105 255 
-3.62248 15.5503 2.3179 41 122 142 255 
-0 0 0 68 1 84 255 
-0 0 0 68 2 86 255 
-10.86 47.0692 5.6319 70 7 90 255 
-0 0 0 68 2 86 255 
-10.6383 45.8512 4.65665 69 5 89 255 
-4.2268 18.2747 1.67733 72 22 104 255 
-3.56942 15.5075 1.27474 67 61 132 255 
-3.60502 15.4876 1.14821 66 64 134 255 
-3.53136 15.2323 0.98101 62 73 137 255 
-3.45438 14.9708 0.818649 66 65 134 255 
-3.38853 14.7451 0.663213 63 72 137 255 
-3.11576 13.4068 0.495085 71 45 123 255 
-3.10907 13.432 0.365845 69 53 129 255 
-3.09428 13.4209 0.235599 70 51 127 255 
-3.07592 13.4062 0.10803 71 46 124 255 
-2.79537 12.0377 -0.00215688 71 46 124 255 
-2.78065 12.0323 -0.11855 69 56 130 255 
-2.77416 12.0516 -0.233136 69 53 129 255 
-2.75719 12.0363 -0.349226 70 50 126 255 
-2.71551 11.7216 -0.43699 51 99 141 255 
-2.47387 10.7219 -0.501594 68 58 131 255 
-2.46263 10.7068 -0.604617 67 62 133 255 
-2.45234 10.7141 -0.708841 68 58 131 255 
-2.47466 10.6905 -0.796191 70 51 127 255 
-2.46311 10.6923 -0.898231 59 81 139 255 
-2.45031 10.6789 -1.00096 61 78 138 255 
-2.17531 9.50375 -0.983444 43 116 142 255 
-2.11629 9.16412 -1.02507 60 79 138 255 
-1.98296 8.61484 -1.04786 55 90 140 255 
-1.85575 8.09413 -1.06378 53 95 141 255 
-1.73137 7.57636 -1.07011 53 94 141 255 
-1.65497 7.18361 -1.07674 52 96 141 255 
-1.56314 6.8018 -1.08541 53 94 141 255 
-1.47793 6.45138 -1.09213 51 98 141 255 
-1.39767 6.11611 -1.09721 56 88 140 255 
-1.3453 5.85812 -1.10315 53 94 141 255 
-1.28052 5.58542 -1.10556 57 85 140 255 
-1.22552 5.34958 -1.11359 54 93 141 255 
-1.16048 5.07411 -1.10923 56 88 140 255 
-1.12406 4.90647 -1.11684 60 80 139 255 
-1.08076 4.72167 -1.12184 57 85 140 255 
-1.04047 4.54911 -1.1281 59 82 139 255 
-0.997438 4.35424 -1.12701 61 78 138 255 
-0.969613 4.24932 -1.13938 59 82 139 255 
-0.934725 4.0968 -1.14011 61 78 138 255 
-0.9045 3.9578 -1.14423 62 73 137 255 
-0.872379 3.80222 -1.14295 63 71 136 255 
-2.23946 9.91159 3.05244 55 90 140 255 
-2.25628 9.94635 2.94959 62 76 138 255 
-2.46505 10.8487 3.09993 56 89 140 255 
-2.65714 11.6951 3.22029 62 73 137 255 
-2.32907 10.2832 2.73659 71 14 97 255 
-2.95119 13.0202 3.3237 64 69 136 255 
-2.33652 10.3163 2.5258 61 78 138 255 
-2.31291 10.2212 2.40016 72 33 115 255 
-0 0 0 68 1 84 255 
-0 0 0 68 2 86 255 
-7.11619 31.4963 6.46981 70 8 92 255 
-7.05008 31.257 6.11238 70 7 90 255 
-7.02105 30.9739 5.79462 71 14 97 255 
-7.09094 31.3349 5.54356 71 17 100 255 
-7.15022 31.6984 5.2863 71 16 99 255 
-7.22694 32.1717 5.05742 70 11 94 255 
-3.51694 15.5278 2.31129 42 119 142 255 
-7.27663 32.1816 4.46683 71 13 96 255 
-0 0 0 69 4 87 255 
-10.3265 46.0446 5.50162 69 5 89 255 
-10.5013 46.3648 5.15602 70 8 92 255 
-0 0 0 69 4 87 255 
-0 0 0 68 2 86 255 
-3.47268 15.5223 1.27418 67 62 133 255 
-3.49539 15.4452 1.14346 62 74 137 255 
-3.43893 15.2585 0.981323 65 68 135 255 
-3.3382 14.8836 0.812743 64 70 136 255 
-3.2993 14.7715 0.663475 66 63 133 255 
-3.05414 13.5173 0.498464 71 44 122 255 
-3.05227 13.5649 0.368949 68 58 131 255 
-3.03308 13.5343 0.237258 69 53 129 255 
-3.01406 13.5166 0.108769 71 47 125 255 
-2.73268 12.1044 -0.00216578 70 52 128 255 
-2.73176 12.1604 -0.119644 69 55 129 255 
-2.72352 12.1728 -0.235153 67 62 133 255 
-2.70196 12.1369 -0.351658 69 55 129 255 
-2.63959 11.7205 -0.436337 47 107 142 255 
-2.4146 10.7661 -0.50296 67 62 133 255 
-2.42564 10.8504 -0.61187 66 63 133 255 
-2.40454 10.8098 -0.714182 68 59 132 255 
-2.42063 10.757 -0.800027 68 58 131 255 
-2.40595 10.7451 -0.901413 66 65 134 255 
-2.30389 10.3311 -0.967029 59 81 139 255 
-2.11954 9.52857 -0.984649 64 69 136 255 
-2.06198 9.18566 -1.02604 60 79 138 255 
-1.92812 8.61812 -1.0468 53 95 141 255 
-1.80173 8.086 -1.06124 55 90 140 255 
-1.6842 7.58394 -1.06971 54 92 141 255 
-1.6113 7.19556 -1.07703 51 99 141 255 
-1.52525 6.82862 -1.08818 55 91 141 255 
-1.43982 6.46706 -1.09326 51 99 141 255 
-1.36396 6.14188 -1.10031 54 93 141 255 
-1.31233 5.8797 -1.10568 50 100 142 255 
-1.24793 5.60084 -1.10708 52 96 141 255 
-1.19246 5.35604 -1.11339 56 89 140 255 
-1.13845 5.12219 -1.11819 56 88 140 255 
-1.09457 4.91614 -1.11749 53 94 141 255 
-1.05558 4.74533 -1.1259 54 93 141 255 
-1.01148 4.55066 -1.12693 59 82 139 255 
-0.976602 4.38678 -1.13386 61 77 138 255 
-0.942265 4.24952 -1.13786 58 84 140 255 
-0.909361 4.10152 -1.13984 57 85 140 255 
-0.877903 3.95294 -1.14124 61 78 138 255 
-0.853419 3.82717 -1.14886 61 77 138 255 
-2.18086 9.93543 3.05561 70 50 126 255 
-2.22995 10.1176 2.99626 62 76 138 255 
-2.2541 10.2098 2.91338 67 61 132 255 
-2.24619 10.1749 2.79785 63 72 137 255 
-2.24367 10.1961 2.70971 58 83 139 255 
-2.24348 10.1875 2.59702 72 27 109 255 
-2.26544 10.2953 2.5172 59 81 139 255 
-0 0 0 68 1 84 255 
-3.13722 14.2449 3.21769 69 5 89 255 
-3.18269 14.4644 3.11294 69 5 89 255 
-0 0 0 69 4 87 255 
-0 0 0 69 4 87 255 
-3.16364 14.3649 2.68372 70 7 90 255 
-3.13589 14.2635 2.51996 70 8 92 255 
-3.19194 14.5663 2.4259 69 5 89 255 
-3.12224 14.3091 2.24634 70 7 90 255 
-3.27846 14.8986 2.2146 69 5 89 255 
-3.1718 14.4389 2.00139 69 5 89 255 
-3.1484 14.4037 1.85473 70 7 90 255 
-3.13396 14.3869 1.71668 70 8 92 255 
-3.15699 14.3466 1.59323 69 5 89 255 
-3.14883 14.3702 1.45541 70 8 92 255 
-3.11005 14.2402 1.30342 70 8 92 255 
-3.18709 14.6677 1.2024 70 7 90 255 
-3.37657 15.3572 1.13539 72 27 109 255 
-3.24577 14.825 0.952144 71 19 101 255 
-3.13225 14.3779 0.784064 71 17 100 255 
-3.12028 14.3843 0.645213 72 22 104 255 
-2.99964 13.6656 0.503245 70 51 127 255 
-2.98477 13.6557 0.370912 70 48 126 255 
-2.96848 13.6376 0.238746 69 55 129 255 
-2.96197 13.6775 0.109915 71 45 123 255 
-2.68664 12.2498 -0.00218882 70 50 126 255 
-2.67372 12.2531 -0.120393 65 66 135 255 
-2.67361 12.3036 -0.237358 65 66 135 255 
-2.61033 12.0741 -0.349368 65 68 135 255 
-2.54776 11.6457 -0.432962 57 86 140 255 
-2.37146 10.8861 -0.507878 69 55 129 255 
-2.36368 10.8865 -0.613079 70 48 126 255 
-2.35523 10.9033 -0.719395 68 58 131 255 
-2.34734 10.7385 -0.797566 63 72 137 255 
-2.27919 10.4802 -0.877997 60 79 138 255 
-2.22971 10.2955 -0.962389 55 90 140 255 
-2.13772 9.89637 -1.02128 66 64 134 255 
-2.00431 9.19231 -1.02539 58 84 140 255 
-1.87309 8.62009 -1.04562 54 93 141 255 
-1.75083 8.09109 -1.06048 52 96 141 255 
-1.63701 7.59123 -1.0693 54 92 141 255 
-1.56459 7.19371 -1.0753 52 97 141 255 
-1.47892 6.81757 -1.08495 52 96 141 255 
-1.40198 6.48446 -1.09473 52 97 141 255 
-1.32562 6.14725 -1.09979 58 84 140 255 
-1.27248 5.87034 -1.10243 49 103 142 255 
-1.21147 5.59879 -1.10518 46 110 142 255 
-1.15916 5.36134 -1.11299 57 86 140 255 
-1.10823 5.13481 -1.11944 56 88 140 255 
-1.06831 4.94089 -1.12161 53 94 141 255 
-1.02891 4.76315 -1.12861 51 98 141 255 
-0.980673 4.54348 -1.12364 60 79 138 255 
-0.949052 4.38985 -1.13313 62 76 138 255 
-0.916376 4.25617 -1.13811 54 92 141 255 
-0.888037 4.12494 -1.14482 56 88 140 255 
-0.860327 3.9893 -1.1502 61 77 138 255 
-0.831747 3.84077 -1.15139 64 70 136 255 
-2.20089 10.3289 3.17241 63 72 137 255 
-2.15677 10.0794 2.98098 66 64 134 255 
-2.13912 9.97951 2.84386 67 61 132 255 
-2.16428 10.0979 2.77296 57 86 140 255 
-2.18107 10.2097 2.70971 64 69 136 255 
-2.19452 10.2646 2.61321 47 107 142 255 
-0 0 0 68 1 84 255 
-0 0 0 68 1 84 255 
-0 0 0 68 1 84 255 
-0 0 0 68 2 86 255 
-6.75694 31.7117 6.49652 72 22 104 255 
-6.73056 31.6448 6.17159 71 16 99 255 
-6.67847 31.2357 5.82783 71 19 101 255 
-6.72192 31.4948 5.55683 71 16 99 255 
-6.86111 32.2558 5.36481 70 11 94 255 
-6.76115 31.9253 5.00527 72 20 103 255 
-3.30834 15.4866 2.29893 56 89 140 255 
-6.89563 32.3363 4.47622 69 5 89 255 
-6.89336 32.491 4.17827 72 26 108 255 
-6.89088 32.5939 3.88407 70 8 92 255 
-6.95445 32.5542 3.61044 71 13 96 255 
-0 0 0 69 4 87 255 
-0 0 0 68 2 86 255 
-3.25993 15.4594 1.26564 66 65 134 255 
-3.29643 15.444 1.14029 70 52 128 255 
-3.27176 15.3952 0.98746 66 63 133 255 
-3.19125 15.0934 0.822001 69 53 129 255 
-3.10358 14.7434 0.660454 66 64 134 255 
-2.93489 13.7737 0.506552 71 44 122 255 
-2.91399 13.7354 0.372583 70 48 126 255 
-2.9019 13.7368 0.240166 71 45 123 255 
-2.89485 13.7757 0.110559 72 41 121 255 
-2.62517 12.3307 -0.00220034 70 50 126 255 
-2.60263 12.2888 -0.120585 69 53 129 255 
-2.59931 12.3257 -0.237471 69 53 129 255 
-2.49659 11.9011 -0.343911 66 64 134 255 
-2.46982 11.6308 -0.431836 58 83 139 255 
-2.31329 10.9415 -0.509791 69 53 129 255 
-2.3166 10.9946 -0.618354 67 62 133 255 
-2.30835 11.0133 -0.725702 66 63 133 255 
-2.3139 10.9059 -0.808928 69 55 129 255 
-2.20661 10.4549 -0.874733 58 83 139 255 
-2.16158 10.2855 -0.960205 55 90 140 255 
-2.08185 9.93267 -1.02369 65 66 135 255 
-1.94684 9.19958 -1.02485 59 82 139 255 
-1.82057 8.63336 -1.04586 53 94 141 255 
-1.70482 8.11915 -1.06277 54 93 141 255 
-1.58797 7.58949 -1.06766 53 94 141 255 
-1.52267 7.21382 -1.07688 50 101 142 255 
-1.43707 6.82652 -1.08495 53 95 141 255 
-1.35913 6.47845 -1.09229 55 91 141 255 
-1.28546 6.14369 -1.09772 56 89 140 255 
-1.23907 5.89055 -1.10478 52 96 141 255 
-1.17629 5.60228 -1.10442 49 104 142 255 
-1.12403 5.35781 -1.1108 55 90 140 255 
-1.07851 5.15013 -1.12132 56 89 140 255 
-1.03917 4.95309 -1.12291 55 90 140 255 
-0.999067 4.76651 -1.12793 46 109 142 255 
-0.953573 4.55322 -1.12458 59 82 139 255 
-0.918913 4.3804 -1.12921 60 80 139 255 
-0.887672 4.2494 -1.13482 57 86 140 255 
-0.861131 4.12276 -1.14272 54 93 141 255 
-0.833665 3.98414 -1.14721 62 74 137 255 
-0.8056 3.83359 -1.14773 63 71 136 255 
-2.13572 10.3338 3.16982 64 70 136 255 
-2.12397 10.2326 3.02238 72 40 120 255 
-2.07569 9.98207 2.84091 72 37 118 255 
-2.10228 10.111 2.77296 53 94 141 255 
-2.1117 10.1907 2.70117 66 63 133 255 
-2.12992 10.2703 2.61127 63 71 136 255 
-0 0 0 68 1 84 255 
-0 0 0 68 1 84 255 
-0 0 0 68 1 84 255 
-0 0 0 68 2 86 255 
-6.57791 31.8284 6.51205 71 19 101 255 
-6.44934 31.2641 6.08952 72 20 103 255 
-6.52704 31.4707 5.86409 70 11 94 255 
-6.4826 31.3135 5.51772 71 16 99 255 
-6.6501 32.2345 5.35438 71 17 100 255 
-6.55957 31.9391 5.00102 71 16 99 255 
-3.1992 15.4387 2.28888 69 56 130 255 
-6.68665 32.3275 4.46924 71 13 96 255 
-9.51231 46.2305 5.93751 69 5 89 255 
-9.49034 46.2911 5.50926 70 7 90 255 
-9.93537 47.9463 5.31064 69 5 89 255 
-0 0 0 68 1 84 255 
-0 0 0 68 2 86 255 
-3.15702 15.4401 1.26244 65 66 135 255 
-3.2004 15.4581 1.13986 61 78 138 255 
-3.17764 15.417 0.987585 61 78 138 255 
-3.11061 15.1714 0.825194 68 59 132 255 
-3.01585 14.7759 0.661067 66 65 134 255 
-2.86752 13.8746 0.509607 71 44 122 255 
-2.85102 13.8568 0.375394 71 47 125 255 
-2.83582 13.8435 0.241722 71 44 122 255 
-2.82385 13.8598 0.111093 71 45 123 255 
-2.56968 12.4445 -0.00221779 70 50 126 255 
-2.55615 12.4456 -0.121967 69 55 129 255 
-2.54607 12.4511 -0.239583 67 61 132 255 
-2.41236 11.8613 -0.342328 63 71 136 255 
-2.38893 11.5997 -0.430131 57 86 140 255 
-2.2722 11.0827 -0.51571 68 59 132 255 
-2.26329 11.0781 -0.622256 68 57 131 255 
-2.23199 10.9842 -0.722871 66 65 134 255 
-2.1806 10.5975 -0.785046 65 68 135 255 
-2.12763 10.396 -0.868695 58 84 140 255 
-2.08471 10.2313 -0.953927 55 91 141 255 
-2.01968 9.93941 -1.02309 64 69 136 255 
-1.88636 9.19187 -1.02268 58 83 139 255 
-1.76359 8.62491 -1.04351 55 91 141 255 
-1.65497 8.12946 -1.06277 56 88 140 255 
-1.54098 7.59715 -1.06739 54 92 141 255 
-1.47778 7.22012 -1.07645 50 102 142 255 
-1.39891 6.8536 -1.08787 52 96 141 255 
-1.31503 6.4654 -1.08871 55 91 141 255 
-1.24696 6.1476 -1.09703 57 86 140 255 
-1.20251 5.89611 -1.10442 50 102 142 255 
-1.14248 5.61227 -1.10499 53 94 141 255 
-1.08898 5.35404 -1.10862 58 84 140 255 
-1.04553 5.14994 -1.11986 58 84 140 255 
-1.0037 4.9345 -1.11727 54 93 141 255 
-0.965727 4.7525 -1.12319 50 100 142 255 
-0.926197 4.56184 -1.12528 61 78 138 255 
-0.886028 4.3565 -1.12163 60 79 138 255 
-0.859853 4.24623 -1.13255 57 85 140 255 
-0.830839 4.10337 -1.13592 59 82 139 255 
-0.809968 3.99295 -1.1483 61 78 138 255 
-0.780912 3.83282 -1.14605 65 68 135 255 
-2.02638 10.1176 3.09962 54 93 141 255 
-2.35784 11.7203 3.45744 68 58 131 255 
-2.62516 13.0249 3.70225 71 44 122 255 
-2.00452 9.94662 2.72447 64 69 136 255 
-2.36931 11.7977 3.12323 72 37 118 255 
-2.064 10.2689 2.60765 72 26 108 255 
-0 0 0 68 1 84 255 
-2.70657 13.4909 3.1514 69 5 89 255 
-0 0 0 68 2 86 255 
-0 0 0 68 1 84 255 
-6.38191 31.8653 6.51146 72 26 108 255 
-6.25546 31.2934 6.08764 71 17 100 255 
-6.38539 31.7667 5.91183 72 20 103 255 
-6.27929 31.2976 5.50803 72 20 103 255 
-6.38447 31.9359 5.29818 70 10 93 255 
-6.30945 31.7073 4.95857 72 22 104 255 
-3.09408 15.4067 2.28126 61 77 138 255 
-3.07376 15.3343 2.1173 72 20 103 255 
-3.05889 15.3427 1.96806 72 20 103 255 
-3.05652 15.3881 1.82912 72 28 110 255 
-0 0 0 69 4 87 255 
-0 0 0 68 2 86 255 
-0 0 0 68 2 86 255 
-3.05777 15.4367 1.26061 66 65 134 255 
-3.10097 15.4549 1.1382 61 77 138 255 
-3.07888 15.4156 0.98627 59 82 139 255 
-3.03439 15.2754 0.829823 66 63 133 255 
-2.93482 14.8431 0.663256 67 61 132 255 
-2.79882 13.9743 0.512626 70 52 128 255 
-2.78705 13.9799 0.378259 71 47 125 255 
-2.78099 14.0126 0.244373 70 48 126 255 
-2.74553 13.9112 0.111368 69 56 130 255 
-2.51407 12.5639 -0.00223629 70 52 128 255 
-2.49964 12.5611 -0.122946 68 59 132 255 
-2.45349 12.3851 -0.238018 70 52 128 255 
-2.3206 11.7798 -0.339558 58 83 139 255 
-2.30441 11.5475 -0.427663 53 94 141 255 
-2.21817 11.167 -0.518989 67 62 133 255 
-2.21407 11.1867 -0.627586 70 51 127 255 
-2.11444 10.7432 -0.706137 60 79 138 255 
-2.11203 10.5931 -0.783744 57 86 140 255 
-2.05856 10.3825 -0.866492 55 90 140 255 
-2.02594 10.2644 -0.955838 52 96 141 255 
-1.9575 9.94576 -1.02249 61 78 138 255 
-1.83244 9.21595 -1.02409 58 83 139 255 
-1.70812 8.62291 -1.04198 53 95 141 255 
-1.60141 8.12097 -1.06035 58 84 140 255 
-1.49299 7.59966 -1.06643 51 98 141 255 
-1.43422 7.23293 -1.07703 48 106 142 255 
-1.34954 6.82522 -1.08203 54 92 141 255 
-1.27285 6.46076 -1.08659 51 98 141 255 
-1.21092 6.16384 -1.09858 57 86 140 255 
-1.16593 5.90145 -1.10406 51 99 141 255 
-1.10897 5.624 -1.10594 52 96 141 255 
-1.05422 5.351 -1.10663 59 82 139 255 
-1.0141 5.15722 -1.12007 58 83 139 255 
-0.969819 4.92236 -1.11316 56 89 140 255 
-0.936736 4.7593 -1.12342 54 92 141 255 
-0.897438 4.56363 -1.12434 60 80 139 255 
-0.856469 4.34759 -1.11796 63 71 136 255 
-0.830989 4.23719 -1.12875 59 81 139 255 
-0.805088 4.10555 -1.13513 59 82 139 255 
-0.781185 3.97612 -1.14206 58 83 139 255 
-0.757194 3.8366 -1.14576 62 74 137 255 
-1.96481 10.1326 3.10049 69 56 130 255 
-2.30756 11.8458 3.49022 72 40 120 255 
-2.52526 12.9387 3.67327 72 38 119 255 
-2.34469 12.0147 3.28694 69 56 130 255 
-2.36487 12.1617 3.21568 65 68 135 255 
-2.62381 13.4818 3.41937 71 44 122 255 
-2.64796 13.6179 3.31268 71 47 125 255 
-2.66444 13.7168 3.20029 72 20 103 255 
-0 0 0 68 1 84 255 
-0 0 0 68 2 86 255 
-6.17563 31.849 6.50026 70 11 94 255 
-6.06426 31.3361 6.08858 71 16 99 255 
-6.03267 30.9951 5.76124 72 20 103 255 
-6.06045 31.1982 5.48388 72 20 103 255 
-6.12313 31.6373 5.2423 71 16 99 255 
-6.30099 32.7121 5.10957 70 7 90 255 
-2.98268 15.3389 2.26848 72 36 117 255 
-2.98528 15.382 2.12132 71 42 122 255 
-2.97259 15.4021 1.97331 72 40 120 255 
-2.96617 15.428 1.83167 72 38 119 255 
-3.00548 15.4562 1.70775 55 90 140 255 
-2.99546 15.4778 1.55967 58 84 140 255 
-2.98462 15.479 1.40968 61 77 138 255 
-2.96093 15.4444 1.25973 64 69 136 255 
-3.00057 15.4453 1.13611 61 77 138 255 
-2.97949 15.4097 0.984704 60 79 138 255 
-2.95342 15.3605 0.833441 69 56 130 255 
-2.8743 15.0208 0.670395 70 52 128 255 
-2.72462 14.051 0.514819 71 45 123 255 
-2.72868 14.139 0.382105 70 51 127 255 
-2.71816 14.1502 0.246477 70 51 127 255 
-2.67757 14.0192 0.112099 67 61 132 255 
-2.4628 12.7126 -0.00226003 65 66 135 255 
-2.44881 12.7127 -0.12428 63 72 137 255 
-2.36747 12.3479 -0.237019 68 59 132 255 
-2.24697 11.7869 -0.33936 60 79 138 255 
-2.23427 11.5654 -0.427808 56 88 140 255 
-2.16149 11.2422 -0.521858 68 59 132 255 
-2.15704 11.2609 -0.630993 69 55 129 255 
-2.04531 10.7393 -0.705043 63 71 136 255 
