ply
format ascii 1.0
comment VTK generated PLY File
obj_info vtkPolyData points and polygons: vtk4.0
element vertex 1157
property float x
property float y
property float z
property uchar red
property uchar green
property uchar blue
property uchar alpha
element face 0
property list uchar int vertex_indices
end_header
3.98229 -0.500677 -1.13121 71 45 123 255 
3.81477 -0.476291 -1.12636 72 31 112 255 
11.9161 -1.52802 3.60884 65 66 135 255 
10.8168 -1.37762 3.15351 71 42 122 255 
13.2737 -1.6857 3.72829 72 35 116 255 
12.8605 -1.63349 3.48092 72 24 106 255 
13.8029 -1.76263 3.61161 72 24 106 255 
15.7796 -2.01248 3.96027 72 38 119 255 
15.4139 -1.96844 3.71054 72 22 104 255 
15.4905 -1.98125 3.57669 71 19 101 255 
12.3167 -1.57067 2.73903 70 50 126 255 
11.9973 -1.53222 2.54215 72 40 120 255 
9.21392 -1.18157 1.86126 72 32 113 255 
9.21263 -1.18483 1.77188 72 31 112 255 
9.24234 -1.17861 1.69994 72 29 111 255 
9.24986 -1.18298 1.60906 72 35 116 255 
9.21596 -1.1851 1.51161 72 35 116 255 
9.25166 -1.19805 1.43086 72 28 110 255 
9.21872 -1.17723 1.34916 72 33 115 255 
9.24644 -1.18418 1.26204 72 33 115 255 
9.26249 -1.19601 1.17487 72 27 109 255 
9.25509 -1.20177 1.08809 72 29 111 255 
9.25217 -1.1815 1.01162 72 33 115 255 
9.24832 -1.18934 0.922489 72 29 111 255 
9.28929 -1.20112 0.837597 72 28 110 255 
9.25873 -1.20717 0.747964 72 20 103 255 
9.24841 -1.18266 0.67324 72 29 111 255 
9.27601 -1.19455 0.586778 72 29 111 255 
9.3343 -1.21191 0.501533 46 109 142 255 
9.35632 -1.22321 0.413632 31 149 139 255 
9.36323 -1.20066 0.339546 31 158 137 255 
9.35401 -1.20791 0.250272 31 150 139 255 
9.38067 -1.21959 0.161815 31 150 139 255 
9.36161 -1.22722 0.0741565 33 144 141 255 
9.37403 -1.20371 -0.00164951 41 123 142 255 
9.36736 -1.21296 -0.0906737 50 100 142 255 
9.38094 -1.22296 -0.178344 35 137 142 255 
9.40035 -1.23563 -0.268146 36 134 142 255 
9.39399 -1.21126 -0.344003 32 146 140 255 
9.40025 -1.22056 -0.432104 34 139 141 255 
9.38505 -1.22516 -0.520873 37 133 142 255 
9.40517 -1.23793 -0.611788 39 126 142 255 
9.40104 -1.21384 -0.687784 34 139 141 255 
9.39402 -1.22308 -0.775519 36 134 142 255 
9.47022 -1.24132 -0.872591 39 127 142 255 
9.4373 -1.24216 -0.960161 51 99 141 255 
9.14091 -1.18511 -1.00459 69 53 129 255 
8.56504 -1.11667 -1.02385 66 64 134 255 
8.02896 -1.05383 -1.03736 68 59 132 255 
7.57031 -0.999108 -1.05143 66 63 133 255 
7.18058 -0.934772 -1.05766 62 74 137 255 
6.76443 -0.884316 -1.06098 63 72 137 255 
6.45152 -0.847932 -1.07373 65 66 135 255 
6.15246 -0.811985 -1.08532 65 68 135 255 
5.85152 -0.765902 -1.08311 62 74 137 255 
5.64362 -0.740797 -1.09817 60 79 138 255 
5.38112 -0.707248 -1.10126 59 81 139 255 
5.19055 -0.684114 -1.11569 62 73 137 255 
4.9868 -0.655372 -1.11597 61 77 138 255 
4.79368 -0.630933 -1.11981 59 81 139 255 
4.60827 -0.607307 -1.12364 64 69 136 255 
4.44719 -0.584562 -1.13166 67 62 133 255 
4.26717 -0.564579 -1.12521 66 64 134 255 
4.12749 -0.546183 -1.12963 70 48 126 255 
3.97532 -0.524599 -1.13012 70 48 126 255 
3.80512 -0.498816 -1.1244 72 40 120 255 
10.3717 -1.39471 3.14364 66 65 134 255 
10.5139 -1.40466 3.06766 65 68 135 255 
13.16 -1.75338 3.6993 71 44 122 255 
12.8674 -1.71466 3.48558 72 35 116 255 
11.6265 -1.55727 3.04459 70 51 127 255 
11.1272 -1.48857 2.79488 72 38 119 255 
17.2217 -2.30678 4.14904 72 36 117 255 
18.556 -2.48915 4.28796 71 16 99 255 
11.7871 -1.57669 2.62335 68 59 132 255 
11.5686 -1.54968 2.45329 60 80 139 255 
9.26383 -1.24579 1.87285 72 32 113 255 
9.22174 -1.24357 1.77506 72 22 104 255 
9.23689 -1.23556 1.7003 72 29 111 255 
9.24535 -1.2401 1.60958 72 28 110 255 
9.21341 -1.24228 1.51241 72 27 109 255 
9.24609 -1.25506 1.43116 72 26 108 255 
9.23094 -1.2364 1.35203 72 29 111 255 
9.29203 -1.24802 1.26928 72 26 108 255 
9.25105 -1.25229 1.17437 72 23 105 255 
9.21604 -1.25425 1.08439 72 20 103 255 
9.27036 -1.24168 1.01443 72 24 106 255 
9.2586 -1.24846 0.924261 72 24 106 255 
9.28076 -1.25796 0.837508 71 17 100 255 
9.28966 -1.26922 0.751078 71 17 100 255 
9.25878 -1.24177 0.674536 72 23 105 255 
9.29818 -1.25545 0.588656 72 22 104 255 
9.35143 -1.27253 0.502863 53 95 141 255 
9.4011 -1.28778 0.415953 36 135 142 255 
9.38738 -1.26235 0.340697 33 142 141 255 
9.38407 -1.27038 0.25128 37 133 142 255 
9.39877 -1.28064 0.16226 35 138 141 255 
9.39651 -1.29049 0.0744943 34 141 141 255 
9.42197 -1.26868 -0.00165928 34 139 141 255 
9.4182 -1.27835 -0.09124 38 130 142 255 
9.39901 -1.28401 -0.178834 52 96 141 255 
9.42032 -1.29711 -0.268938 46 111 142 255 
9.42599 -1.27424 -0.345455 35 136 142 255 
9.4104 -1.28064 -0.432923 38 130 142 255 
9.42385 -1.28908 -0.523455 39 127 142 255 
9.43595 -1.30093 -0.614298 38 129 142 255 
9.42702 -1.27605 -0.690245 38 130 142 255 
9.42683 -1.28622 -0.778864 38 130 142 255 
9.47623 -1.3013 -0.873865 41 122 142 255 
9.44724 -1.30249 -0.961967 51 98 141 255 
9.14529 -1.24278 -1.00589 67 61 132 255 
8.54918 -1.16799 -1.02279 65 68 135 255 
8.03217 -1.10443 -1.03863 69 55 129 255 
7.55128 -1.04378 -1.04965 69 56 130 255 
7.1698 -0.978144 -1.05694 63 72 137 255 
6.77748 -0.928353 -1.0639 65 68 135 255 
6.44327 -0.887098 -1.07324 65 68 135 255 
6.15029 -0.850125 -1.08584 64 69 136 255 
5.83891 -0.800723 -1.08167 62 74 137 255 
5.64189 -0.775813 -1.09874 61 78 138 255 
5.38833 -0.741857 -1.10364 60 80 139 255 
5.19498 -0.717154 -1.11757 58 83 139 255 
5.00203 -0.688621 -1.12031 62 76 138 255 
4.79647 -0.661266 -1.12139 61 77 138 255 
4.61312 -0.636768 -1.12575 65 68 135 255 
4.45601 -0.613558 -1.13484 67 61 132 255 
4.28279 -0.593407 -1.13027 66 65 134 255 
4.12502 -0.571631 -1.12989 66 63 133 255 
3.97966 -0.550035 -1.13229 68 57 131 255 
3.78963 -0.520456 -1.12074 71 44 122 255 
10.3307 -1.45379 3.13386 62 74 137 255 
10.3405 -1.44612 3.0196 64 70 136 255 
10.8754 -1.51696 3.05967 68 58 131 255 
11.7997 -1.64613 3.19903 71 42 122 255 
11.5257 -1.61581 3.02073 68 59 132 255 
15.1108 -2.11595 3.79865 72 24 106 255 
15.3328 -2.14961 3.69707 71 42 122 255 
11.8316 -1.66109 2.73638 72 36 117 255 
12.4348 -1.74106 2.76983 71 42 122 255 
15.3143 -2.14716 3.25034 72 27 109 255 
9.1929 -1.29373 1.86008 72 29 111 255 
9.25576 -1.30603 1.78312 72 20 103 255 
9.23303 -1.29276 1.70102 71 19 101 255 
9.28051 -1.30284 1.61706 72 22 104 255 
9.2232 -1.30128 1.5153 72 24 106 255 
9.26073 -1.31497 1.43465 72 27 109 255 
9.26238 -1.29852 1.35778 72 20 103 255 
9.30187 -1.30749 1.27169 72 27 109 255 
9.31392 -1.31905 1.18336 72 24 106 255 
9.24554 -1.3161 1.08879 72 29 111 255 
9.30786 -1.30489 1.01939 72 20 103 255 
9.28722 -1.31039 0.927904 72 32 113 255 
9.32119 -1.32174 0.841872 72 23 105 255 
9.32018 -1.33169 0.754192 72 29 111 255 
9.35963 -1.31381 0.682459 72 24 106 255 
9.31501 -1.31597 0.590222 72 28 110 255 
9.3909 -1.33664 0.505417 42 118 142 255 
9.41576 -1.3487 0.41696 33 145 140 255 
9.41805 -1.32536 0.342098 31 156 137 255 
9.4147 -1.3334 0.252314 31 152 139 255 
9.40756 -1.34068 0.162551 31 151 139 255 
9.41712 -1.35224 0.074722 32 146 140 255 
9.43678 -1.32967 -0.0016633 31 151 139 255 
9.43691 -1.33991 -0.0914992 32 146 140 255 
9.43748 -1.34831 -0.17972 32 146 140 255 
9.42603 -1.35688 -0.269334 46 110 142 255 
9.43976 -1.33513 -0.346253 32 146 140 255 
9.4261 -1.34173 -0.434016 35 138 141 255 
9.45629 -1.35268 -0.525708 34 141 141 255 
9.4515 -1.36222 -0.615843 35 137 142 255 
9.43086 -1.33554 -0.691113 33 145 140 255 
9.43751 -1.34672 -0.780414 35 137 142 255 
9.49271 -1.36296 -0.876139 39 127 142 255 
9.444 -1.36114 -0.962469 54 92 141 255 
9.14734 -1.30027 -1.00697 66 64 134 255 
8.54381 -1.22071 -1.02302 65 66 135 255 
8.06059 -1.15877 -1.0432 68 58 131 255 
7.57316 -1.0942 -1.05361 68 59 132 255 
7.15779 -1.02128 -1.05607 63 71 136 255 
6.79904 -0.973844 -1.0682 65 66 135 255 
6.42208 -0.924368 -1.07063 65 66 135 255 
6.15178 -0.888832 -1.08704 66 64 134 255 
5.85726 -0.839885 -1.086 62 74 137 255 
5.64479 -0.811534 -1.10026 58 83 139 255 
5.39532 -0.77658 -1.10603 60 80 139 255 
5.18854 -0.748737 -1.11715 62 76 138 255 
5.02187 -0.722776 -1.12572 60 79 138 255 
4.80871 -0.693046 -1.12522 60 80 139 255 
4.59855 -0.663534 -1.12317 64 70 136 255 
4.456 -0.641441 -1.13582 66 64 134 255 
4.26471 -0.617595 -1.12648 65 66 135 255 
4.13672 -0.599144 -1.13408 63 71 136 255 
3.98859 -0.576233 -1.13582 68 58 131 255 
3.80916 -0.546973 -1.12749 70 50 126 255 
10.3178 -1.51659 3.13271 56 88 140 255 
10.686 -1.56135 3.12323 54 93 141 255 
11.026 -1.60701 3.10476 60 79 138 255 
10.6569 -1.55342 2.89173 71 16 99 255 
11.9187 -1.74555 3.12649 72 40 120 255 
16.1201 -2.35822 4.05594 72 24 106 255 
15.2798 -2.23787 3.68755 71 17 100 255 
15.2729 -2.23988 3.53539 72 20 103 255 
11.8538 -1.73393 2.64274 71 47 125 255 
12.2343 -1.79194 2.59892 72 35 116 255 
9.27113 -1.3628 1.87756 72 35 116 255 
9.27769 -1.36724 1.78893 66 64 134 255 
9.28819 -1.35864 1.71268 72 37 118 255 
9.29964 -1.36376 1.62182 72 33 115 255 
9.31269 -1.37223 1.53136 72 29 111 255 
9.29355 -1.37785 1.44101 72 32 113 255 
9.29732 -1.36163 1.3641 72 31 112 255 
9.30837 -1.3667 1.27371 72 31 112 255 
9.32823 -1.37951 1.18623 72 33 115 255 
9.29624 -1.38156 1.09574 72 33 115 255 
9.27115 -1.3578 1.01626 72 32 113 255 
9.28491 -1.36822 0.928495 72 36 117 255 
9.31389 -1.37905 0.841961 72 32 113 255 
9.33451 -1.39224 0.756029 72 36 117 255 
9.33857 -1.36934 0.681522 72 33 115 255 
9.33144 -1.37674 0.591787 72 37 118 255 
9.39437 -1.39599 0.506056 42 118 142 255 
9.41917 -1.40822 0.417486 31 156 137 255 
9.41864 -1.38443 0.342422 31 161 136 255 
9.4182 -1.3929 0.252633 31 156 137 255 
9.40707 -1.39956 0.162687 31 153 138 255 
9.41358 -1.41074 0.0747613 32 146 140 255 
9.42647 -1.38726 -0.00166295 31 149 139 255 
9.43346 -1.39852 -0.0915472 32 146 140 255 
9.42705 -1.40589 -0.179682 32 146 140 255 
9.42445 -1.41573 -0.269532 34 141 141 255 
9.43139 -1.39302 -0.346253 41 121 142 255 
9.42065 -1.39998 -0.434153 33 143 141 255 
9.4409 -1.40964 -0.525324 34 140 141 255 
9.44592 -1.42064 -0.616036 34 139 141 255 
9.44222 -1.3963 -0.69256 34 139 141 255 
9.44484 -1.40695 -0.78172 33 145 140 255 
9.49599 -1.42295 -0.877231 42 120 142 255 
9.44826 -1.42099 -0.963774 56 88 140 255 
9.15098 -1.35813 -1.00827 64 69 136 255 
8.54304 -1.27414 -1.02385 69 53 129 255 
8.06019 -1.20924 -1.04409 67 62 133 255 
7.57316 -1.14168 -1.05456 66 65 134 255 
7.13084 -1.06212 -1.05304 64 69 136 255 
6.80858 -1.01788 -1.07066 63 71 136 255 
6.42116 -0.964488 -1.07145 62 73 137 255 
6.14329 -0.926121 -1.08653 64 70 136 255 
5.87631 -0.879448 -1.09052 61 78 138 255 
5.6232 -0.843678 -1.09704 60 80 139 255 
5.39627 -0.810544 -1.10722 60 79 138 255 
5.17128 -0.778666 -1.11444 61 78 138 255 
5.01541 -0.753286 -1.12529 61 77 138 255 
4.81111 -0.723553 -1.1268 61 78 138 255 
4.59343 -0.691593 -1.12293 62 73 137 255 
4.46924 -0.671363 -1.14022 66 64 134 255 
4.26754 -0.644763 -1.12825 65 66 135 255 
4.13964 -0.625525 -1.13592 64 69 136 255 
3.97736 -0.599548 -1.13365 67 62 133 255 
3.81997 -0.572469 -1.13171 70 51 127 255 
10.3859 -1.59177 3.1563 49 104 142 255 
11.1216 -1.69476 3.25352 70 48 126 255 
10.6341 -1.61658 2.99713 56 88 140 255 
10.6777 -1.62343 2.90003 69 55 129 255 
11.9155 -1.81982 3.1285 70 50 126 255 
13.9508 -2.12838 3.51334 71 14 97 255 
14.511 -2.21631 3.50523 72 29 111 255 
17.7902 -2.72065 4.12187 71 17 100 255 
11.8623 -1.80958 2.64705 67 61 132 255 
17.5167 -2.67552 3.72446 72 24 106 255 
9.30136 -1.4256 1.88542 35 138 141 255 
9.3303 -1.43354 1.80073 32 147 140 255 
9.34679 -1.42585 1.72507 32 146 140 255 
9.35052 -1.42988 1.63219 31 151 139 255 
9.33142 -1.43354 1.53585 33 143 141 255 
9.3025 -1.43757 1.44374 44 114 142 255 
9.28977 -1.4188 1.36425 72 37 118 255 
9.30667 -1.42484 1.27465 72 35 116 255 
9.32743 -1.43793 1.18723 72 35 116 255 
9.31115 -1.44223 1.09852 72 38 119 255 
9.29704 -1.41991 1.02003 72 37 118 255 
9.26946 -1.42411 0.927806 72 33 115 255 
9.29245 -1.4342 0.840803 72 36 117 255 
9.33663 -1.45117 0.756907 72 37 118 255 
9.31717 -1.42465 0.680586 72 32 113 255 
9.29224 -1.42927 0.589846 72 38 119 255 
9.38563 -1.45361 0.506056 42 118 142 255 
9.39752 -1.46399 0.416917 31 151 139 255 
9.40009 -1.44068 0.342062 31 158 137 255 
9.40454 -1.4499 0.2525 31 152 139 255 
9.40127 -1.45771 0.162739 33 145 140 255 
9.40772 -1.46894 0.0747848 31 149 139 255 
9.41382 -1.44447 -0.00166225 31 153 138 255 
9.40889 -1.45394 -0.0913936 31 148 140 255 
9.41528 -1.46325 -0.179626 33 144 141 255 
9.39978 -1.47106 -0.269079 35 138 141 255 
9.40588 -1.44828 -0.345636 44 113 142 255 
9.40596 -1.45684 -0.43388 34 141 141 255 
9.41826 -1.4654 -0.524554 35 137 142 255 
9.43407 -1.47811 -0.615843 34 141 141 255 
9.42855 -1.45345 -0.692198 34 140 141 255 
9.43898 -1.46533 -0.781964 33 143 141 255 
9.51266 -1.48519 -0.879597 37 131 142 255 
9.45214 -1.48094 -0.965078 61 77 138 255 
9.13953 -1.41379 -1.00795 66 64 134 255 
8.54684 -1.32836 -1.02526 69 56 130 255 
8.03204 -1.25546 -1.04142 67 62 133 255 
7.5807 -1.19043 -1.05661 69 53 129 255 
7.13494 -1.10752 -1.05463 63 71 136 255 
6.81392 -1.06146 -1.0725 65 68 135 255 
6.43364 -1.00677 -1.07454 59 82 139 255 
6.12289 -0.961506 -1.08394 63 71 136 255 
5.88344 -0.917458 -1.09286 61 77 138 255 
5.62083 -0.87862 -1.0976 59 81 139 255 
5.37667 -0.841367 -1.10424 62 76 138 255 
5.1722 -0.811291 -1.11569 62 76 138 255 
5.00587 -0.783292 -1.12421 59 81 139 255 
4.80851 -0.753362 -1.12725 61 77 138 255 
4.60254 -0.721873 -1.12622 62 74 137 255 
4.45258 -0.696824 -1.13704 66 65 134 255 
4.29217 -0.675448 -1.13584 64 70 136 255 
4.12619 -0.649413 -1.1333 64 69 136 255 
3.98502 -0.625733 -1.1369 68 59 132 255 
3.84103 -0.599746 -1.13902 69 56 130 255 
10.4762 -1.67146 3.1868 57 85 140 255 
10.6195 -1.68499 3.10961 66 64 134 255 
10.6506 -1.68601 3.00464 50 101 142 255 
10.7496 -1.7019 2.92233 54 93 141 255 
13.8694 -2.20541 3.64502 72 28 110 255 
14.1752 -2.25169 3.57326 71 19 101 255 
18.8227 -2.99314 4.55108 71 46 124 255 
12.136 -1.93223 2.81451 72 41 121 255 
11.823 -1.87789 2.6408 62 73 137 255 
17.7686 -2.82568 3.78164 72 31 112 255 
9.32148 -1.48728 1.89132 34 140 141 255 
9.33393 -1.49278 1.80317 35 138 141 255 
9.34466 -1.48425 1.72633 34 141 141 255 
9.35227 -1.48893 1.63406 32 146 140 255 
9.33999 -1.49358 1.53875 31 148 140 255 
9.34328 -1.50262 1.45147 32 147 140 255 
9.35908 -1.48821 1.37574 31 154 138 255 
9.34081 -1.48878 1.28055 34 140 141 255 
9.33803 -1.49828 1.18972 45 113 142 255 
9.34331 -1.50597 1.10338 49 104 142 255 
9.35001 -1.48677 1.02683 50 101 142 255 
9.30182 -1.48756 0.931941 72 32 113 255 
9.30217 -1.49419 0.842496 72 31 112 255 
9.33148 -1.50907 0.757227 72 28 110 255 
9.31219 -1.48242 0.680874 72 32 113 255 
9.30497 -1.48973 0.591223 72 33 115 255 
9.39329 -1.51387 0.50696 43 117 142 255 
9.39723 -1.52306 0.417311 33 145 140 255 
9.39403 -1.49881 0.34217 30 155 138 255 
9.39744 -1.5079 0.252553 31 150 139 255 
9.41978 -1.51983 0.163218 33 145 140 255 
9.41333 -1.52904 0.0749027 34 141 141 255 
9.40676 -1.50252 -0.0016626 32 147 140 255 
9.40374 -1.51228 -0.091432 34 139 141 255 
9.42587 -1.52419 -0.180003 36 134 142 255 
9.39551 -1.52951 -0.269221 37 131 142 255 
9.40471 -1.50723 -0.345926 32 146 140 255 
9.40967 -1.5166 -0.434472 52 97 141 255 
9.415 -1.52412 -0.524884 39 127 142 255 
9.44452 -1.53918 -0.61713 39 128 142 255 
9.4421 -1.51491 -0.693863 35 137 142 255 
9.4554 -1.52735 -0.784086 37 132 142 255 
9.52008 -1.54624 -0.881143 39 127 142 255 
9.5342 -1.55379 -0.974412 57 86 140 255 
9.11989 -1.46811 -1.00675 62 74 137 255 
8.5395 -1.38094 -1.02538 67 61 132 255 
8.02027 -1.30408 -1.04091 67 62 133 255 
7.58107 -1.2382 -1.0577 67 62 133 255 
7.13192 -1.15191 -1.05521 67 61 132 255 
6.81703 -1.10483 -1.07404 62 74 137 255 
6.43806 -1.04797 -1.07633 62 74 137 255 
6.11299 -0.998423 -1.08325 65 66 135 255 
5.88352 -0.954486 -1.09395 62 76 138 255 
5.62115 -0.914038 -1.09874 59 81 139 255 
5.36947 -0.874027 -1.10384 62 73 137 255 
5.17581 -0.844429 -1.11757 62 76 138 255 
5.0106 -0.815561 -1.12637 60 79 138 255 
4.78168 -0.779248 -1.12206 62 76 138 255 
4.59994 -0.750414 -1.12669 63 72 137 255 
4.43769 -0.722418 -1.13435 65 68 135 255 
4.29654 -0.703177 -1.13811 65 68 135 255 
4.1307 -0.676121 -1.13565 64 69 136 255 
3.98681 -0.651104 -1.13853 67 61 132 255 
3.82781 -0.621764 -1.1362 68 59 132 255 
10.6197 -1.76125 3.23369 65 66 135 255 
10.5521 -1.74074 3.09294 72 35 116 255 
10.6714 -1.75649 3.0135 63 71 136 255 
10.7609 -1.77144 2.9283 65 66 135 255 
13.9578 -2.30737 3.6719 72 31 112 255 
10.5708 -1.74571 2.66732 72 32 113 255 
18.8097 -3.10953 4.55247 71 46 124 255 
12.7182 -2.10503 2.95248 71 44 122 255 
18.5748 -3.06728 4.15303 72 36 117 255 
17.9479 -2.96722 3.82361 72 22 104 255 
9.32959 -1.54734 1.89485 37 132 142 255 
9.35464 -1.55502 1.80898 34 140 141 255 
9.348 -1.54364 1.72866 34 139 141 255 
9.35171 -1.54774 1.63559 35 137 142 255 
9.35304 -1.55458 1.54244 34 140 141 255 
9.34655 -1.56204 1.45345 36 135 142 255 
9.35856 -1.54706 1.37703 33 144 141 255 
9.36376 -1.55141 1.28498 36 135 142 255 
9.38444 -1.56485 1.19684 43 117 142 255 
9.37308 -1.56983 1.10801 37 133 142 255 
9.37602 -1.54995 1.03071 50 100 142 255 
9.35927 -1.5557 0.938635 64 69 136 255 
9.31542 -1.55501 0.844544 72 27 109 255 
9.33778 -1.56894 0.758504 72 20 103 255 
9.29899 -1.53888 0.680586 71 17 100 255 
9.29763 -1.54712 0.591349 72 22 104 255 
9.41239 -1.57626 0.508503 48 106 142 255 
9.42022 -1.58617 0.418756 33 144 141 255 
9.41522 -1.56149 0.343285 33 143 141 255 
9.42844 -1.57227 0.253641 35 136 142 255 
9.43099 -1.58107 0.163577 34 140 141 255 
9.4373 -1.59243 0.0751697 33 145 140 255 
9.42597 -1.56496 -0.00166766 37 133 142 255 
9.43866 -1.57736 -0.091864 35 138 141 255 
9.44986 -1.58763 -0.180643 36 134 142 255 
9.44213 -1.59663 -0.270832 36 134 142 255 
9.43866 -1.57214 -0.347523 36 135 142 255 
9.4593 -1.58421 -0.437204 42 119 142 255 
9.46652 -1.59212 -0.528291 41 123 142 255 
9.48016 -1.60476 -0.620091 35 136 142 255 
9.47395 -1.57971 -0.696902 38 130 142 255 
9.47435 -1.59013 -0.786452 37 132 142 255 
9.55068 -1.61142 -0.884873 37 133 142 255 
9.58236 -1.62206 -0.980333 61 77 138 255 
9.06365 -1.51617 -1.00155 67 62 133 255 
8.54164 -1.43512 -1.02667 66 64 134 255 
8.04439 -1.35872 -1.04511 67 61 132 255 
7.5704 -1.2842 -1.05729 67 62 133 255 
7.14326 -1.19876 -1.05795 63 71 136 255 
6.81792 -1.14795 -1.07527 62 73 137 255 
6.43248 -1.08762 -1.0765 60 79 138 255 
6.10966 -1.03641 -1.08377 64 69 136 255 
5.88725 -0.992203 -1.09575 62 76 138 255 
5.60382 -0.946549 -1.09647 60 79 138 255 
5.42102 -0.916597 -1.11558 59 82 139 255 
5.16764 -0.875681 -1.11694 63 71 136 255 
5.00069 -0.845476 -1.12529 60 80 139 255 
4.77585 -0.808411 -1.12184 62 73 137 255 
4.60579 -0.78041 -1.12928 61 77 138 255 
4.43127 -0.74931 -1.13386 64 70 136 255 
4.27688 -0.726933 -1.13407 65 66 135 255 
4.12933 -0.701939 -1.13644 63 72 137 255 
3.98558 -0.676037 -1.13934 65 66 135 255 
3.83812 -0.647635 -1.14042 65 66 135 255 
10.4634 -1.80136 3.18939 61 77 138 255 
10.5185 -1.80156 3.08628 63 72 137 255 
10.9785 -1.8763 3.10342 64 69 136 255 
10.7108 -1.83076 2.91766 58 84 140 255 
10.656 -1.82878 2.80618 71 45 123 255 
10.5847 -1.8148 2.6736 62 76 138 255 
18.4595 -3.16812 4.47234 72 20 103 255 
12.6935 -2.18105 2.9498 72 41 121 255 
12.0647 -2.06838 2.70025 72 37 118 255 
17.884 -3.06951 3.81394 71 19 101 255 
9.33442 -1.60705 1.8978 37 132 142 255 
9.36912 -1.61656 1.81366 33 144 141 255 
9.3752 -1.60729 1.73548 33 142 141 255 
9.37312 -1.61043 1.64103 33 145 140 255 
9.38321 -1.61882 1.54902 31 148 140 255 
9.38062 -1.62696 1.46027 31 148 140 255 
9.39571 -1.61249 1.38393 31 150 139 255 
9.39215 -1.61539 1.29021 39 126 142 255 
9.40204 -1.62714 1.20033 31 151 139 255 
9.41513 -1.63633 1.11415 31 150 139 255 
9.42708 -1.61788 1.03739 44 114 142 255 
9.41525 -1.62444 0.945232 31 150 139 255 
9.39501 -1.62761 0.852649 33 145 140 255 
9.3594 -1.63168 0.76106 51 99 141 255 
9.34147 -1.60486 0.684403 72 31 112 255 
9.35188 -1.61518 0.595419 72 33 115 255 
9.41336 -1.63587 0.509088 46 111 142 255 
9.42015 -1.64566 0.419194 32 146 140 255 
9.44092 -1.62533 0.344579 31 156 137 255 
9.44226 -1.63419 0.254277 31 152 139 255 
9.43589 -1.64148 0.163833 31 153 138 255 
9.44212 -1.65289 0.0752875 32 146 140 255 
9.45364 -1.62922 -0.00167429 31 150 139 255 
9.45442 -1.63969 -0.0921136 32 146 140 255 
9.4557 -1.64833 -0.180945 33 142 141 255 
9.44496 -1.65678 -0.2712 35 138 141 255 
9.47216 -1.63751 -0.34912 33 145 140 255 
9.47499 -1.64666 -0.438388 31 152 139 255 
9.46739 -1.65207 -0.528895 47 108 142 255 
9.47702 -1.66411 -0.620541 33 142 141 255 
9.48767 -1.64189 -0.698639 32 146 140 255 
9.49485 -1.65353 -0.788981 32 146 140 255 
9.54257 -1.67033 -0.885055 35 138 141 255 
9.63299 -1.69149 -0.986556 58 84 140 255 
9.06005 -1.57277 -1.0022 70 51 127 255 
8.55909 -1.49211 -1.02985 63 71 136 255 
8.03786 -1.40839 -1.04536 66 65 134 255 
7.56628 -1.33131 -1.05784 67 62 133 255 
7.16404 -1.24749 -1.06214 60 79 138 255 
6.82827 -1.19283 -1.07804 60 80 139 255 
6.42666 -1.12724 -1.07666 59 81 139 255 
6.11192 -1.07541 -1.08532 65 68 135 255 
5.89074 -1.03 -1.09756 60 80 139 255 
5.57179 -0.97634 -1.09135 59 81 139 255 
5.41529 -0.949842 -1.11558 61 78 138 255 
5.14772 -0.904833 -1.11382 60 79 138 255 
4.98579 -0.874457 -1.12312 60 79 138 255 
4.78807 -0.840732 -1.1259 62 76 138 255 
4.599 -0.80832 -1.12881 61 78 138 255 
4.4008 -0.771962 -1.12726 64 70 136 255 
4.26662 -0.752154 -1.13255 65 66 135 255 
4.14301 -0.730447 -1.14141 63 71 136 255 
3.97378 -0.699145 -1.13717 63 71 136 255 
3.85392 -0.674648 -1.14633 66 63 133 255 
10.4408 -1.86351 3.18593 61 78 138 255 
10.5101 -1.86657 3.08711 58 84 140 255 
11.0436 -1.95725 3.12516 59 81 139 255 
12.471 -2.21047 3.40078 72 27 109 255 
10.7008 -1.90413 2.821 56 89 140 255 
10.5581 -1.877 2.66974 62 74 137 255 
18.1065 -3.22203 4.39152 72 20 103 255 
13.9409 -2.48353 3.24315 72 28 110 255 
12.0527 -2.14254 2.70047 72 20 103 255 
17.4428 -3.10408 3.72384 72 31 112 255 
9.33886 -1.66688 1.90075 42 118 142 255 
9.37643 -1.67713 1.81704 31 149 139 255 
9.39131 -1.66943 1.74033 32 147 140 255 
9.39507 -1.67362 1.64664 31 156 137 255 
9.3935 -1.68002 1.55239 30 155 138 255 
9.40062 -1.68991 1.46497 31 159 136 255 
9.4061 -1.67375 1.38695 31 159 136 255 
9.39963 -1.67612 1.29262 35 138 141 255 
9.39969 -1.6862 1.20133 30 155 138 255 
9.40198 -1.69354 1.1138 32 146 140 255 
9.41306 -1.67499 1.03696 41 121 142 255 
9.42274 -1.68533 0.947004 30 157 137 255 
9.40739 -1.68928 0.854698 31 152 139 255 
9.39041 -1.69653 0.764413 32 146 140 255 
9.39134 -1.67282 0.688796 50 101 142 255 
9.36636 -1.67693 0.596984 72 37 118 255 
9.42084 -1.69678 0.510046 42 120 142 255 
9.41086 -1.70361 0.419238 31 149 139 255 
9.44257 -1.68534 0.34501 31 158 137 255 
9.43795 -1.69315 0.254436 31 148 140 255 
9.44335 -1.70254 0.164141 31 151 139 255 
9.4318 -1.71079 0.0752875 32 146 140 255 
9.45232 -1.68878 -0.00167587 31 151 139 255 
9.44123 -1.69714 -0.0920848 33 145 140 255 
9.44147 -1.7056 -0.18087 33 144 141 255 
9.45428 -1.71828 -0.271765 33 144 141 255 
9.46882 -1.69683 -0.349374 31 150 139 255 
9.46078 -1.70406 -0.438206 32 146 140 255 
9.46003 -1.71066 -0.52906 47 108 142 255 
9.46074 -1.72115 -0.620155 35 136 142 255 
9.4833 -1.70113 -0.699073 31 152 139 255 
9.48159 -1.71123 -0.788736 34 140 141 255 
9.5488 -1.73188 -0.886602 34 140 141 255 
9.6469 -1.75502 -0.989065 61 78 138 255 
9.12459 -1.64171 -1.01044 72 41 121 255 
8.55661 -1.54583 -1.03068 67 62 133 255 
8.03883 -1.45946 -1.04663 66 65 134 255 
7.57454 -1.38073 -1.06016 67 62 133 255 
7.17183 -1.29424 -1.06446 62 73 137 255 
6.83638 -1.23752 -1.08049 60 79 138 255 
6.44292 -1.17088 -1.08057 61 77 138 255 
6.09649 -1.1113 -1.08377 65 66 135 255 
5.86496 -1.06262 -1.09395 61 78 138 255 
5.60144 -1.017 -1.09836 58 84 140 255 
5.41129 -0.983402 -1.11597 59 82 139 255 
5.14207 -0.936401 -1.11382 62 76 138 255 
4.97745 -0.904509 -1.12247 59 82 139 255 
4.79432 -0.872188 -1.12861 61 78 138 255 
4.59587 -0.836872 -1.12928 62 76 138 255 
4.40552 -0.800684 -1.1297 65 66 135 255 
4.27145 -0.780058 -1.13508 63 71 136 255 
4.1337 -0.754987 -1.14011 61 78 138 255 
3.9893 -0.727139 -1.14287 64 69 136 255 
3.83649 -0.695884 -1.14239 65 66 135 255 
10.4311 -1.92788 3.18651 64 69 136 255 
16.9721 -3.12175 4.99072 72 37 118 255 
11.6103 -2.13124 3.28916 71 44 122 255 
11.4892 -2.10924 3.13653 72 38 119 255 
10.6917 -1.97028 2.82176 69 53 129 255 
10.4853 -1.9305 2.65427 56 88 140 255 
13.8852 -2.55885 3.37145 71 47 125 255 
10.7064 -1.97518 2.49348 72 27 109 255 
19.0914 -3.51474 4.28228 71 45 123 255 
17.3802 -3.20307 3.71459 72 23 105 255 
9.28314 -1.71578 1.89151 66 64 134 255 
9.38238 -1.73767 1.82022 33 145 140 255 
9.3954 -1.7297 1.74302 30 155 138 255 
9.38754 -1.73177 1.64715 31 149 139 255 
9.38399 -1.7378 1.55255 31 151 139 255 
9.3959 -1.74865 1.46588 31 154 138 255 
9.40441 -1.73305 1.38824 31 151 139 255 
9.40086 -1.73592 1.29423 31 150 139 255 
9.38234 -1.74258 1.20046 31 151 139 255 
9.39141 -1.7512 1.1138 32 147 140 255 
9.39674 -1.73164 1.03631 42 119 142 255 
9.40928 -1.74257 0.946708 31 152 139 255 
9.40273 -1.74806 0.855232 32 147 140 255 
9.40138 -1.75814 0.76617 32 147 140 255 
9.40739 -1.73529 0.690741 31 152 139 255 
9.39416 -1.74147 0.599426 31 148 140 255 
9.41025 -1.75456 0.510046 40 124 142 255 
9.40121 -1.7615 0.419281 31 149 139 255 
9.42911 -1.7427 0.344902 31 153 138 255 
9.4323 -1.75194 0.254569 31 151 139 255 
9.43371 -1.76063 0.164158 31 150 139 255 
9.42702 -1.76974 0.0753346 32 147 140 255 
9.44473 -1.74729 -0.00167639 31 152 139 255 
9.43556 -1.75595 -0.0921328 34 140 141 255 
9.43968 -1.76516 -0.181039 33 143 141 255 
9.45928 -1.77921 -0.272217 34 141 141 255 
9.46806 -1.75672 -0.349737 31 156 137 255 
9.45407 -1.76281 -0.438388 33 145 140 255 
9.46211 -1.77106 -0.529775 35 136 142 255 
9.45686 -1.78046 -0.620606 41 123 142 255 
9.46778 -1.75838 -0.698712 32 147 140 255 
9.47875 -1.77084 -0.789389 34 139 141 255 
9.53995 -1.7908 -0.886784 35 136 142 255 
9.68973 -1.8243 -0.994585 64 69 136 255 
9.19839 -1.71332 -1.01976 70 51 127 255 
8.53721 -1.59648 -1.0295 66 65 134 255 
8.01705 -1.50638 -1.04498 66 64 134 255 
7.56398 -1.42682 -1.05988 69 55 129 255 
7.17153 -1.33967 -1.06561 62 73 137 255 
6.82768 -1.27926 -1.08034 62 73 137 255 
6.43949 -1.21112 -1.08122 62 76 138 255 
6.11859 -1.15417 -1.08894 64 70 136 255 
5.87186 -1.10113 -1.09647 59 81 139 255 
5.58351 -1.04917 -1.09609 59 82 139 255 
5.36567 -1.00916 -1.10782 59 81 139 255 
5.15161 -0.970833 -1.11715 59 81 139 255 
4.97373 -0.935394 -1.12291 58 84 140 255 
4.79175 -0.902129 -1.12928 59 81 139 255 
4.60402 -0.867576 -1.13257 61 77 138 255 
4.41958 -0.831286 -1.1346 65 68 135 255 
4.26563 -0.806073 -1.13482 62 73 137 255 
4.14132 -0.782667 -1.14351 61 77 138 255 
3.99233 -0.75303 -1.14504 64 70 136 255 
3.83498 -0.719943 -1.14323 66 65 134 255 
10.5611 -2.01901 3.22995 57 85 140 255 
11.1998 -2.13116 3.29714 69 56 130 255 
11.9974 -2.27847 3.4027 72 28 110 255 
11.2389 -2.13465 3.0717 64 69 136 255 
10.9276 -2.08316 2.88733 70 52 128 255 
10.6535 -2.02912 2.69993 61 78 138 255 
17.6872 -3.37185 4.29955 71 45 123 255 
10.7315 -2.04796 2.50219 72 31 112 255 
14.0036 -2.667 3.14466 72 28 110 255 
12.1095 -2.30864 2.5911 71 17 100 255 
9.23488 -1.76552 1.88385 72 29 111 255 
9.36575 -1.7941 1.8191 32 146 140 255 
9.38751 -1.78787 1.74356 31 152 139 255 
9.38254 -1.79044 1.64817 31 152 139 255 
9.37896 -1.79646 1.55352 31 154 138 255 
9.39179 -1.80757 1.46694 31 153 138 255 
9.39943 -1.79183 1.3891 36 135 142 255 
9.39392 -1.79432 1.29477 31 152 139 255 
9.38121 -1.80198 1.20171 31 148 140 255 
9.39805 -1.81218 1.11589 33 143 141 255 
9.39668 -1.79131 1.0375 44 115 142 255 
9.40037 -1.80065 0.946905 31 149 139 255 
9.41725 -1.81061 0.857548 32 146 140 255 
9.42565 -1.82261 0.769045 34 140 141 255 
9.41224 -1.79598 0.691893 32 146 140 255 
9.41761 -1.80565 0.601618 31 149 139 255 
9.4199 -1.81623 0.511164 47 107 142 255 
9.42259 -1.82543 0.420727 35 137 142 255 
9.42805 -1.8024 0.345262 31 148 140 255 
9.44297 -1.81393 0.255153 34 141 141 255 
9.44825 -1.82341 0.164603 35 138 141 255 
9.4582 -1.83574 0.0756723 34 139 141 255 
9.45446 -1.80916 -0.00168005 34 140 141 255 
9.44326 -1.81741 -0.0923152 38 130 142 255 
9.45223 -1.8276 -0.181492 38 130 142 255 
9.47075 -1.84161 -0.272868 39 126 142 255 
9.46593 -1.81648 -0.350064 36 134 142 255 
9.46858 -1.82571 -0.439572 39 128 142 255 
9.46283 -1.83136 -0.530434 42 120 142 255 
9.45262 -1.83979 -0.621056 57 85 140 255 
9.47543 -1.82002 -0.700087 41 121 142 255 
9.49119 -1.8335 -0.791347 41 122 142 255 
9.54345 -1.85215 -0.888149 35 137 142 255 
9.72914 -1.89361 -0.999803 66 64 134 255 
9.20625 -1.7733 -1.02181 68 59 132 255 
8.55065 -1.65336 -1.03232 69 55 129 255 
8.04563 -1.56292 -1.04993 67 62 133 255 
7.56869 -1.47585 -1.06179 70 52 128 255 
7.15929 -1.3829 -1.06503 62 76 138 255 
6.81971 -1.32113 -1.08034 63 71 136 255 
6.46584 -1.2572 -1.08692 61 77 138 255 
6.12783 -1.19489 -1.09187 62 76 138 255 
5.86982 -1.13807 -1.09738 58 83 139 255 
5.61649 -1.09109 -1.10386 59 82 139 255 
5.38823 -1.04768 -1.11379 58 83 139 255 
5.15611 -1.00448 -1.11944 60 79 138 255 
4.97269 -0.966827 -1.12399 56 88 140 255 
4.78613 -0.931514 -1.12928 57 85 140 255 
4.59861 -0.895809 -1.13257 59 82 139 255 
4.45247 -0.865791 -1.14438 65 66 135 255 
4.2663 -0.833344 -1.13634 62 76 138 255 
4.14023 -0.808803 -1.14456 58 83 139 255 
3.99424 -0.778802 -1.14694 64 70 136 255 
3.83897 -0.745106 -1.14576 64 70 136 255 
10.6443 -2.1027 3.25929 49 104 142 255 
18.2012 -3.57928 5.36466 71 19 101 255 
10.3185 -2.02531 2.93002 54 93 141 255 
10.7621 -2.1126 2.94489 72 36 117 255 
10.6003 -2.08824 2.80417 69 56 130 255 
10.4228 -2.05153 2.64461 62 76 138 255 
13.1313 -2.58692 3.19586 72 33 115 255 
10.6986 -2.10981 2.4975 64 70 136 255 
13.9208 -2.73986 3.1298 72 32 113 255 
30.0108 -5.91251 6.4291 71 16 99 255 
12.3771 -2.44506 2.52785 70 50 126 255 
9.36228 -1.85306 1.8206 39 128 142 255 
9.39374 -1.84885 1.74679 37 133 142 255 
9.40135 -1.85389 1.65344 34 139 141 255 
9.38132 -1.85666 1.55577 34 139 141 255 
9.40476 -1.86999 1.47073 35 138 141 255 
9.40088 -1.85196 1.39097 41 122 142 255 
9.40121 -1.85557 1.29732 35 137 142 255 
9.40112 -1.86569 1.2057 34 139 141 255 
9.41792 -1.87602 1.11959 37 133 142 255 
9.41478 -1.8547 1.04074 44 113 142 255 
9.42038 -1.86448 0.950056 34 140 141 255 
9.44211 -1.87554 0.860844 35 137 142 255 
9.44263 -1.88607 0.77136 33 144 141 255 
9.43725 -1.86083 0.694558 35 138 141 255 
9.45139 -1.87233 0.604498 31 149 139 255 
9.44873 -1.882 0.513345 46 111 142 255 
9.45432 -1.89183 0.422654 31 150 139 255 
9.46878 -1.87048 0.347167 32 147 140 255 
9.47873 -1.88118 0.256426 31 152 139 255 
9.4712 -1.88819 0.165202 31 151 139 255 
9.47617 -1.89964 0.075908 31 153 138 255 
9.4785 -1.87412 -0.00168634 32 146 140 255 
9.47803 -1.88448 -0.0927663 32 147 140 255 
9.48201 -1.89379 -0.182283 32 146 140 255 
9.48769 -1.90539 -0.273687 33 142 141 255 
9.48794 -1.88114 -0.351298 31 148 140 255 
9.48561 -1.88943 -0.440893 33 142 141 255 
9.48079 -1.89526 -0.532083 35 137 142 255 
9.48224 -1.90601 -0.623759 48 105 142 255 
9.51202 -1.88763 -0.703633 32 146 140 255 
9.48953 -1.89365 -0.792163 35 137 142 255 
9.5485 -1.914 -0.889695 36 135 142 255 
9.72124 -1.95405 -1.0002 65 68 135 255 
9.2381 -1.8383 -1.02658 65 66 135 255 
8.55398 -1.70852 -1.03397 69 55 129 255 
8.04269 -1.61362 -1.05082 67 62 133 255 
7.57795 -1.52598 -1.06439 69 56 130 255 
7.15552 -1.42777 -1.06576 62 74 137 255 
6.80856 -1.36237 -1.07988 62 73 137 255 
6.42898 -1.29102 -1.08203 62 73 137 255 
6.11652 -1.23169 -1.09118 63 71 136 255 
5.8608 -1.17368 -1.09701 57 86 140 255 
5.60776 -1.12515 -1.10348 62 76 138 255 
5.38651 -1.08168 -1.11478 59 82 139 255 
5.17286 -1.04073 -1.12445 58 83 139 255 
4.96475 -0.996936 -1.12356 58 83 139 255 
4.78032 -0.960864 -1.12928 59 81 139 255 
4.57969 -0.921325 -1.12928 59 81 139 255 
4.42901 -0.889467 -1.13973 65 66 135 255 
4.27344 -0.861992 -1.13963 63 72 137 255 
4.1087 -0.828848 -1.13722 60 79 138 255 
3.98845 -0.803105 -1.14667 63 71 136 255 
3.84185 -0.770156 -1.14801 66 65 134 255 
10.7598 -2.19419 3.29871 51 99 141 255 
18.1629 -3.68764 5.35994 71 46 124 255 
10.2842 -2.08418 2.92385 72 40 120 255 
10.5701 -2.14233 2.89588 72 28 110 255 
10.206 -2.0757 2.70318 54 92 141 255 
10.3339 -2.09998 2.62528 72 40 120 255 
10.2958 -2.09402 2.50884 65 66 135 255 
10.4467 -2.1268 2.44169 64 69 136 255 
12.2798 -2.49524 2.76423 70 10 93 255 
30.1293 -6.12814 6.46243 72 20 103 255 
12.3503 -2.5186 2.52549 72 28 110 255 
9.39115 -1.91873 1.82847 33 143 141 255 
9.40632 -1.91135 1.75127 33 143 141 255 
9.41008 -1.91567 1.65702 33 145 140 255 
9.4123 -1.92288 1.56283 31 152 139 255 
9.42119 -1.93342 1.47513 31 148 140 255 
9.41359 -1.91454 1.39456 31 148 140 255 
9.42169 -1.91975 1.30175 31 148 140 255 
9.42254 -1.93011 1.20994 31 151 139 255 
9.42861 -1.93837 1.12226 39 127 142 255 
9.43537 -1.91897 1.04429 40 125 142 255 
9.42827 -1.92623 0.952025 31 150 139 255 
9.44214 -1.93584 0.861912 31 149 139 255 
9.44846 -1.9476 0.772798 31 149 139 255 
9.45204 -1.92408 0.696502 31 153 138 255 
9.45145 -1.93268 0.605249 30 157 137 255 
9.45265 -1.94315 0.514196 43 117 142 255 
9.4621 -1.95385 0.423529 31 149 139 255 
9.47279 -1.93174 0.347742 30 155 138 255 
9.46505 -1.93891 0.256373 30 155 138 255 
9.47805 -1.9501 0.165527 31 156 137 255 
9.46727 -1.95836 0.0759315 31 151 139 255 
9.47564 -1.93404 -0.00168791 31 153 138 255 
9.48196 -1.94582 -0.0929199 31 153 138 255 
9.47511 -1.95294 -0.182378 31 149 139 255 
9.48561 -1.9656 -0.27397 34 141 141 255 
9.49873 -1.94393 -0.352133 31 156 137 255 
9.4846 -1.94981 -0.441393 33 143 141 255 
9.48952 -1.95764 -0.533237 36 135 142 255 
9.48796 -1.96781 -0.624918 50 101 142 255 
9.50612 -1.94716 -0.704067 33 144 141 255 
9.50702 -1.95788 -0.794611 33 143 141 255 
9.56486 -1.9784 -0.892334 35 136 142 255 
9.70322 -2.01245 -0.999603 64 69 136 255 
9.21106 -1.89175 -1.02485 65 66 135 255 
8.56765 -1.76598 -1.03691 70 50 126 255 
8.04235 -1.66495 -1.05209 68 57 131 255 
7.5665 -1.57205 -1.06411 69 56 130 255 
7.17764 -1.47804 -1.07038 64 70 136 255 
6.77395 -1.39872 -1.07573 65 66 135 255 
6.43543 -1.33345 -1.08447 63 72 137 255 
6.12139 -1.27181 -1.09342 58 83 139 255 
5.84674 -1.20822 -1.09575 58 83 139 255 
5.60364 -1.16013 -1.10405 58 83 139 255 
5.38937 -1.1167 -1.11677 59 82 139 255 
5.17213 -1.07364 -1.1257 58 83 139 255 
4.96905 -1.02956 -1.12594 58 84 140 255 
4.77815 -0.990968 -1.13019 59 82 139 255 
4.5768 -0.950001 -1.12998 59 82 139 255 
4.43296 -0.918594 -1.14218 64 69 136 255 
4.27375 -0.88938 -1.14115 60 80 139 255 
4.11582 -0.856599 -1.14063 62 73 137 255 
3.97402 -0.825605 -1.14396 65 68 135 255 
3.84833 -0.796048 -1.15139 64 69 136 255 
10.6993 -2.25031 3.28432 62 76 138 255 
10.4629 -2.19124 3.09156 60 79 138 255 
10.2552 -2.1439 2.91929 50 101 142 255 
10.3941 -2.17315 2.85128 55 91 141 255 
10.1713 -2.13371 2.6974 57 86 140 255 
10.1993 -2.13787 2.59436 55 90 140 255 
10.1962 -2.13898 2.48771 52 97 141 255 
11.0649 -2.32347 2.58948 72 37 118 255 
30.3098 -6.35283 6.83152 71 14 97 255 
30.344 -6.36594 6.51673 72 20 103 255 
12.6983 -2.67082 2.59995 71 16 99 255 
9.39266 -1.97915 1.83109 34 140 141 255 
9.41463 -1.97327 1.75504 31 148 140 255 
9.41261 -1.97641 1.65957 31 149 139 255 
9.42254 -1.98528 1.56652 31 154 138 255 
9.41592 -1.99262 1.47619 31 151 139 255 
9.42394 -1.97694 1.39786 31 161 136 255 
9.43592 -1.98302 1.30537 34 139 141 255 
9.41538 -1.98892 1.21057 31 151 139 255 
9.42432 -1.99783 1.12318 33 143 141 255 
9.44385 -1.98111 1.04656 36 134 142 255 
9.43477 -1.98794 0.953895 31 160 136 255 
9.43885 -1.9956 0.862714 31 153 138 255 
9.43633 -2.00553 0.772798 31 148 140 255 
9.46446 -1.98716 0.698303 31 158 137 255 
9.44528 -1.99188 0.605625 31 159 136 255 
9.44934 -2.00298 0.514675 42 118 142 255 
9.45286 -2.01249 0.423661 31 148 140 255 
9.46565 -1.99085 0.347922 31 159 136 255 
9.45786 -1.99798 0.256505 31 152 139 255 
9.45808 -2.00656 0.16539 31 151 139 255 
9.45704 -2.01683 0.0759472 31 153 138 255 
9.46849 -1.99317 -0.00168878 31 154 138 255 
9.46886 -2.00375 -0.0929103 32 146 140 255 
9.46393 -2.01125 -0.182396 32 146 140 255 
9.47728 -2.0246 -0.274083 35 138 141 255 
9.48174 -2.00114 -0.351951 31 149 139 255 
9.47637 -2.0088 -0.441576 33 145 140 255 
9.4744 -2.0152 -0.533072 36 134 142 255 
9.48741 -2.02849 -0.62569 37 131 142 255 
9.49497 -2.00566 -0.704139 34 140 141 255 
9.51043 -2.01949 -0.795916 37 133 142 255 
9.56618 -2.03996 -0.893608 38 130 142 255 
9.80452 -2.09629 -1.01135 63 72 137 255 
9.18956 -1.94617 -1.02376 68 58 131 255 
8.56539 -1.82038 -1.03797 70 51 127 255 
8.02811 -1.71344 -1.05159 69 56 130 255 
7.54121 -1.61513 -1.06193 69 53 129 255 
7.18005 -1.52452 -1.07212 62 73 137 255 
6.79713 -1.44705 -1.0808 62 74 137 255 
6.42616 -1.37271 -1.08431 60 79 138 255 
6.12599 -1.31202 -1.09566 61 77 138 255 
5.84595 -1.24551 -1.09701 60 80 139 255 
5.56088 -1.18691 -1.09704 56 88 140 255 
5.38145 -1.14954 -1.11657 59 81 139 255 
5.1664 -1.10556 -1.12591 62 73 137 255 
4.95882 -1.05921 -1.12507 57 85 140 255 
4.79104 -1.02434 -1.1347 55 90 140 255 
4.57089 -0.978065 -1.12998 60 80 139 255 
4.41018 -0.942131 -1.13778 66 65 134 255 
4.25591 -0.912949 -1.13786 61 77 138 255 
4.12935 -0.885886 -1.14587 60 80 139 255 
3.98958 -0.854408 -1.14992 62 73 137 255 
3.83305 -0.817444 -1.1483 65 68 135 255 
10.3081 -2.23417 3.16838 54 93 141 255 
10.2718 -2.21709 3.03905 53 95 141 255 
10.127 -2.18203 2.88654 48 106 142 255 
10.2295 -2.20434 2.80978 59 81 139 255 
10.0936 -2.18217 2.68032 64 69 136 255 
10.1878 -2.20082 2.59485 64 69 136 255 
10.1743 -2.19966 2.48562 55 91 141 255 
13.3856 -2.89663 3.13666 71 16 99 255 
13.3555 -2.88491 3.01412 72 24 106 255 
12.0272 -2.60037 2.58637 71 16 99 255 
12.9317 -2.8029 2.65122 72 23 105 255 
9.39474 -2.03987 1.8339 38 130 142 255 
9.40139 -2.03079 1.75486 33 145 140 255 
9.39645 -2.03329 1.65889 31 149 139 255 
9.40246 -2.04138 1.56524 32 147 140 255 
9.418 -2.05352 1.47846 31 152 139 255 
9.41937 -2.0364 1.39901 31 154 138 255 
9.42648 -2.04151 1.30577 40 125 142 255 
9.40881 -2.04792 1.21132 31 148 140 255 
9.42061 -2.05753 1.12423 37 132 142 255 
9.4218 -2.03692 1.04548 39 127 142 255 
9.43309 -2.04812 0.954978 31 151 139 255 
9.42254 -2.05263 0.862358 31 148 140 255 
9.42871 -2.06446 0.773197 33 145 140 255 
9.44819 -2.04435 0.698015 31 153 138 255 
9.44165 -2.0517 0.606189 31 160 136 255 
9.44566 -2.06284 0.515154 46 109 142 255 
9.45205 -2.07303 0.424186 33 145 140 255 
9.46497 -2.05144 0.348353 31 153 138 255 
9.45129 -2.05725 0.256665 32 146 140 255 
9.45926 -2.06754 0.165629 33 143 141 255 
9.46402 -2.07911 0.0761043 33 144 141 255 
9.47758 -2.0559 -0.00169262 31 153 138 255 
9.47691 -2.06629 -0.0931119 32 146 140 255 
9.46606 -2.07249 -0.182679 36 135 142 255 
9.47054 -2.084 -0.274253 40 125 142 255 
9.47221 -2.05992 -0.35206 33 145 140 255 
9.4707 -2.0684 -0.441894 34 141 141 255 
9.48819 -2.07907 -0.534555 39 126 142 255 
9.49525 -2.09118 -0.627041 39 127 142 255 
9.4932 -2.06622 -0.704935 36 135 142 255 
9.51538 -2.08164 -0.797385 41 123 142 255 
9.57001 -2.10225 -0.895154 37 133 142 255 
9.80897 -2.16026 -1.01315 65 66 135 255 
9.20658 -2.00888 -1.02702 69 56 130 255 
8.54824 -1.87162 -1.03727 70 51 127 255 
8.01647 -1.76245 -1.05146 68 59 132 255 
7.53987 -1.66329 -1.06316 69 55 129 255 
7.17926 -1.57045 -1.07342 64 69 136 255 
6.80067 -1.49148 -1.0828 61 78 138 255 
6.43111 -1.41508 -1.08659 58 83 139 255 
6.12648 -1.3515 -1.09721 61 78 138 255 
5.87279 -1.28895 -1.10351 58 83 139 255 
5.55925 -1.22227 -1.09817 59 81 139 255 
5.37143 -1.18191 -1.11597 58 84 140 255 
5.16143 -1.13766 -1.12632 61 77 138 255 
4.95414 -1.09004 -1.12551 57 86 140 255 
4.80179 -1.05749 -1.13876 54 92 141 255 
4.5591 -1.00484 -1.12857 57 85 140 255 
4.44693 -0.97855 -1.14878 64 70 136 255 
4.25118 -0.939254 -1.13811 60 79 138 255 
4.12761 -0.91204 -1.14691 60 80 139 255 
3.99555 -0.88136 -1.15318 62 73 137 255 
3.80172 -0.835182 -1.14042 66 65 134 255 
10.2783 -2.29383 3.16349 61 77 138 255 
10.2065 -2.26861 3.02377 56 88 140 255 
10.1322 -2.2483 2.89191 49 103 142 255 
10.1272 -2.2474 2.78541 51 98 141 255 
10.0668 -2.24112 2.6768 58 83 139 255 
10.1372 -2.25507 2.58542 50 100 142 255 
10.1796 -2.26627 2.49026 59 82 139 255 
17.5091 -3.90158 4.10847 71 19 101 255 
18.0245 -4.00939 4.07332 71 44 122 255 
18.0519 -4.01905 3.88716 72 20 103 255 
14.8694 -3.31853 3.05259 72 23 105 255 
9.39451 -2.10027 1.83634 40 125 142 255 
9.40603 -2.09229 1.7581 35 137 142 255 
9.40111 -2.09477 1.66195 33 145 140 255 
9.40613 -2.10269 1.56797 35 138 141 255 
9.4274 -2.11625 1.48195 33 142 141 255 
9.42988 -2.09932 1.40246 31 150 139 255 
9.41377 -2.09931 1.30577 36 134 142 255 
9.40769 -2.10821 1.21282 46 110 142 255 
9.42235 -2.11856 1.12596 48 105 142 255 
9.41592 -2.09621 1.04623 44 115 142 255 
9.43686 -2.10965 0.956652 35 138 141 255 
9.44572 -2.11847 0.865653 38 129 142 255 
9.45185 -2.13039 0.776151 39 126 142 255 
9.46078 -2.10793 0.699887 36 134 142 255 
9.45421 -2.11526 0.607817 34 141 141 255 
9.45523 -2.1258 0.516378 54 92 141 255 
9.48008 -2.14022 0.426026 38 130 142 255 
9.47757 -2.11513 0.349288 37 133 142 255 
9.46775 -2.12176 0.25746 37 132 142 255 
9.47371 -2.13169 0.166108 40 124 142 255 
9.47937 -2.14353 0.0763321 40 124 142 255 
9.50187 -2.1223 -0.00169925 37 133 142 255 
9.48552 -2.12922 -0.0933231 39 128 142 255 
9.48633 -2.13801 -0.18332 40 125 142 255 
9.50242 -2.15223 -0.275553 41 123 142 255 
9.4906 -2.12499 -0.353222 38 129 142 255 
9.50753 -2.13765 -0.444217 39 126 142 255 
9.50545 -2.14406 -0.536259 44 115 142 255 
9.51436 -2.15668 -0.629165 46 111 142 255 
9.52414 -2.13424 -0.708192 41 122 142 255 
9.54521 -2.14962 -0.800975 45 112 142 255 
9.59579 -2.16972 -0.898793 34 141 141 255 
9.79553 -2.22041 -1.01315 66 63 133 255 
9.19505 -2.06555 -1.02712 69 53 129 255 
8.5521 -1.92753 -1.03915 70 50 126 255 
8.02389 -1.81577 -1.05387 68 59 132 255 
7.54498 -1.71303 -1.06534 69 56 130 255 
7.15694 -1.61164 -1.07154 63 72 137 255 
6.79043 -1.53297 -1.08265 62 76 138 255 
6.44059 -1.45865 -1.08968 61 77 138 255 
6.12384 -1.39037 -1.09824 60 79 138 255 
5.85805 -1.32344 -1.10225 59 82 139 255 
5.59187 -1.26546 -1.10613 59 82 139 255 
5.36121 -1.2142 -1.11538 57 86 140 255 
5.15912 -1.17039 -1.12736 59 82 139 255 
4.95973 -1.12322 -1.12832 55 90 140 255 
4.78856 -1.08543 -1.13718 56 89 140 255 
4.56612 -1.0358 -1.13186 57 86 140 255 
4.438 -1.00518 -1.14805 63 71 136 255 
4.27647 -0.9724 -1.14646 59 82 139 255 
4.12006 -0.936921 -1.14639 60 80 139 255 
3.9788 -0.903302 -1.14992 61 78 138 255 
3.80869 -0.861245 -1.14408 65 68 135 255 
10.1856 -2.33885 3.13933 49 103 142 255 
10.1446 -2.32027 3.0096 46 111 142 255 
10.1764 -2.32372 2.90855 63 72 137 255 
10.1301 -2.31336 2.79008 57 85 140 255 
10.1538 -2.32597 2.70368 58 83 139 255 
10.1686 -2.32763 2.59702 56 89 140 255 
10.1636 -2.32825 2.4898 69 55 129 255 
17.8791 -4.09934 4.20112 72 36 117 255 
17.9796 -4.11533 4.0688 72 26 108 255 
14.8638 -3.4051 3.20509 71 47 125 255 
13.6121 -3.12574 2.79837 71 45 123 255 
9.39102 -2.16007 1.83821 39 126 142 255 
9.43138 -2.15874 1.76527 35 137 142 255 
9.43803 -2.16387 1.67079 35 137 142 255 
9.43923 -2.17099 1.57568 33 143 141 255 
9.44025 -2.18006 1.48604 33 144 141 255 
9.45155 -2.16509 1.40763 34 141 141 255 
9.44901 -2.16812 1.31248 33 142 141 255 
9.44292 -2.17704 1.21906 33 144 141 255 
9.44691 -2.18507 1.13048 39 128 142 255 
9.46393 -2.16793 1.05303 41 123 142 255 
9.45768 -2.17532 0.960098 31 149 139 255 
9.46166 -2.1831 0.868325 33 143 141 255 
9.47161 -2.196 0.778866 32 147 140 255 
9.49336 -2.17641 0.703272 32 147 140 255 
9.48774 -2.18398 0.610822 30 157 137 255 
9.47411 -2.1912 0.518134 47 108 142 255 
9.48818 -2.20332 0.426989 44 114 142 255 
9.49948 -2.1813 0.350582 44 115 142 255 
9.47111 -2.18363 0.257911 44 115 142 255 
9.47214 -2.19249 0.166313 44 113 142 255 
9.48065 -2.20506 0.0764499 42 118 142 255 
9.51401 -2.18638 -0.00170379 44 114 142 255 
9.50053 -2.19391 -0.0936014 44 115 142 255 
9.48764 -2.19956 -0.183603 44 115 142 255 
9.50461 -2.21412 -0.276006 42 119 142 255 
9.50952 -2.19058 -0.354419 44 113 142 255 
9.51954 -2.2018 -0.445401 43 117 142 255 
9.51837 -2.20844 -0.537742 40 124 142 255 
9.5233 -2.22023 -0.630645 37 132 142 255 
9.53322 -2.19779 -0.709856 44 114 142 255 
9.54155 -2.2104 -0.801791 40 125 142 255 
9.60072 -2.23284 -0.900522 35 138 141 255 
9.86117 -2.299 -1.02138 66 64 134 255 
9.18995 -2.12372 -1.02799 70 50 126 255 
8.56623 -1.98603 -1.04233 69 56 130 255 
7.99617 -1.86114 -1.05171 67 62 133 255 
7.55555 -1.76425 -1.06834 68 59 132 255 
7.13342 -1.6524 -1.06951 66 64 134 255 
6.78667 -1.57594 -1.08357 62 73 137 255 
6.4344 -1.49882 -1.09017 61 78 138 255 
6.11903 -1.42882 -1.09893 62 76 138 255 
5.8412 -1.35736 -1.10063 58 84 140 255 
5.60599 -1.30487 -1.11049 57 86 140 255 
5.34984 -1.24618 -1.11458 58 84 140 255 
5.15184 -1.20203 -1.12736 59 81 139 255 
4.95465 -1.15407 -1.12875 54 93 141 255 
4.77232 -1.11258 -1.13493 58 83 139 255 
4.60796 -1.07506 -1.14385 56 89 140 255 
4.42231 -1.03019 -1.1456 63 71 136 255 
4.2723 -0.999062 -1.14696 62 76 138 255 
4.11047 -0.961305 -1.14534 61 78 138 255 
3.93756 -0.919382 -1.13962 62 73 137 255 
3.8052 -0.885033 -1.14464 65 68 135 255 
10.1841 -2.40438 3.14335 61 78 138 255 
10.1479 -2.38665 3.01488 57 86 140 255 
10.1132 -2.37467 2.89459 55 90 140 255 
10.1524 -2.38409 2.80019 50 102 142 255 
10.1771 -2.39711 2.71373 59 81 139 255 
10.4951 -2.47023 2.68423 72 28 110 255 
17.2194 -4.05595 4.22429 72 20 103 255 
14.8043 -3.4901 3.48359 72 41 121 255 
14.7402 -3.46919 3.34047 72 36 117 255 
13.5776 -3.19826 2.93193 72 33 115 255 
13.5984 -3.21056 2.79955 72 33 115 255 
9.39957 -2.22285 1.84252 36 135 142 255 
9.45147 -2.22446 1.77156 31 149 139 255 
9.45527 -2.22897 1.67623 31 153 138 255 
9.44206 -2.23273 1.57841 31 154 138 255 
9.44785 -2.24296 1.48938 32 147 140 255 
9.46506 -2.2294 1.41166 30 157 137 255 
9.46157 -2.2322 1.3161 32 146 140 255 
9.44386 -2.23837 1.22093 31 148 140 255 
9.44686 -2.24621 1.1321 32 147 140 255 
9.48045 -2.23302 1.05637 32 147 140 255 
9.47611 -2.24087 0.963347 31 152 139 255 
9.47426 -2.24732 0.87073 31 149 139 255 
9.47348 -2.25777 0.780144 32 146 140 255 
9.48856 -2.23668 0.70392 31 153 138 255 
9.4897 -2.24583 0.611824 31 160 136 255 
9.47992 -2.25391 0.519198 43 117 142 255 
9.48809 -2.26475 0.427602 31 156 137 255 
9.5005 -2.24299 0.351121 31 152 139 255 
9.4945 -2.25046 0.258919 32 147 140 255 
9.47894 -2.25543 0.166673 33 142 141 255 
9.49222 -2.26923 0.0766541 31 148 140 255 
9.51793 -2.24886 -0.00170693 31 154 138 255 
9.50634 -2.25678 -0.0937934 32 147 140 255 
9.49731 -2.2633 -0.184055 34 141 141 255 
9.50251 -2.27519 -0.276345 34 141 141 255 
9.51437 -2.25327 -0.355109 31 151 139 255 
9.51849 -2.26317 -0.445993 34 140 141 255 
9.51533 -2.26935 -0.538347 35 138 141 255 
9.5192 -2.28094 -0.631289 35 137 142 255 
9.52829 -2.25832 -0.710508 35 138 141 255 
9.5346 -2.27052 -0.802362 34 139 141 255 
9.58684 -2.29171 -0.900522 36 135 142 255 
9.90203 -2.37268 -1.0271 66 64 134 255 
9.14773 -2.17317 -1.02474 68 57 131 255 
8.56451 -2.04108 -1.04362 70 50 126 255 
7.99135 -1.91179 -1.0526 67 61 132 255 
7.55999 -1.81427 -1.07052 67 62 133 255 
7.14048 -1.70026 -1.07212 65 66 135 255 
6.78841 -1.62031 -1.08541 64 69 136 255 
6.42604 -1.5385 -1.09033 59 81 139 255 
6.1111 -1.46656 -1.0991 59 81 139 255 
5.84137 -1.39523 -1.10225 58 84 140 255 
5.6017 -1.34016 -1.11124 56 88 140 255 
5.34686 -1.28012 -1.11558 55 91 141 255 
5.15198 -1.23544 -1.12903 60 80 139 255 
4.95697 -1.18673 -1.13092 54 93 141 255 
4.8033 -1.15092 -1.14395 53 95 141 255 
4.5767 -1.09743 -1.13774 59 82 139 255 
4.41402 -1.05685 -1.14512 62 73 137 255 
4.26703 -1.02548 -1.14722 63 72 137 255 
4.11294 -0.988538 -1.1477 59 82 139 255 
3.93091 -0.943301 -1.13934 63 72 137 255 
3.80623 -0.909927 -1.14661 66 65 134 255 
10.2269 -2.48082 3.16119 62 74 137 255 
10.1826 -2.46083 3.0296 49 103 142 255 
10.0994 -2.4369 2.89486 53 94 141 255 
