ply
format ascii 1.0
comment VTK generated PLY File
obj_info vtkPolyData points and polygons: vtk4.0
element vertex 1240
property float x
property float y
property float z
property uchar red
property uchar green
property uchar blue
property uchar alpha
element face 0
property list uchar int vertex_indices
end_header
-9.44165 -17.3953 -0.902231 69 56 130 255 
-9.69763 -17.8376 -1.11736 72 23 105 255 
-9.68337 -17.7664 -1.30493 72 33 115 255 
-9.65851 -17.8252 -1.47102 71 19 101 255 
-9.46834 -17.43 -1.62382 71 42 122 255 
-8.89051 -16.3326 -1.69887 71 19 101 255 
-7.85178 -14.4059 -1.65496 71 16 99 255 
-6.97103 -12.8493 -1.59323 71 16 99 255 
-6.21642 -11.4388 -1.54319 71 45 123 255 
-5.67543 -10.4219 -1.5202 72 23 105 255 
-5.22409 -9.57688 -1.50212 72 26 108 255 
-4.81996 -8.87325 -1.47492 71 42 122 255 
-4.4984 -8.27063 -1.46422 66 63 133 255 
-4.19061 -7.6921 -1.44542 57 85 140 255 
-3.93742 -7.21813 -1.43796 61 78 138 255 
-3.70239 -6.80457 -1.42177 56 89 140 255 
-3.48631 -6.40184 -1.40639 57 86 140 255 
-3.30259 -6.06208 -1.40073 58 84 140 255 
-3.15152 -5.77981 -1.4029 59 82 139 255 
-2.98157 -5.47297 -1.38284 55 90 140 255 
-2.83931 -5.20944 -1.37409 57 86 140 255 
-2.72717 -5.00172 -1.37717 54 92 141 255 
-2.60098 -4.77409 -1.37164 62 73 137 255 
-2.4964 -4.57289 -1.36194 57 86 140 255 
-2.4108 -4.41589 -1.36504 58 84 140 255 
-2.28841 -4.19528 -1.34687 60 80 139 255 
-2.20969 -4.05925 -1.35411 61 78 138 255 
-0 -0 0 68 2 86 255 
-0 -0 0 68 2 86 255 
-0 -0 0 68 2 86 255 
-0 -0 0 69 4 87 255 
-0 -0 0 68 2 86 255 
-0 -0 0 68 2 86 255 
-0 -0 0 68 2 86 255 
-0 -0 0 68 2 86 255 
-28.3523 -51.7595 13.0187 70 11 94 255 
-28.3886 -51.8026 12.416 70 11 94 255 
-28.3957 -51.7524 11.8277 71 14 97 255 
-28.3702 -51.6609 11.2431 71 16 99 255 
-13.1434 -23.9944 4.99159 72 32 113 255 
-13.1892 -24.0573 4.73401 72 29 111 255 
-13.2285 -24.0895 4.47092 72 24 106 255 
-12.6289 -22.9493 4.01771 72 33 115 255 
-9.64057 -17.5924 2.91224 72 40 120 255 
-9.61944 -17.5387 2.70814 70 50 126 255 
-9.48125 -17.2443 2.47556 70 48 126 255 
-9.49107 -17.233 2.29373 70 52 128 255 
-9.58832 -17.497 2.16396 71 46 124 255 
-9.48628 -17.2745 1.94973 68 59 132 255 
-9.83112 -17.8732 1.82412 72 37 118 255 
-9.81161 -17.793 1.62768 72 41 121 255 
-9.29365 -16.9523 1.39596 70 50 126 255 
-9.56015 -17.4018 1.24569 66 63 133 255 
-9.7482 -17.7005 1.07671 72 31 112 255 
-8.84492 -16.0267 0.802433 72 40 120 255 
-9.12738 -16.6352 0.682507 72 38 119 255 
-9.00804 -16.3833 0.496114 71 45 123 255 
-9.27542 -16.8351 0.328796 69 53 129 255 
-15.1816 -27.486 0.24662 72 31 112 255 
-15.0956 -27.5014 -0.00547545 72 33 115 255 
-15.1516 -27.534 -0.301692 72 33 115 255 
-15.1724 -27.5155 -0.59235 72 32 113 255 
-9.68899 -17.5272 -0.566401 71 47 125 255 
-9.55616 -17.388 -0.720598 68 58 131 255 
-9.53472 -17.3125 -0.900956 68 57 131 255 
-9.67716 -17.5425 -1.10258 71 44 122 255 
-15.1717 -27.4342 -2.02181 72 24 106 255 
-12.4034 -22.5594 -1.86796 70 11 94 255 
-9.62178 -17.4562 -1.63173 72 32 113 255 
-8.97082 -16.242 -1.69514 72 23 105 255 
-7.94532 -14.3671 -1.65607 72 20 103 255 
-7.0181 -12.7488 -1.58608 71 17 100 255 
-6.30663 -11.437 -1.54813 70 52 128 255 
-5.73975 -10.3877 -1.52033 72 24 106 255 
-5.28612 -9.55071 -1.50307 72 26 108 255 
-4.89007 -8.87211 -1.47969 72 33 115 255 
-4.55145 -8.24719 -1.46499 68 57 131 255 
-4.24203 -7.67401 -1.44689 60 79 138 255 
-3.97973 -7.19039 -1.43727 62 74 137 255 
-3.74693 -6.78689 -1.42285 55 90 140 255 
-3.5298 -6.38806 -1.40809 56 88 140 255 
-3.3383 -6.03913 -1.40014 58 84 140 255 
-3.18693 -5.76036 -1.4029 57 85 140 255 
-3.02124 -5.46568 -1.38565 55 91 141 255 
-2.86745 -5.1851 -1.37229 57 85 140 255 
-2.74934 -4.96959 -1.37294 59 81 139 255 
-2.62929 -4.75634 -1.37115 61 78 138 255 
-2.53331 -4.57357 -1.36675 56 89 140 255 
-2.43224 -4.39088 -1.36189 62 76 138 255 
-2.33508 -4.21905 -1.35908 59 82 139 255 
-2.24245 -4.05989 -1.35889 59 82 139 255 
-0 -0 0 68 2 86 255 
-0 -0 0 69 4 87 255 
-0 -0 0 68 2 86 255 
-0 -0 0 68 2 86 255 
-0 -0 0 68 2 86 255 
-0 -0 0 68 2 86 255 
-0 -0 0 68 2 86 255 
-0 -0 0 68 2 86 255 
-28.6618 -51.5709 13.0153 70 11 94 255 
-28.6802 -51.5812 12.4049 70 10 93 255 
-28.7075 -51.5678 11.8255 71 14 97 255 
-28.6632 -51.4438 11.2339 70 10 93 255 
-13.3243 -23.9743 5.00433 72 22 104 255 
-13.3395 -23.9811 4.73503 72 33 115 255 
-13.3765 -24.0088 4.47108 72 27 109 255 
-9.75601 -17.474 3.06956 72 35 116 255 
-9.73535 -17.5095 2.90836 72 38 119 255 
-9.68206 -17.3988 2.69566 69 55 129 255 
-9.78651 -17.5436 2.5271 71 46 124 255 
-9.59324 -17.1684 2.29292 68 58 131 255 
-9.73995 -17.5178 2.17388 71 42 122 255 
-10.0057 -17.9583 2.03381 71 42 122 255 
-9.84595 -17.643 1.80675 72 40 120 255 
-9.81159 -17.5376 1.6098 70 52 128 255 
-9.49833 -17.0762 1.41094 72 35 116 255 
-9.59581 -17.2155 1.23655 69 56 130 255 
-9.58191 -17.1487 1.0467 72 32 113 255 
-9.0617 -16.184 0.813075 72 32 113 255 
-9.31045 -16.7247 0.68851 71 44 122 255 
-9.38452 -16.8227 0.511154 69 53 129 255 
-9.37756 -16.7761 0.328761 72 22 104 255 
-9.37445 -16.7288 0.150614 72 23 105 255 
-15.3239 -27.5157 -0.00549691 72 29 111 255 
-15.3378 -27.4719 -0.302038 72 29 111 255 
-15.359 -27.4542 -0.593047 72 35 116 255 
-9.82862 -17.525 -0.568267 71 44 122 255 
-9.72691 -17.4442 -0.725389 69 53 129 255 
-9.67146 -17.3086 -0.903825 66 63 133 255 
-9.76365 -17.4454 -1.10021 70 50 126 255 
-15.3427 -27.3458 -2.0222 72 22 104 255 
-12.6247 -22.6318 -1.88033 70 10 93 255 
-9.74866 -17.4325 -1.63508 72 32 113 255 
-9.08929 -16.2205 -1.69869 72 29 111 255 
-8.0416 -14.3328 -1.65777 72 26 108 255 
-7.1277 -12.7619 -1.59313 72 20 103 255 
-6.3762 -11.3972 -1.54801 72 41 121 255 
-5.80095 -10.348 -1.51969 71 17 100 255 
-5.35772 -9.54142 -1.50675 72 27 109 255 
-4.96615 -8.8808 -1.48619 72 41 121 255 
-4.61162 -8.23635 -1.46806 66 63 133 255 
-4.28662 -7.64354 -1.44607 59 81 139 255 
-4.02377 -7.16583 -1.43727 62 74 137 255 
-3.78562 -6.75863 -1.42177 55 90 140 255 
-3.57133 -6.37056 -1.40904 55 91 141 255 
-3.37625 -6.02024 -1.40053 57 85 140 255 
-3.21694 -5.73131 -1.40061 61 78 138 255 
-3.05281 -5.44364 -1.38479 55 90 140 255 
-2.89397 -5.15806 -1.36981 58 83 139 255 
-2.77741 -4.94838 -1.37177 56 89 140 255 
-2.65558 -4.73505 -1.36969 62 73 137 255 
-2.56512 -4.56469 -1.36877 56 89 140 255 
-2.45583 -4.36999 -1.36006 59 81 139 255 
-2.35904 -4.20129 -1.35799 59 82 139 255 
-2.26169 -4.03601 -1.35552 60 80 139 255 
-0 -0 0 68 2 86 255 
-0 -0 0 68 2 86 255 
-0 -0 0 68 2 86 255 
-0 -0 0 68 2 86 255 
-0 -0 0 68 2 86 255 
-0 -0 0 68 2 86 255 
-0 -0 0 68 2 86 255 
-0 -0 0 68 2 86 255 
-28.9436 -51.3337 13 70 10 93 255 
-28.9875 -51.3889 12.4012 71 14 97 255 
-29.0094 -51.3659 11.8198 71 14 97 255 
-28.9822 -51.2738 11.2354 71 13 96 255 
-13.4707 -23.8913 5.00415 72 29 111 255 
-13.5726 -24.0516 4.7653 72 27 109 255 
-13.5304 -23.9383 4.47333 72 24 106 255 
-9.78023 -17.2676 3.04379 71 13 96 255 
-10.0619 -17.8382 2.97315 72 22 104 255 
-9.76769 -17.302 2.68989 69 55 129 255 
-10.2136 -18.048 2.60873 71 44 122 255 
-9.75081 -17.2016 2.30531 72 41 121 255 
-9.86679 -17.4924 2.17819 71 45 123 255 
-10.0677 -17.8117 2.02416 71 42 122 255 
-10.006 -17.6741 1.81619 71 45 123 255 
-9.91311 -17.4667 1.60884 69 55 129 255 
-9.86713 -17.4858 1.44976 69 56 130 255 
-9.75186 -17.2458 1.243 66 64 134 255 
-9.59586 -16.9289 1.03685 72 41 121 255 
-9.87679 -17.3885 0.87662 72 33 115 255 
-9.5677 -16.9414 0.699833 69 56 130 255 
-9.53286 -16.8448 0.513594 67 61 132 255 
-9.55233 -16.8453 0.331259 68 58 131 255 
-9.46951 -16.658 0.150496 72 38 119 255 
-15.517 -27.4647 -0.00550564 72 35 116 255 
-15.5253 -27.4112 -0.302412 72 32 113 255 
-15.6041 -27.4951 -0.595988 72 31 112 255 
-10.0338 -17.6364 -0.573864 72 35 116 255 
-9.84902 -17.4112 -0.726515 70 51 127 255 
-9.80704 -17.3011 -0.906557 70 52 128 255 
-9.90058 -17.4381 -1.10356 72 31 112 255 
-15.5991 -27.4072 -2.03378 72 26 108 255 
-12.7024 -22.4463 -1.87136 70 10 93 255 
-9.88839 -17.4304 -1.64054 72 27 109 255 
-9.21178 -16.2051 -1.70297 72 22 104 255 
-8.14711 -14.3143 -1.66139 72 20 103 255 
-7.22939 -12.7594 -1.59833 72 20 103 255 
-6.46758 -11.3959 -1.55319 72 27 109 255 
-5.88983 -10.357 -1.5263 72 22 104 255 
-5.4294 -9.53161 -1.51044 72 26 108 255 
-5.00688 -8.82607 -1.48214 72 33 115 255 
-4.66256 -8.20876 -1.46822 67 61 132 255 
-4.33149 -7.61366 -1.44542 60 79 138 255 
-4.06961 -7.14443 -1.43796 59 81 139 255 
-3.82799 -6.73698 -1.42213 57 86 140 255 
-3.61035 -6.34853 -1.40904 55 91 141 255 
-3.41749 -6.00708 -1.40232 56 89 140 255 
-3.24382 -5.69702 -1.39706 61 78 138 255 
-3.08422 -5.42141 -1.38392 53 95 141 255 
-2.93279 -5.15291 -1.37319 56 88 140 255 
-2.80291 -4.9228 -1.36942 57 85 140 255 
-2.67739 -4.70602 -1.36602 63 72 137 255 
-2.58637 -4.53709 -1.36523 55 90 140 255 
-2.48164 -4.35316 -1.35954 60 80 139 255 
-2.37525 -4.17001 -1.35256 62 76 138 255 
-2.27882 -4.00871 -1.35102 58 84 140 255 
-0 -0 0 68 2 86 255 
-0 -0 0 68 2 86 255 
-0 -0 0 68 2 86 255 
-0 -0 0 69 4 87 255 
-0 -0 0 69 4 87 255 
-0 -0 0 68 2 86 255 
-0 -0 0 68 2 86 255 
-0 -0 0 68 2 86 255 
-29.2915 -51.2136 13.0149 70 11 94 255 
-29.3028 -51.2109 12.4014 70 10 93 255 
-29.3245 -51.1878 11.82 71 16 99 255 
-29.2962 -51.095 11.2354 71 14 97 255 
-13.6639 -23.8902 5.02139 71 17 100 255 
-13.646 -23.8387 4.73963 72 24 106 255 
-13.6839 -23.8668 4.47558 71 16 99 255 
-14.1079 -24.5557 4.34366 69 5 89 255 
-13.5977 -23.7648 3.97479 72 22 104 255 
-9.85446 -17.2082 2.68466 72 40 120 255 
-9.79656 -17.066 2.47543 71 45 123 255 
-9.80319 -17.0493 2.29292 72 33 115 255 
-10.0366 -17.5411 2.19188 71 46 124 255 
-10.0199 -17.4759 1.99295 70 52 128 255 
-10.1822 -17.7307 1.82839 70 50 126 255 
-10.0136 -17.3943 1.6078 68 57 131 255 
-9.93262 -17.3523 1.44371 69 56 130 255 
-9.93943 -17.3285 1.25333 69 53 129 255 
-9.87526 -17.1753 1.05563 68 58 131 255 
-9.9808 -17.3233 0.876401 72 22 104 255 
-9.66004 -16.8624 0.699007 70 52 128 255 
-9.70522 -16.9065 0.517281 70 52 128 255 
-9.6934 -16.8522 0.332558 72 37 118 255 
-15.8224 -27.4401 0.24878 72 31 112 255 
-15.7126 -27.4167 -0.00551524 72 33 115 255 
-15.7505 -27.4152 -0.303516 72 35 116 255 
-15.7975 -27.4422 -0.59693 72 26 108 255 
-15.8406 -27.4496 -0.896318 72 33 115 255 
-10.0646 -17.5402 -0.734463 72 38 119 255 
-9.98821 -17.3714 -0.913433 70 51 127 255 
-15.7982 -27.4322 -1.74214 72 23 105 255 
-15.8248 -27.4112 -2.04125 72 27 109 255 
-12.9595 -22.5764 -1.8888 70 11 94 255 
-10.1632 -17.6614 -1.66812 71 19 101 255 
-9.30756 -16.1423 -1.70233 72 23 105 255 
-8.2721 -14.3287 -1.66891 71 19 101 255 
-7.31745 -12.7321 -1.60049 71 17 100 255 
-6.53986 -11.3603 -1.55378 72 23 105 255 
-5.96616 -10.3431 -1.5296 72 31 112 255 
-5.49819 -9.51613 -1.5133 72 22 104 255 
-5.07131 -8.81319 -1.48518 72 37 118 255 
-4.70988 -8.17486 -1.4673 68 59 132 255 
-4.38256 -7.59463 -1.44689 57 85 140 255 
-4.11436 -7.12103 -1.43831 58 83 139 255 
-3.87269 -6.71933 -1.42339 59 82 139 255 
-3.65022 -6.32796 -1.40942 56 89 140 255 
-3.45624 -5.98939 -1.40312 56 88 140 255 
-3.27676 -5.67362 -1.39623 62 74 137 255 
-3.12231 -5.41084 -1.38609 54 92 141 255 
-2.96289 -5.13229 -1.37251 56 88 140 255 
-2.83549 -4.90972 -1.37059 59 82 139 255 
-2.72075 -4.7147 -1.37336 62 74 137 255 
-2.61174 -4.51695 -1.36396 54 93 141 255 
-2.51555 -4.35038 -1.36346 58 83 139 255 
-2.40464 -4.16202 -1.35473 60 79 138 255 
-2.30433 -3.99632 -1.35158 61 77 138 255 
-0 -0 0 68 2 86 255 
-0 -0 0 68 2 86 255 
-0 -0 0 68 2 86 255 
-0 -0 0 68 2 86 255 
-0 -0 0 68 2 86 255 
-0 -0 0 68 2 86 255 
-0 -0 0 68 2 86 255 
-0 -0 0 68 2 86 255 
-29.5729 -50.9772 13.0006 70 11 94 255 
-29.612 -51.0225 12.3995 70 11 94 255 
-29.6385 -51.0077 11.8202 71 13 96 255 
-29.6482 -50.9814 11.2502 71 14 97 255 
-29.5798 -50.9891 10.7552 70 11 94 255 
-29.5978 -50.9775 10.1713 71 13 96 255 
-13.0253 -22.3984 4.21513 72 40 120 255 
-26.2502 -45.048 7.99691 70 7 90 255 
-12.8785 -22.1908 3.72467 72 28 110 255 
-10.4855 -18.0523 2.82633 71 46 124 255 
-10.4363 -17.9247 2.60923 71 45 123 255 
-10.7943 -18.5093 2.49812 72 33 115 255 
-9.99936 -17.2298 2.16061 71 42 122 255 
-10.103 -17.3728 1.98823 66 65 134 255 
-10.2392 -17.5792 1.81922 71 44 122 255 
-10.0981 -17.2946 1.60429 72 36 117 255 
-9.95377 -17.1444 1.43146 67 61 132 255 
-10.2895 -17.6865 1.28376 72 36 117 255 
-10.074 -17.2748 1.06553 72 32 113 255 
-10.8959 -18.6461 0.94669 72 26 108 255 
-10.0877 -17.361 0.722228 72 35 116 255 
-9.77708 -16.7922 0.51561 68 58 131 255 
-9.75279 -16.7173 0.33107 71 19 101 255 
-16.0439 -27.434 0.249613 72 32 113 255 
-15.9167 -27.382 -0.00552781 72 29 111 255 
-15.9662 -27.4001 -0.304428 72 29 111 255 
-16.011 -27.4224 -0.598626 72 31 112 255 
-16.044 -27.4123 -0.898297 72 29 111 255 
-15.9311 -27.3738 -1.15029 71 17 100 255 
-10.1802 -17.4565 -0.921175 71 19 101 255 
-15.9929 -27.3805 -1.74505 71 16 99 255 
-16.0305 -27.3782 -2.04607 71 17 100 255 
-13.0948 -22.4913 -1.88837 70 11 94 255 
-10.5065 -18.0016 -1.7063 71 14 97 255 
-9.4195 -16.1072 -1.7047 72 20 103 255 
-8.37696 -14.3068 -1.67233 72 26 108 255 
-7.41697 -12.7238 -1.60515 71 17 100 255 
-6.60593 -11.3139 -1.55296 72 23 105 255 
-6.05405 -10.3482 -1.53583 72 24 106 255 
-5.55197 -9.47452 -1.51207 72 26 108 255 
-5.1198 -8.7725 -1.48359 70 48 126 255 
-4.76992 -8.16287 -1.47037 68 59 132 255 
-4.43057 -7.57015 -1.44738 59 81 139 255 
-4.16495 -7.10755 -1.44072 56 88 140 255 
-3.92129 -6.70818 -1.4261 58 84 140 255 
-3.68997 -6.30714 -1.4098 55 91 141 255 
-3.48847 -5.96046 -1.40133 59 82 139 255 
-3.31349 -5.65678 -1.39706 58 84 140 255 
-3.15841 -5.39663 -1.38739 54 92 141 255 
-2.99137 -5.10896 -1.37116 57 85 140 255 
-2.86851 -4.89726 -1.372 58 83 139 255 
-2.74179 -4.68453 -1.36944 63 72 137 255 
-2.65556 -4.52838 -1.37231 56 88 140 255 
-2.54512 -4.33986 -1.36504 56 88 140 255 
-2.43306 -4.15217 -1.35636 59 82 139 255 
-2.33317 -3.98956 -1.35411 61 78 138 255 
-0 -0 0 68 2 86 255 
-0 -0 0 68 2 86 255 
-0 -0 0 68 2 86 255 
-0 -0 0 68 2 86 255 
-0 -0 0 68 2 86 255 
-0 -0 0 68 2 86 255 
-0 -0 0 68 2 86 255 
-0 -0 0 68 2 86 255 
-29.8906 -50.804 13.003 70 11 94 255 
-29.93 -50.8492 12.4018 70 11 94 255 
-29.9714 -50.8595 11.8282 71 13 96 255 
-29.944 -50.7706 11.244 71 14 97 255 
-29.8652 -50.7609 10.7455 70 11 94 255 
-29.917 -50.8069 10.1737 69 5 89 255 
-13.0827 -22.1829 4.1896 70 48 126 255 
-26.5186 -44.8734 7.99463 70 8 92 255 
-12.9617 -22.0218 3.70958 70 52 128 255 
-10.6116 -18.0141 2.83049 72 35 116 255 
-10.6964 -18.1149 2.64643 71 44 122 255 
-10.7676 -18.2059 2.46605 72 38 119 255 
-10.4478 -17.7507 2.23394 72 28 110 255 
-10.217 -17.3234 1.9897 65 66 135 255 
-10.3043 -17.444 1.81174 71 44 122 255 
-10.1953 -17.2178 1.60293 72 41 121 255 
-10.0714 -17.1044 1.43326 68 58 131 255 
-10.8603 -18.4069 1.34087 72 28 110 255 
-10.3857 -17.5608 1.08708 69 56 130 255 
-10.6286 -17.9352 0.913888 72 36 117 255 
-10.024 -17.0104 0.710186 72 41 121 255 
-9.9333 -16.8223 0.518396 66 63 133 255 
-9.89744 -16.7285 0.33249 69 53 129 255 
-16.2237 -27.3548 0.249793 72 28 110 255 
-16.1322 -27.3648 -0.00554421 72 31 112 255 
-16.1798 -27.3791 -0.305292 72 31 112 255 
-16.1993 -27.3581 -0.59938 72 29 111 255 
-16.2191 -27.3253 -0.898693 72 29 111 255 
-16.1343 -27.3357 -1.15283 72 24 106 255 
-16.1896 -27.3738 -1.44973 72 31 112 255 
-16.1804 -27.3153 -1.7472 72 29 111 255 
-16.2308 -27.3343 -2.05019 72 29 111 255 
-13.3015 -22.5273 -1.89821 70 7 90 255 
-11.1086 -18.7679 -1.78537 71 17 100 255 
-9.49276 -16.0063 -1.70015 71 17 100 255 
-8.45747 -14.2432 -1.67092 72 20 103 255 
-7.50552 -12.6961 -1.60743 71 17 100 255 
-6.67776 -11.2775 -1.55355 71 19 101 255 
-6.12908 -10.3305 -1.53875 72 33 115 255 
-5.61556 -9.44964 -1.51357 72 37 118 255 
-5.19319 -8.77413 -1.48923 69 55 129 255 
-4.82496 -8.14195 -1.47191 69 55 129 255 
-4.485 -7.5564 -1.44998 59 82 139 255 
-4.20446 -7.07509 -1.43934 60 79 138 255 
-3.96539 -6.68907 -1.42718 55 91 141 255 
-3.72409 -6.27678 -1.40809 52 96 141 255 
-3.52648 -5.94147 -1.40193 57 86 140 255 
-3.35413 -5.64644 -1.39957 57 85 140 255 
-3.20392 -5.39814 -1.3928 52 96 141 255 
-3.02615 -5.09638 -1.37274 57 86 140 255 
-2.89553 -4.87456 -1.37059 57 86 140 255 
-2.77098 -4.66845 -1.36969 63 72 137 255 
-2.67143 -4.49205 -1.36624 55 91 141 255 
-2.56776 -4.31753 -1.36294 58 83 139 255 
-2.46193 -4.14296 -1.35826 61 78 138 255 
-2.37033 -3.99663 -1.36142 60 80 139 255 
-0 -0 0 68 2 86 255 
-0 -0 0 68 2 86 255 
-0 -0 0 68 2 86 255 
-0 -0 0 68 2 86 255 
-0 -0 0 68 2 86 255 
-0 -0 0 68 2 86 255 
-0 -0 0 69 4 87 255 
-0 -0 0 68 2 86 255 
-30.2027 -50.6213 13.0034 70 10 93 255 
-30.252 -50.6822 12.4061 71 14 97 255 
-30.2391 -50.6015 11.8111 71 17 100 255 
-30.2711 -50.6129 11.25 71 13 96 255 
-27.0399 -45.3202 9.62869 69 4 87 255 
-27.252 -45.6381 9.17199 70 8 92 255 
-13.1315 -21.9565 4.16198 72 36 117 255 
-12.9895 -21.6753 3.8758 71 13 96 255 
-13.019 -21.8118 3.6876 70 52 128 255 
-14.9873 -25.0888 3.95649 72 36 117 255 
-10.7329 -17.9247 2.6282 71 46 124 255 
-10.8204 -18.0415 2.45273 71 45 123 255 
-10.5856 -17.7349 2.24008 72 41 121 255 
-10.3731 -17.344 1.99935 70 48 126 255 
-10.64 -17.7624 1.85155 72 40 120 255 
-10.5143 -17.5104 1.63615 72 38 119 255 
-10.1552 -17.0072 1.43031 67 61 132 255 
-10.5795 -17.6822 1.29278 71 44 122 255 
-10.9349 -18.2332 1.13284 72 37 118 255 
-10.6258 -17.6821 0.904297 72 36 117 255 
-10.1108 -16.9194 0.708964 71 46 124 255 
-10.1488 -16.9489 0.524205 72 36 117 255 
-10.0128 -16.6889 0.332918 70 48 126 255 
-10.0105 -16.6451 0.152554 72 33 115 255 
-16.3665 -27.3769 -0.0055669 72 33 115 255 
-16.4097 -27.3831 -0.306453 72 31 112 255 
-16.4286 -27.361 -0.601642 72 22 104 255 
-16.4535 -27.3366 -0.902368 71 17 100 255 
-16.3767 -27.3614 -1.15813 72 23 105 255 
-16.3948 -27.3365 -1.45305 72 23 105 255 
-16.3873 -27.2814 -1.75143 72 22 104 255 
-16.5213 -27.4385 -2.06557 70 10 93 255 
-13.3821 -22.3494 -1.8901 70 10 93 255 
-11.2241 -18.7002 -1.78545 71 16 99 255 
-9.61286 -15.9844 -1.70406 72 23 105 255 
-8.56369 -14.2226 -1.67464 72 22 104 255 
-7.54239 -12.5816 -1.59876 71 16 99 255 
-6.7361 -11.2184 -1.55107 72 24 106 255 
-6.19593 -10.2986 -1.53964 72 38 119 255 
-5.66526 -9.40143 -1.51139 72 29 111 255 
-5.2622 -8.76756 -1.49356 66 63 133 255 
-4.87533 -8.11304 -1.47206 67 61 132 255 
-4.53942 -7.54226 -1.45259 55 91 141 255 
-4.25694 -7.06434 -1.44244 57 86 140 255 
-4.01041 -6.67136 -1.42863 55 90 140 255 
-3.76354 -6.25549 -1.40847 52 97 141 255 
-3.56691 -5.92644 -1.40352 57 85 140 255 
-3.39073 -5.6291 -1.4004 61 77 138 255 
-3.23799 -5.38005 -1.39324 52 96 141 255 
-3.06239 -5.08606 -1.375 58 84 140 255 
-2.92287 -4.85253 -1.36942 57 85 140 255 
-2.80957 -4.66797 -1.37458 61 77 138 255 
-2.69394 -4.46728 -1.36371 57 86 140 255 
-2.59819 -4.3083 -1.36504 59 82 139 255 
-2.48631 -4.12612 -1.35772 62 76 138 255 
-2.38987 -3.97378 -1.35861 62 74 137 255 
-0 -0 0 69 4 87 255 
-0 -0 0 68 2 86 255 
-0 -0 0 69 4 87 255 
-0 -0 0 68 2 86 255 
-0 -0 0 68 2 86 255 
-0 -0 0 68 2 86 255 
-0 -0 0 68 2 86 255 
-0 -0 0 68 2 86 255 
-30.538 -50.4768 13.0142 70 10 93 255 
-30.5639 -50.4981 12.4067 70 11 94 255 
-30.5592 -50.4317 11.8151 70 11 94 255 
-30.606 -50.4673 11.2592 70 11 94 255 
-30.5739 -50.5362 10.7765 70 11 94 255 
-26.1595 -43.2042 8.71493 70 7 90 255 
-13.2168 -21.7945 4.14657 70 10 93 255 
-13.1094 -21.5741 3.87201 72 40 120 255 
-13.1033 -21.6502 3.67381 72 24 106 255 
-15.1502 -25.0116 3.9589 72 22 104 255 
-10.8695 -17.9026 2.63469 71 46 124 255 
-10.9438 -17.996 2.45562 72 36 117 255 
-10.477 -17.3107 2.19458 69 55 129 255 
-10.3828 -17.121 1.98094 68 58 131 255 
-10.348 -17.0371 1.78252 71 44 122 255 
-10.5754 -17.3698 1.62904 72 28 110 255 
-10.1938 -16.8362 1.42116 71 47 125 255 
-10.9353 -18.0248 1.32271 72 32 113 255 
-10.9143 -17.9482 1.11927 72 35 116 255 
-10.7195 -17.5927 0.903071 70 51 127 255 
-10.2502 -16.916 0.711444 70 48 126 255 
-10.4876 -17.2733 0.536221 69 53 129 255 
-10.3826 -17.0671 0.341726 72 27 109 255 
-22.5947 -37.053 0.340859 70 8 92 255 
-22.538 -37.1803 -0.00758834 70 10 93 255 
-22.5323 -37.082 -0.416537 70 11 94 255 
-22.4792 -36.9227 -0.814912 71 13 96 255 
-22.4592 -36.8019 -1.21934 70 8 92 255 
-22.5519 -37.1594 -1.57868 70 10 93 255 
-18.641 -30.6538 -1.63543 70 10 93 255 
-18.6106 -30.5565 -1.96897 70 7 90 255 
-16.9254 -27.7233 -2.09479 69 5 89 255 
-13.52 -22.2686 -1.89025 70 8 92 255 
-11.3454 -18.642 -1.78651 71 17 100 255 
-9.73927 -15.9719 -1.70906 72 23 105 255 
-8.65806 -14.1816 -1.67604 72 22 104 255 
-7.65972 -12.6013 -1.60721 72 22 104 255 
-6.81823 -11.1989 -1.55413 72 23 105 255 
-6.26003 -10.2621 -1.5399 72 40 120 255 
-5.70321 -9.33437 -1.50621 72 29 111 255 
-5.31693 -8.73679 -1.49385 70 51 127 255 
-4.92965 -8.09057 -1.47344 69 56 130 255 
-4.58356 -7.5109 -1.45193 53 94 141 255 
-4.30637 -7.04818 -1.44451 57 85 140 255 
-4.05332 -6.64998 -1.42935 54 92 141 255 
-3.80339 -6.2348 -1.40904 54 92 141 255 
-3.61035 -5.91615 -1.4063 55 91 141 255 
-3.43438 -5.62321 -1.40415 56 88 140 255 
-3.2684 -5.35592 -1.39215 55 90 140 255 
-3.09506 -5.06967 -1.37567 58 83 139 255 
-2.96222 -4.85027 -1.37388 58 83 139 255 
-2.83715 -4.64899 -1.37409 62 73 137 255 
-2.71979 -4.44819 -1.36295 57 86 140 255 
-2.61753 -4.28075 -1.36137 59 82 139 255 
-2.50656 -4.10258 -1.35501 61 77 138 255 
-2.4147 -3.95986 -1.35889 62 76 138 255 
-0 -0 0 68 2 86 255 
-0 -0 0 68 2 86 255 
-0 -0 0 68 2 86 255 
-0 -0 0 69 4 87 255 
-0 -0 0 68 2 86 255 
-0 -0 0 69 4 87 255 
-0 -0 0 69 4 87 255 
-0 -0 0 68 2 86 255 
-30.8538 -50.2993 13.017 70 8 92 255 
-30.9029 -50.358 12.4186 70 11 94 255 
-30.8814 -50.265 11.8202 70 11 94 255 
-30.8801 -50.2217 11.2464 71 14 97 255 
-30.8289 -50.2587 10.7575 71 13 96 255 
-27.2532 -44.3932 8.98835 69 4 87 255 
-13.1735 -21.4254 4.09165 72 23 105 255 
-13.2073 -21.4377 3.86201 72 41 121 255 
-13.1148 -21.372 3.64019 72 37 118 255 
-10.8714 -17.7017 2.81238 72 23 105 255 
-13.173 -21.3995 3.16116 72 35 116 255 
-11.1504 -18.0849 2.47705 72 33 115 255 
-10.935 -17.8198 2.26758 69 53 129 255 
-10.4903 -17.0612 1.98143 66 63 133 255 
-10.4252 -16.9291 1.77789 68 57 131 255 
-10.666 -17.2791 1.62664 72 28 110 255 
-10.3679 -16.889 1.43096 66 64 134 255 
-10.6085 -17.2467 1.27036 72 38 119 255 
-10.8115 -17.5358 1.09767 71 45 123 255 
-10.8299 -17.5308 0.90329 71 45 123 255 
-10.6985 -17.4139 0.735132 70 51 127 255 
-10.638 -17.281 0.538476 72 40 120 255 
-16.8618 -27.3385 0.549446 72 26 108 255 
-22.4951 -36.3855 0.335982 71 13 96 255 
-22.4814 -36.5787 -0.00749357 70 10 93 255 
-22.4972 -36.5174 -0.411737 70 8 92 255 
-22.4139 -36.3119 -0.804451 71 16 99 255 
-22.3974 -36.1993 -1.2039 70 11 94 255 
-18.7993 -30.5518 -1.30284 71 19 101 255 
-18.5419 -30.0737 -1.61052 70 7 90 255 
-18.5476 -30.0365 -1.94276 70 7 90 255 
-17.1503 -27.708 -2.10155 69 5 89 255 
-13.6381 -22.1555 -1.88772 70 8 92 255 
-11.4679 -18.5856 -1.78781 72 20 103 255 
-9.83395 -15.9068 -1.70852 72 20 103 255 
-8.74125 -14.1223 -1.67534 72 23 105 255 
-7.70248 -12.4982 -1.60006 71 19 101 255 
-6.90299 -11.1831 -1.55778 72 33 115 255 
-6.31767 -10.2151 -1.53863 72 35 116 255 
-5.75516 -9.29078 -1.50484 72 31 112 255 
-5.35953 -8.68632 -1.49082 72 33 115 255 
-4.9792 -8.06017 -1.47344 68 57 131 255 
-4.62748 -7.47928 -1.45128 54 93 141 255 
-4.34954 -7.02162 -1.44451 58 83 139 255 
-4.0987 -6.63252 -1.43098 53 95 141 255 
-3.84157 -6.21134 -1.40904 57 86 140 255 
-3.63937 -5.88222 -1.40352 55 91 141 255 
-3.47191 -5.60702 -1.4054 56 88 140 255 
-3.30017 -5.3341 -1.39172 56 88 140 255 
-3.12765 -5.05307 -1.37635 57 86 140 255 
-3.00625 -4.85514 -1.38046 62 74 137 255 
-2.87175 -4.64139 -1.37703 61 78 138 255 
-2.75519 -4.44458 -1.367 58 84 140 255 
-2.6412 -4.26051 -1.36006 60 79 138 255 
-2.53524 -4.09285 -1.3569 61 78 138 255 
-2.42331 -3.91967 -1.35017 62 73 137 255 
-0 -0 0 69 4 87 255 
-0 -0 0 68 2 86 255 
-0 -0 0 68 2 86 255 
-0 -0 0 69 4 87 255 
-0 -0 0 68 2 86 255 
-0 -0 0 68 2 86 255 
-0 -0 0 68 2 86 255 
-0 -0 0 68 2 86 255 
-31.1763 -50.1323 13.023 71 13 96 255 
-31.218 -50.1783 12.4213 70 11 94 255 
-31.2411 -50.1578 11.8398 71 13 96 255 
-31.2241 -50.0896 11.2596 71 13 96 255 
-31.1575 -50.102 10.7647 70 11 94 255 
-0 -0 0 69 4 87 255 
-13.2927 -21.3249 4.08796 72 41 121 255 
-13.2648 -21.2381 3.84063 71 44 122 255 
-13.2347 -21.2735 3.63718 72 36 117 255 
-13.2158 -21.2259 3.3851 72 27 109 255 
-13.2778 -21.2761 3.15492 70 51 127 255 
-11.3744 -18.1973 2.50195 72 38 119 255 
-10.6728 -17.1555 2.19134 71 44 122 255 
-10.6601 -17.1012 1.99364 70 50 126 255 
-10.3775 -16.6224 1.75233 69 56 130 255 
-10.5381 -16.8398 1.59135 70 52 128 255 
-10.5651 -16.9758 1.44378 72 33 115 255 
-10.5129 -16.8586 1.2465 70 50 126 255 
-11.166 -17.8646 1.12252 69 55 129 255 
-11.284 -18.0178 0.931931 71 47 125 255 
-10.821 -17.3734 0.736211 71 47 125 255 
-10.8036 -17.3113 0.541473 72 40 120 255 
-17.0547 -27.2752 0.550267 70 11 94 255 
-22.0578 -35.1935 0.32622 70 11 94 255 
-22.3178 -35.8179 -0.00736564 70 7 90 255 
-21.9734 -35.1819 -0.398192 70 8 92 255 
-21.9839 -35.1312 -0.781268 71 13 96 255 
-21.9584 -35.0078 -1.16873 71 14 97 255 
-19.0366 -30.5164 -1.30629 71 16 99 255 
-18.5095 -29.6129 -1.59189 70 8 92 255 
-18.5058 -29.5616 -1.91935 70 8 92 255 
-17.4807 -27.8584 -2.12105 70 7 90 255 
-13.7659 -22.0587 -1.88663 70 10 93 255 
-11.596 -18.5377 -1.79002 71 17 100 255 
-9.92925 -15.8428 -1.70815 72 24 106 255 
-8.82033 -14.0566 -1.67393 72 22 104 255 
-7.78218 -12.4558 -1.60071 71 19 101 255 
-6.99676 -11.1809 -1.56343 72 28 110 255 
-6.3934 -10.1971 -1.5418 72 33 115 255 
-5.82313 -9.27291 -1.50771 72 35 116 255 
-5.39646 -8.62727 -1.48634 72 33 115 255 
-5.02909 -8.0303 -1.4736 69 56 130 255 
-4.678 -7.45827 -1.45275 52 96 141 255 
-4.38939 -6.9898 -1.44348 58 83 139 255 
-4.14036 -6.60891 -1.43134 52 97 141 255 
-3.88274 -6.19264 -1.41018 58 84 140 255 
-3.68685 -5.87804 -1.40789 57 86 140 255 
-3.51197 -5.59473 -1.40769 57 86 140 255 
-3.33751 -5.32119 -1.39367 56 89 140 255 
-3.15393 -5.02635 -1.37432 59 81 139 255 
-3.01738 -4.80697 -1.372 60 80 139 255 
-2.89347 -4.613 -1.37384 59 82 139 255 
-2.78807 -4.4366 -1.36978 56 89 140 255 
-2.67756 -4.26057 -1.3653 60 79 138 255 
-2.55825 -4.07395 -1.35582 62 74 137 255 
-2.44324 -3.89822 -1.34793 64 69 136 255 
-0 -0 0 68 2 86 255 
-0 -0 0 68 2 86 255 
-0 -0 0 69 4 87 255 
-0 -0 0 68 2 86 255 
-0 -0 0 68 2 86 255 
-0 -0 0 68 2 86 255 
-0 -0 0 69 4 87 255 
-0 -0 0 69 4 87 255 
-31.5057 -49.9756 13.0323 70 11 94 255 
-31.5227 -49.9816 12.4203 71 13 96 255 
-31.5493 -49.9668 11.8402 70 11 94 255 
-31.5335 -49.9012 11.2605 71 13 96 255 
-31.5551 -50.0539 10.7957 70 8 92 255 
-27.8905 -44.2055 9.01896 70 7 90 255 
-13.2904 -21.0327 4.0475 72 32 113 255 
-13.3013 -21.0085 3.8138 71 17 100 255 
-26.9227 -42.6894 7.32679 70 8 92 255 
-0 -0 0 69 4 87 255 
-13.3508 -21.1037 3.14144 72 33 115 255 
-13.347 -21.0645 2.90737 72 23 105 255 
-10.7853 -17.1015 2.19285 72 28 110 255 
-10.7526 -17.0161 1.99138 71 47 125 255 
-10.6609 -16.8454 1.7827 71 46 124 255 
-10.6349 -16.7648 1.59039 72 35 116 255 
-10.7047 -16.9671 1.4486 72 33 115 255 
-10.6685 -16.8765 1.25264 69 55 129 255 
-11.3663 -17.9391 1.13156 71 46 124 255 
-11.4238 -17.9946 0.93434 72 37 118 255 
-10.9301 -17.3109 0.736391 70 50 126 255 
-10.9182 -17.2582 0.541897 67 61 132 255 
-22.1468 -34.9403 0.707636 72 24 106 255 
-22.1859 -34.92 0.324939 71 17 100 255 
-22.0891 -34.971 -0.00721921 71 19 101 255 
-22.1616 -35.0034 -0.397703 72 20 103 255 
-22.1541 -34.9247 -0.779685 71 17 100 255 
-22.1733 -34.8732 -1.16876 71 14 97 255 
-22.072 -34.9035 -1.49985 71 13 96 255 
-18.4284 -29.0845 -1.56954 70 10 93 255 
-18.4461 -29.0681 -1.89463 70 7 90 255 
-17.6594 -27.7632 -2.12202 69 5 89 255 
-13.9708 -22.0842 -1.89611 70 11 94 255 
-11.7464 -18.5243 -1.79565 72 22 104 255 
-10.0337 -15.7933 -1.70943 72 26 108 255 
-8.89734 -13.988 -1.67223 71 17 100 255 
-7.86165 -12.4128 -1.60136 71 16 99 255 
-7.07162 -11.1478 -1.56485 72 35 116 255 
-6.44893 -10.1468 -1.54015 72 26 108 255 
-5.92513 -9.30804 -1.5193 72 32 113 255 
-5.45512 -8.60318 -1.48793 72 37 118 255 
-5.07615 -7.99595 -1.47298 68 57 131 255 
-4.72527 -7.43192 -1.45324 54 92 141 255 
-4.4322 -6.96273 -1.44348 59 82 139 255 
-4.16976 -6.56595 -1.42755 54 92 141 255 
-3.92804 -6.1803 -1.41283 57 86 140 255 
-3.72548 -5.85945 -1.40889 55 91 141 255 
-3.53101 -5.54914 -1.40165 53 95 141 255 
-3.37114 -5.30226 -1.3941 58 84 140 255 
-3.18785 -5.01184 -1.37567 60 80 139 255 
-3.03847 -4.77524 -1.36824 59 81 139 255 
-2.92693 -4.60335 -1.37629 59 82 139 255 
-2.81524 -4.41941 -1.36978 58 84 140 255 
-2.70573 -4.24731 -1.36635 60 79 138 255 
-2.59406 -4.07523 -1.36152 59 82 139 255 
-2.47483 -3.89531 -1.35214 64 69 136 255 
-0 -0 0 68 2 86 255 
-0 -0 0 68 2 86 255 
-0 -0 0 68 2 86 255 
-0 -0 0 69 4 87 255 
-0 -0 0 68 2 86 255 
-0 -0 0 68 2 86 255 
-0 -0 0 68 2 86 255 
-0 -0 0 68 2 86 255 
-31.807 -49.7739 13.0304 70 7 90 255 
-31.8446 -49.812 12.4265 70 10 93 255 
-31.8283 -49.7302 11.8302 71 14 97 255 
-31.8523 -49.7275 11.2652 71 14 97 255 
-31.8399 -49.8253 10.7884 70 7 90 255 
-28.1575 -44.0277 9.01777 70 7 90 255 
-13.4043 -20.9275 4.043 68 58 131 255 
-27.7199 -43.1931 7.87183 70 7 90 255 
-27.1015 -42.3941 7.30452 69 4 87 255 
-13.3482 -20.8634 3.35317 70 8 92 255 
-13.4222 -20.9312 3.12796 72 26 108 255 
-13.4089 -20.8778 2.8929 72 38 119 255 
-10.8794 -17.0183 2.1907 69 53 129 255 
-10.896 -17.011 1.99856 70 51 127 255 
-11.14 -17.3657 1.84496 72 33 115 255 
-13.4094 -20.8545 1.98613 72 40 120 255 
-14.1398 -22.1099 1.89505 71 14 97 255 
-11.3539 -17.7191 1.32033 69 56 130 255 
-11.4233 -17.7867 1.12635 71 47 125 255 
-17.5592 -27.2874 1.42242 72 33 115 255 
-10.9962 -17.1812 0.73373 71 44 122 255 
-11.08 -17.2784 0.544656 71 46 124 255 
-22.3976 -34.861 0.708799 69 5 89 255 
-22.3944 -34.7748 0.324861 69 5 89 255 
-22.3227 -34.8651 -0.00722549 70 11 94 255 
-22.3797 -34.8726 -0.39777 70 7 90 255 
-22.3988 -34.8361 -0.780759 69 4 87 255 
-19.2851 -29.9237 -1.00683 71 14 97 255 
-19.3018 -30.1123 -1.29903 69 5 89 255 
-18.3965 -28.6439 -1.55182 71 13 96 255 
-18.4394 -28.6672 -1.87583 71 13 96 255 
-17.8353 -27.6636 -2.12272 70 7 90 255 
-14.1238 -22.0258 -1.8985 70 10 93 255 
-11.8463 -18.4309 -1.79361 71 17 100 255 
-10.1299 -15.7306 -1.70934 72 23 105 255 
-9.0229 -13.995 -1.67965 72 24 106 255 
-7.92908 -12.351 -1.59963 71 16 99 255 
-7.1372 -11.1 -1.56426 72 36 117 255 
-6.52235 -10.1246 -1.54282 72 26 108 255 
-5.99073 -9.28483 -1.52149 72 29 111 255 
-5.51583 -8.58204 -1.49009 72 37 118 255 
-5.13367 -7.97795 -1.47544 68 58 131 255 
-4.77559 -7.41025 -1.4547 53 94 141 255 
-4.47804 -6.94037 -1.44451 57 85 140 255 
-4.2137 -6.54603 -1.42881 51 98 141 255 
-3.95685 -6.14205 -1.40961 59 81 139 255 
-3.75923 -5.83318 -1.40809 53 95 141 255 
-3.55651 -5.51422 -1.39832 50 100 142 255 
-3.40626 -5.28558 -1.39518 56 88 140 255 
-3.22435 -5.00119 -1.37816 60 80 139 255 
-3.06771 -4.75651 -1.36824 60 80 139 255 
-2.95564 -4.58611 -1.37654 58 84 140 255 
-2.84073 -4.39961 -1.36902 59 81 139 255 
-2.72807 -4.22495 -1.36451 62 74 137 255 
-2.60388 -4.03578 -1.35365 64 69 136 255 
-2.4992 -3.88085 -1.35242 63 72 137 255 
-0 -0 0 68 2 86 255 
-0 -0 0 68 2 86 255 
-0 -0 0 68 2 86 255 
-0 -0 0 68 2 86 255 
-0 -0 0 68 2 86 255 
-0 -0 0 68 2 86 255 
-0 -0 0 68 2 86 255 
-0 -0 0 68 2 86 255 
-32.1166 -49.5852 13.0323 70 8 92 255 
-32.148 -49.6132 12.4258 70 11 94 255 
-32.1585 -49.5734 11.8396 70 11 94 255 
-32.1536 -49.5261 11.2641 70 10 93 255 
-32.1076 -49.5712 10.7758 71 13 96 255 
-0 -0 0 69 4 87 255 
-13.4476 -20.7141 4.01763 70 51 127 255 
-27.9499 -42.9691 7.86213 70 8 92 255 
-29.2247 -45.1031 7.80203 70 7 90 255 
-13.4522 -20.7446 3.34727 72 20 103 255 
-13.4627 -20.7137 3.10774 72 33 115 255 
-13.4875 -20.7194 2.88236 72 35 116 255 
-13.4504 -20.7582 2.68271 72 37 118 255 
-11.0446 -17.0123 2.00664 70 50 126 255 
-11.2122 -17.2444 1.83935 71 45 123 255 
-13.4881 -20.6967 1.97895 72 37 118 255 
-14.2692 -22.0136 1.89426 71 19 101 255 
-15.834 -24.3803 1.82389 72 22 104 255 
-11.67 -17.928 1.13981 72 24 106 255 
-17.765 -27.2386 1.42553 72 31 112 255 
-17.7034 -27.2908 1.17008 72 33 115 255 
-11.2136 -17.2528 0.546009 71 46 124 255 
-0 -0 0 68 1 84 255 
-0 -0 0 68 1 84 255 
-0 -0 -0 68 1 84 255 
-0 -0 -0 68 1 84 255 
-0 -0 -0 68 1 84 255 
-19.2574 -29.4818 -0.995916 71 17 100 255 
-19.2837 -29.6815 -1.28553 71 16 99 255 
-18.3212 -28.1453 -1.53087 71 14 97 255 
-18.3188 -28.0993 -1.846 70 8 92 255 
-18.0839 -27.6747 -2.13206 70 7 90 255 
-14.2761 -21.9655 -1.90081 70 11 94 255 
-11.951 -18.3454 -1.79238 71 17 100 255 
-10.2377 -15.6857 -1.71125 72 22 104 255 
-9.10805 -13.9385 -1.67955 72 28 110 255 
-8.01664 -12.3204 -1.60201 72 20 103 255 
-7.21331 -11.0685 -1.56602 72 37 118 255 
-6.55615 -10.0412 -1.53621 72 23 105 255 
-6.03511 -9.22882 -1.51835 72 26 108 255 
-5.57162 -8.55301 -1.49096 71 42 122 255 
-5.17119 -7.92892 -1.47221 67 61 132 255 
-4.81773 -7.37585 -1.45372 50 101 142 255 
-4.52216 -6.91524 -1.44503 55 90 140 255 
-4.24787 -6.51099 -1.42682 55 91 141 255 
-4.00251 -6.12999 -1.41245 59 82 139 255 
-3.7971 -5.81329 -1.40889 55 91 141 255 
-3.59616 -5.5013 -1.40061 52 96 141 255 
-3.42848 -5.24905 -1.39107 55 91 141 255 
-3.25977 -4.98865 -1.38019 59 82 139 255 
-3.10269 -4.74654 -1.37083 60 79 138 255 
-2.97736 -4.55815 -1.3736 59 81 139 255 
-2.87191 -4.38858 -1.37105 59 82 139 255 
-2.75078 -4.20329 -1.36294 62 76 138 255 
-2.62333 -4.01167 -1.35094 64 70 136 255 
-2.53818 -3.88875 -1.36058 62 74 137 255 
-0 -0 0 68 2 86 255 
-0 -0 0 69 4 87 255 
-0 -0 0 68 2 86 255 
-0 -0 0 68 2 86 255 
-0 -0 0 69 4 87 255 
-0 -0 0 68 2 86 255 
-0 -0 0 68 2 86 255 
-0 -0 0 68 2 86 255 
-32.4267 -49.397 13.0349 70 8 92 255 
-32.4739 -49.4486 12.4343 70 10 93 255 
-32.4357 -49.335 11.83 70 11 94 255 
-32.4742 -49.3542 11.27 71 14 97 255 
-32.4106 -49.3725 10.7756 71 14 97 255 
-0 -0 0 69 4 87 255 
-13.5478 -20.5907 4.00976 72 29 111 255 
-28.0389 -42.5328 7.81361 69 5 89 255 
-13.4807 -20.5279 3.5652 71 19 101 255 
-13.5351 -20.5945 3.3364 72 31 112 255 
-13.5028 -20.4989 3.08789 72 31 112 255 
-13.5329 -20.5127 2.86511 72 29 111 255 
-13.5087 -20.5706 2.66912 72 38 119 255 
-13.5139 -20.5388 2.43234 72 35 116 255 
-11.2109 -17.0131 1.82198 70 50 126 255 
-13.5165 -20.4646 1.96465 72 36 117 255 
-14.4215 -21.9523 1.89657 72 20 103 255 
-16.0234 -24.3435 1.82846 72 26 108 255 
-17.9661 -27.2334 1.73839 72 28 110 255 
-17.9726 -27.1907 1.42877 72 36 117 255 
-17.9051 -27.2343 1.17234 72 35 116 255 
-0 -0 0 68 2 86 255 
-0 -0 0 68 1 84 255 
-0 -0 0 68 1 84 255 
-0 -0 -0 68 2 86 255 
-0 -0 -0 68 2 86 255 
-19.5808 -29.6471 -0.669798 69 4 87 255 
-19.221 -29.0355 -0.984805 72 22 104 255 
-19.2044 -29.1662 -1.26829 71 16 99 255 
-18.2609 -27.6797 -1.51161 70 8 92 255 
-18.2658 -27.6456 -1.82352 70 10 93 255 
-18.1514 -27.4093 -2.12015 70 11 94 255 
-14.4276 -21.9033 -1.90306 70 8 92 255 
-12.0804 -18.2975 -1.79491 71 19 101 255 
-10.3662 -15.6716 -1.71661 72 32 113 255 
-9.21923 -13.9214 -1.68427 72 20 103 255 
-8.09701 -12.2785 -1.60298 72 24 106 255 
-7.27945 -11.0216 -1.56567 72 28 110 255 
-6.63187 -10.0223 -1.53951 72 29 111 255 
-6.09108 -9.19079 -1.51821 72 28 110 255 
-5.63436 -8.53435 -1.49371 70 50 126 255 
-5.22029 -7.89787 -1.47237 67 61 132 255 
-4.85691 -7.3371 -1.45193 52 97 141 255 
-4.56288 -6.8849 -1.44451 58 83 139 255 
-4.29046 -6.4889 -1.42773 49 103 142 255 
-4.04439 -6.11187 -1.41397 54 92 141 255 
-3.83162 -5.78824 -1.40849 58 84 140 255 
-3.63633 -5.48892 -1.40311 53 95 141 255 
-3.45685 -5.22222 -1.38955 57 86 140 255 
-3.29032 -4.96856 -1.38019 55 91 141 255 
-3.13713 -4.73552 -1.37318 60 79 138 255 
-2.99992 -4.53171 -1.37115 58 83 139 255 
-2.89076 -4.35878 -1.36725 62 73 137 255 
-2.77225 -4.1799 -1.36085 59 81 139 255 
-2.65427 -4.00513 -1.35419 61 77 138 255 
-2.56517 -3.87791 -1.36226 62 74 137 255 
-0 -0 0 69 4 87 255 
-0 -0 0 68 2 86 255 
-0 -0 0 68 2 86 255 
-0 -0 0 68 2 86 255 
-0 -0 0 68 2 86 255 
-0 -0 0 68 2 86 255 
-0 -0 0 68 2 86 255 
-0 -0 0 69 4 87 255 
-32.7676 -49.2548 13.0502 70 10 93 255 
-32.8108 -49.2997 12.4472 70 11 94 255 
-32.7628 -49.1726 11.839 71 13 96 255 
-32.8025 -49.1932 11.279 71 14 97 255 
-32.7026 -49.1571 10.7722 71 13 96 255 
-32.7473 -49.1856 10.196 70 8 92 255 
-13.5781 -20.3635 3.98166 70 7 90 255 
-28.9012 -43.2607 7.97977 70 10 93 255 
-13.5384 -20.3426 3.54738 71 46 124 255 
-13.6019 -20.422 3.32191 72 37 118 255 
-13.5958 -20.367 3.08053 72 37 118 255 
-13.6022 -20.345 2.85329 72 35 116 255 
-13.5824 -20.4087 2.65888 72 32 113 255 
-13.5707 -20.352 2.42003 71 42 122 255 
-13.5824 -20.3392 2.18707 72 33 115 255 
-13.6008 -20.32 1.95874 72 32 113 255 
-14.5416 -21.8418 1.89469 72 20 103 255 
-16.1758 -24.2497 1.82884 72 22 104 255 
-18.1395 -27.1326 1.73903 71 14 97 255 
-16.3727 -24.4429 1.28964 71 13 96 255 
-18.0802 -27.1364 1.17288 72 24 106 255 
-16.3347 -24.4694 0.780684 70 11 94 255 
-16.3419 -24.4346 0.50284 71 17 100 255 
-16.3725 -24.4242 0.230944 71 16 99 255 
-16.2853 -24.4331 -0.00512481 70 8 92 255 
-16.3171 -24.4246 -0.281975 71 13 96 255 
-16.3194 -24.3824 -0.553107 71 17 100 255 
-16.3377 -24.3539 -0.829402 71 17 100 255 
-16.3178 -24.4542 -1.06772 71 13 96 255 
-16.3322 -24.4288 -1.33953 71 16 99 255 
-16.3496 -24.4184 -1.61724 71 17 100 255 
-16.329 -24.3318 -1.88981 71 13 96 255 
-14.5656 -21.8202 -1.90356 70 8 92 255 
-12.1719 -18.1924 -1.79189 71 17 100 255 
-10.4782 -15.6316 -1.71925 72 24 106 255 
-9.27786 -13.8249 -1.67945 71 14 97 255 
-8.17938 -12.2393 -1.60439 72 26 108 255 
-7.34804 -10.9783 -1.56591 72 31 112 255 
-6.69656 -9.98632 -1.54028 72 27 109 255 
-6.14846 -9.15489 -1.51849 72 31 112 255 
-5.69157 -8.50702 -1.49501 67 62 133 255 
-5.2857 -7.89114 -1.47713 68 59 132 255 
-4.89689 -7.29979 -1.45047 55 91 141 255 
-4.60174 -6.85186 -1.44348 58 84 140 255 
-4.33183 -6.46491 -1.42827 51 99 141 255 
-4.08291 -6.08857 -1.41435 55 90 140 255 
-3.86215 -5.7573 -1.4067 57 86 140 255 
-3.67376 -5.47219 -1.40457 55 91 141 255 
-3.49644 -5.21226 -1.39259 56 89 140 255 
-3.32129 -4.94908 -1.38041 55 90 140 255 
-3.15475 -4.69923 -1.36824 62 74 137 255 
-3.04388 -4.53738 -1.37849 57 86 140 255 
-2.92339 -4.34979 -1.37003 62 74 137 255 
-2.81184 -4.18364 -1.36765 58 83 139 255 
-2.68094 -3.99196 -1.35528 61 78 138 255 
-2.59159 -3.86608 -1.36367 62 73 137 255 
-0 -0 0 69 4 87 255 
-0 -0 0 68 2 86 255 
-0 -0 0 68 2 86 255 
-0 -0 0 68 2 86 255 
-0 -0 0 68 2 86 255 
-0 -0 0 68 2 86 255 
-0 -0 0 68 2 86 255 
-0 -0 0 68 2 86 255 
-33.0845 -49.0755 13.0562 70 10 93 255 
-33.1297 -49.1226 12.4536 71 13 96 255 
-33.0776 -48.991 11.844 71 13 96 255 
-33.1258 -49.0236 11.2865 70 11 94 255 
-33.0624 -49.0428 10.7914 70 10 93 255 
-13.7225 -20.3392 4.23359 72 31 112 255 
-29.3347 -43.4147 8.52387 70 7 90 255 
-29.1766 -43.0981 7.98266 70 8 92 255 
-13.617 -20.1911 3.53546 66 65 134 255 
-13.6422 -20.2125 3.30139 72 37 118 255 
-13.6905 -20.2388 3.07379 72 41 121 255 
-13.6733 -20.1822 2.84218 72 35 116 255 
-13.6473 -20.236 2.64723 72 40 120 255 
-13.6452 -20.1942 2.41117 72 36 117 255 
-13.6723 -20.2043 2.18155 72 41 121 255 
-13.6575 -20.1363 1.94908 72 35 116 255 
-14.619 -21.6686 1.88742 71 17 100 255 
-16.3924 -24.2509 1.83647 72 24 106 255 
-16.4854 -24.3339 1.56611 72 37 118 255 
-16.5056 -24.3172 1.28832 72 27 109 255 
-16.4318 -24.3372 1.05624 72 31 112 255 
-16.4492 -24.3166 0.779012 72 28 110 255 
-16.4854 -24.3247 0.502652 72 27 109 255 
-16.4816 -24.2637 0.230378 72 28 110 255 
-16.4136 -24.3012 -0.00511818 72 33 115 255 
-16.4426 -24.2885 -0.281563 72 31 112 255 
-16.4625 -24.2727 -0.5529 72 27 109 255 
-16.4733 -24.2333 -0.828723 71 19 101 255 
-16.4009 -24.2551 -1.0634 72 24 106 255 
-16.4454 -24.2744 -1.33657 72 31 112 255 
-16.4341 -24.2218 -1.61086 72 28 110 255 
-16.4651 -24.2122 -1.88833 72 22 104 255 
-14.7093 -21.7452 -1.90487 70 10 93 255 
-12.28 -18.1124 -1.7914 71 13 96 255 
-10.5896 -15.5901 -1.7218 72 20 103 255 
-9.37203 -13.7817 -1.68116 71 16 99 255 
-8.25042 -12.1831 -1.60363 72 28 110 255 
-7.44759 -10.9807 -1.57273 72 29 111 255 
-6.75882 -9.94668 -1.54053 72 26 108 255 
-6.20285 -9.11454 -1.51808 72 24 106 255 
-5.74866 -8.4793 -1.49631 66 65 134 255 
-5.32125 -7.83975 -1.4736 68 59 132 255 
-4.9427 -7.27124 -1.45079 54 93 141 255 
-4.64203 -6.82105 -1.44296 58 84 140 255 
-4.37639 -6.44553 -1.42989 50 102 142 255 
-4.11798 -6.06015 -1.41359 56 88 140 255 
-3.9007 -5.73836 -1.40789 55 91 141 255 
-3.71332 -5.45844 -1.40686 55 91 141 255 
-3.52671 -5.18828 -1.39194 60 79 138 255 
-3.35981 -4.9407 -1.3838 56 89 140 255 
-3.19336 -4.69426 -1.37247 61 78 138 255 
-3.0733 -4.52102 -1.37923 57 85 140 255 
-2.95601 -4.34057 -1.37282 62 76 138 255 
-2.83365 -4.16072 -1.36582 60 80 139 255 
-2.7081 -3.97942 -1.35663 60 80 139 255 
-2.61904 -3.85566 -1.36564 62 76 138 255 
-0 -0 0 68 2 86 255 
-0 -0 0 68 2 86 255 
-0 -0 0 68 2 86 255 
-0 -0 0 68 2 86 255 
-0 -0 0 68 2 86 255 
-0 -0 0 68 2 86 255 
-0 -0 0 68 2 86 255 
-0 -0 0 69 4 87 255 
-33.3965 -48.8885 13.0607 70 11 94 255 
-33.426 -48.9119 12.452 71 13 96 255 
-33.3953 -48.813 11.8502 71 16 99 255 
-33.4337 -48.8308 11.2892 71 13 96 255 
-33.3905 -48.8796 10.8004 70 11 94 255 
-13.802 -20.1887 4.21982 70 52 128 255 
-29.6094 -43.2469 8.52644 70 8 92 255 
-13.6898 -19.9569 3.71192 71 16 99 255 
-13.6675 -20.0001 3.51664 70 52 128 255 
-13.7335 -20.081 3.29361 72 36 117 255 
-13.7505 -20.0612 3.05956 72 35 116 255 
-13.762 -20.0472 2.835 72 33 115 255 
-13.7376 -20.1026 2.64076 72 33 115 255 
-13.7345 -20.06 2.40517 72 40 120 255 
-13.7375 -20.0346 2.17228 71 42 122 255 
-13.7419 -19.9955 1.94357 72 36 117 255 
-14.7438 -21.567 1.88641 72 20 103 255 
-16.6041 -24.2421 1.84349 72 29 111 255 
-16.6598 -24.2693 1.5685 72 31 112 255 
-16.6397 -24.194 1.28719 72 22 104 255 
-16.5802 -24.2351 1.0562 72 24 106 255 
-16.61 -24.2325 0.779569 72 27 109 255 
-16.6162 -24.1968 0.502104 72 24 106 255 
-16.6738 -24.2256 0.230983 71 17 100 255 
-16.5901 -24.2405 -0.00512673 72 27 109 255 
-16.6015 -24.202 -0.281735 72 26 108 255 
-16.6139 -24.1754 -0.552994 72 20 103 255 
-16.6387 -24.1565 -0.829571 71 14 97 255 
-16.567 -24.1796 -1.06453 72 23 105 255 
-16.5884 -24.1648 -1.33611 72 23 105 255 
-16.5779 -24.1139 -1.61042 72 20 103 255 
-16.606 -24.1 -1.8875 71 17 100 255 
-14.8661 -21.6891 -1.90791 70 8 92 255 
-12.3407 -17.9636 -1.78414 71 16 99 255 
-10.7059 -15.5552 -1.72517 72 26 108 255 
-9.42706 -13.6813 -1.67594 71 14 97 255 
-8.33627 -12.1487 -1.6058 72 22 104 255 
-7.49121 -10.9004 -1.56779 72 31 112 255 
-6.79272 -9.86581 -1.53443 72 22 104 255 
-6.25078 -9.06489 -1.51617 72 29 111 255 
-5.80114 -8.44469 -1.49645 65 68 135 255 
-5.36254 -7.79718 -1.47175 68 59 132 255 
-4.99505 -7.25215 -1.45307 56 89 140 255 
-4.6838 -6.79244 -1.44296 60 80 139 255 
-4.41307 -6.4145 -1.42899 49 104 142 255 
-4.1601 -6.04205 -1.41529 56 89 140 255 
-3.93195 -5.70866 -1.4065 59 82 139 255 
-3.74452 -5.43233 -1.40603 58 84 140 255 
-3.56346 -5.17378 -1.39389 55 90 140 255 
-3.3884 -4.91758 -1.38312 55 90 140 255 
-3.23259 -4.68978 -1.37694 56 89 140 255 
-3.09383 -4.4917 -1.37605 57 85 140 255 
-2.98314 -4.32315 -1.37307 61 78 138 255 
-2.84817 -4.12737 -1.36058 60 80 139 255 
-2.74175 -3.9762 -1.36125 57 86 140 255 
-2.63122 -3.82292 -1.35973 61 77 138 255 
-0 -0 0 68 1 84 255 
-0 -0 0 68 2 86 255 
-0 -0 0 68 2 86 255 
-0 -0 0 68 2 86 255 
-0 -0 0 68 2 86 255 
-0 -0 0 68 2 86 255 
-0 -0 0 69 4 87 255 
-0 -0 0 69 4 87 255 
-33.7459 -48.7549 13.0801 70 11 94 255 
-33.7049 -48.6761 12.4444 70 10 93 255 
-33.7405 -48.674 11.8666 71 16 99 255 
-33.7517 -48.6521 11.2955 71 14 97 255 
-33.7116 -48.7054 10.8074 71 17 100 255 
-13.893 -20.0566 4.20996 69 56 130 255 
-0 -0 0 68 2 86 255 
-13.7443 -19.7751 3.69373 71 44 122 255 
-13.7145 -19.8069 3.49739 72 33 115 255 
-13.7515 -19.8448 3.26865 72 37 118 255 
-13.7998 -19.8705 3.04333 72 37 118 255 
-13.8382 -19.8955 2.8255 72 31 112 255 
-13.7944 -19.9223 2.62815 72 38 119 255 
-13.7734 -19.8543 2.3906 71 45 123 255 
-13.7755 -19.8281 2.15901 72 37 118 255 
-13.7794 -19.7889 1.93167 72 37 118 255 
-14.8548 -21.4458 1.88375 72 22 104 255 
-16.7389 -24.1201 1.84198 72 29 111 255 
-18.8611 -27.1179 1.76005 72 29 111 255 
-21.9861 -31.5512 1.68575 71 16 99 255 
-21.9089 -31.6062 1.38328 70 11 94 255 
-21.8853 -31.5123 1.01806 71 13 96 255 
-21.8581 -31.4153 0.654667 71 16 99 255 
-21.9083 -31.4162 0.30082 71 13 96 255 
-21.8659 -31.5324 -0.00669718 70 11 94 255 
-21.8853 -31.4888 -0.368118 71 16 99 255 
-19.8539 -28.5136 -0.655002 71 19 101 255 
-19.3094 -27.6689 -0.954245 71 16 99 255 
-18.982 -27.3431 -1.20891 71 16 99 255 
-18.0756 -25.9881 -1.44303 70 11 94 255 
-18.0884 -25.9683 -1.74165 70 8 92 255 
-18.0657 -25.8772 -2.03533 70 10 93 255 
-15.0337 -21.6475 -1.91232 70 10 93 255 
-12.5224 -17.9906 -1.79442 71 17 100 255 
-10.8109 -15.5031 -1.72671 72 22 104 255 
-9.51196 -13.6248 -1.67614 71 17 100 255 
-8.41236 -12.0997 -1.60613 72 20 103 255 
-7.56022 -10.8575 -1.56826 72 28 110 255 
-6.84973 -9.81906 -1.53367 72 22 104 255 
-6.28756 -8.99956 -1.51166 72 40 120 255 
-5.83758 -8.387 -1.49255 65 66 135 255 
-5.41254 -7.76738 -1.47237 67 61 132 255 
-5.04228 -7.22541 -1.45389 54 92 141 255 
-4.72821 -6.76761 -1.44382 60 80 139 255 
-4.4501 -6.38408 -1.42827 50 101 142 255 
-4.19204 -6.00916 -1.41359 57 85 140 255 
-3.95625 -5.66916 -1.40272 57 85 140 255 
-3.77274 -5.40203 -1.40415 57 86 140 255 
-3.5957 -5.15262 -1.3941 56 89 140 255 
-3.42632 -4.90788 -1.38628 58 84 140 255 
-3.27076 -4.6834 -1.38093 57 85 140 255 
-3.11023 -4.45673 -1.37115 59 81 139 255 
-3.00573 -4.29921 -1.3713 59 82 139 255 
-2.88229 -4.12247 -1.36477 55 90 140 255 
-2.7672 -3.96088 -1.36179 59 81 139 255 
-2.65682 -3.80985 -1.36086 60 79 138 255 
-0 -0 0 68 2 86 255 
-0 -0 0 68 2 86 255 
-0 -0 0 68 2 86 255 
-0 -0 0 68 2 86 255 
-0 -0 0 68 2 86 255 
-0 -0 0 69 4 87 255 
-0 -0 0 68 2 86 255 
-0 -0 0 68 2 86 255 
-34.0175 -48.5086 13.0698 70 11 94 255 
-34.0434 -48.5261 12.4592 70 10 93 255 
-34.0622 -48.4998 11.8748 71 13 96 255 
-34.0491 -48.4433 11.2953 71 14 97 255 
-34.0301 -48.5266 10.8139 70 11 94 255 
-13.9462 -19.8718 4.18904 71 44 122 255 
-34.2028 -48.6638 9.67645 69 5 89 255 
-13.8306 -19.6411 3.68448 68 57 131 255 
-13.7943 -19.6632 3.4869 71 13 96 255 
-13.8456 -19.7212 3.26221 72 36 117 255 
-13.8306 -19.6564 3.02349 72 37 118 255 
-13.8536 -19.6592 2.80396 72 37 118 255 
-13.8622 -19.76 2.6179 72 33 115 255 
-13.828 -19.6742 2.37908 72 40 120 255 
-13.8504 -19.6772 2.1518 71 42 122 255 
-13.8678 -19.6576 1.92712 72 40 120 255 
-14.9329 -21.2783 1.87705 71 17 100 255 
-16.8337 -23.9418 1.83622 72 22 104 255 
-19.0708 -27.0637 1.76409 72 29 111 255 
-21.8987 -31.0183 1.66443 71 13 96 255 
-21.9146 -31.2037 1.37152 72 20 103 255 
-21.8579 -31.0643 1.0079 71 13 96 255 
-21.8656 -31.0183 0.649176 71 17 100 255 
-21.8398 -30.9121 0.29727 70 11 94 255 
-21.8526 -31.1039 -0.00663452 71 19 101 255 
-21.8316 -31.004 -0.36401 71 14 97 255 
-19.8718 -28.169 -0.649875 72 20 103 255 
-19.4413 -27.4968 -0.952407 72 26 108 255 
-18.9402 -26.9285 -1.1957 71 13 96 255 
-18.0846 -25.6636 -1.43115 71 19 101 255 
-18.0666 -25.6006 -1.72439 70 7 90 255 
-18.0945 -25.5825 -2.02085 70 10 93 255 
-15.176 -21.5687 -1.91355 70 11 94 255 
-12.6498 -17.9379 -1.79687 71 19 101 255 
-10.9512 -15.5007 -1.7339 72 24 106 255 
-9.59711 -13.5687 -1.67644 71 16 99 255 
-8.49846 -12.065 -1.6084 72 20 103 255 
-7.61926 -10.8004 -1.56673 72 28 110 255 
-6.95507 -9.84084 -1.54371 72 23 105 255 
-6.32206 -8.9317 -1.50675 72 27 109 255 
-5.90319 -8.37125 -1.49616 66 65 134 255 
-5.46124 -7.73563 -1.47267 67 62 133 255 
-5.08766 -7.19594 -1.45421 53 94 141 255 
-4.77363 -6.7441 -1.44503 57 86 140 255 
-4.49259 -6.36147 -1.42935 49 103 142 255 
-4.23563 -5.99295 -1.41586 56 88 140 255 
-3.98643 -5.63838 -1.40113 60 80 139 255 
-3.80469 -5.37718 -1.40373 57 86 140 255 
-3.63458 -5.14082 -1.39692 54 93 141 255 
-3.45356 -4.88279 -1.38515 56 88 140 255 
-3.28428 -4.64182 -1.37459 58 83 139 255 
-3.1476 -4.45181 -1.37556 59 82 139 255 
-3.02646 -4.27279 -1.36877 63 71 136 255 
