ply
format ascii 1.0
comment VTK generated PLY File
obj_info vtkPolyData points and polygons: vtk4.0
element vertex 1240
property float x
property float y
property float z
property uchar red
property uchar green
property uchar blue
property uchar alpha
element face 0
property list uchar int vertex_indices
end_header
0 0 0 69 4 87 255 
0 0 0 68 2 86 255 
0 0 0 68 2 86 255 
80.4421 30.4245 1.47117 69 4 87 255 
80.3442 30.2901 0.674391 69 5 89 255 
0 0 -0 69 4 87 255 
37.1791 14.0836 -0.381653 70 8 92 255 
25.3783 9.58835 -0.511434 70 11 94 255 
19.3294 7.27957 -0.584155 72 29 111 255 
17.6152 6.6836 -0.684267 72 27 109 255 
15.9626 6.04036 -0.778005 71 47 125 255 
13.3727 5.04977 -0.786667 72 37 118 255 
12.1227 4.56308 -0.835369 72 38 119 255 
11.064 4.19573 -0.858572 68 57 131 255 
10.2877 3.88884 -0.900352 62 74 137 255 
9.56333 3.60557 -0.93373 67 62 133 255 
8.74369 3.29118 -0.942397 66 64 134 255 
8.15258 3.08676 -0.950089 62 76 138 255 
7.66299 2.89513 -0.970996 58 84 140 255 
7.26489 2.73756 -0.994535 58 83 139 255 
6.79688 2.55569 -0.999865 61 77 138 255 
6.43552 2.43279 -1.00491 58 84 140 255 
6.12371 2.31114 -1.01795 56 89 140 255 
5.83737 2.19848 -1.02928 55 90 140 255 
5.55888 2.09019 -1.03863 57 85 140 255 
5.3072 2.00203 -1.04105 51 99 141 255 
5.0903 1.91808 -1.04949 52 97 141 255 
4.85992 1.83035 -1.05373 62 76 138 255 
4.67404 1.75841 -1.06421 62 73 137 255 
4.50865 1.69811 -1.06897 61 77 138 255 
4.33268 1.63088 -1.0722 60 80 139 255 
4.20576 1.58231 -1.08628 60 79 138 255 
4.02704 1.51661 -1.08567 64 69 136 255 
3.88816 1.46054 -1.08576 63 71 136 255 
3.76027 1.41241 -1.08983 65 66 135 255 
3.65141 1.37302 -1.09947 64 69 136 255 
3.51912 1.32672 -1.1019 67 62 133 255 
11.3307 4.22876 3.63301 69 53 129 255 
8.36099 3.1286 2.58176 63 71 136 255 
9.72541 3.64312 2.89379 51 99 141 255 
9.84013 3.68587 2.82145 50 101 142 255 
14.6978 5.49415 4.0726 71 42 122 255 
10.0924 3.77446 2.68254 50 101 142 255 
11.5498 4.31734 2.94432 72 29 111 255 
11.404 4.26033 2.78817 66 65 134 255 
11.3992 4.26338 2.68474 57 86 140 255 
11.3924 4.25839 2.55634 72 31 112 255 
14.4904 5.40788 3.09895 72 33 115 255 
14.3465 5.34819 2.92071 68 59 132 255 
15.0155 5.6159 2.92495 72 38 119 255 
14.6905 5.48829 2.70598 70 51 127 255 
23.3033 8.68766 4.04589 72 37 118 255 
23.2954 8.66113 3.81198 72 38 119 255 
23.2347 8.68532 3.60097 72 35 116 255 
27.3252 10.2031 3.94884 70 10 93 255 
23.8936 8.89349 3.20721 72 36 117 255 
23.8592 8.8613 2.96736 72 35 116 255 
23.6962 8.85783 2.74374 72 22 104 255 
25.8019 9.61891 2.72425 71 13 96 255 
24.069 8.95398 2.29644 72 26 108 255 
24.7675 9.1839 2.11605 71 13 96 255 
24.7895 9.26158 1.91083 71 16 99 255 
27.2235 10.1435 1.8227 71 17 100 255 
27.1179 10.0721 1.54137 72 22 104 255 
27.0802 10.0307 1.2659 70 11 94 255 
27.1987 10.1509 1.04423 70 10 93 255 
27.1989 10.1235 0.7701 71 14 97 255 
27.2441 10.1135 0.49711 72 23 105 255 
27.2505 10.083 0.228211 72 20 103 255 
27.1937 10.1436 -0.00506564 72 24 106 255 
27.2107 10.1171 -0.278683 72 20 103 255 
25.3551 9.40221 -0.509794 71 13 96 255 
19.4093 7.174 -0.585229 72 22 104 255 
17.6428 6.5705 -0.683759 72 37 118 255 
15.9826 5.93604 -0.777186 70 48 126 255 
13.4034 4.96762 -0.786667 72 28 110 255 
12.1674 4.49484 -0.836527 70 52 128 255 
11.1288 4.14238 -0.861612 66 65 134 255 
10.3245 3.83049 -0.901495 60 80 139 255 
9.57126 3.54164 -0.932365 66 64 134 255 
8.78332 3.24471 -0.944504 69 55 129 255 
8.17603 3.03841 -0.950631 58 84 140 255 
7.68899 2.85117 -0.972055 61 78 138 255 
7.25736 2.68399 -0.991231 62 74 137 255 
6.81244 2.51394 -0.999865 62 76 138 255 
6.46331 2.39808 -1.00693 57 86 140 255 
6.14148 2.2749 -1.01856 56 89 140 255 
5.83502 2.15681 -1.02651 51 98 141 255 
5.59563 2.06491 -1.04311 58 83 139 255 
5.32584 1.97182 -1.04232 53 95 141 255 
5.11487 1.89158 -1.05214 50 102 142 255 
4.88485 1.80559 -1.05671 55 91 141 255 
4.69851 1.73478 -1.06734 62 76 138 255 
4.52448 1.67244 -1.07027 63 72 137 255 
4.36363 1.61202 -1.07739 61 77 138 255 
4.19168 1.54772 -1.08017 59 81 139 255 
4.03627 1.49187 -1.08567 62 73 137 255 
3.90794 1.44067 -1.08879 63 72 137 255 
3.76705 1.38865 -1.08931 67 62 133 255 
3.65886 1.35025 -1.0992 66 64 134 255 
3.49299 1.29245 -1.09122 68 59 132 255 
9.74669 3.5696 3.11804 57 85 140 255 
8.37192 3.07426 2.57926 64 70 136 255 
9.77471 3.59335 2.90184 50 102 142 255 
9.86437 3.62609 2.82197 51 98 141 255 
10.0877 3.70047 2.78885 58 84 140 255 
10.1181 3.71347 2.68326 72 24 106 255 
14.6689 5.38093 3.73098 72 26 108 255 
24.8934 9.12607 6.0724 72 20 103 255 
11.3958 4.18259 2.67785 72 41 121 255 
11.4321 4.19346 2.55942 60 80 139 255 
11.4518 4.194 2.44356 62 74 137 255 
14.3135 5.2361 2.90741 70 48 126 255 
14.5741 5.3491 2.83252 67 62 133 255 
14.6231 5.36107 2.68744 62 76 138 255 
23.7538 8.68999 4.11477 72 33 115 255 
23.4948 8.57156 3.83593 72 40 120 255 
23.3322 8.55895 3.60787 72 29 111 255 
25.5226 9.35197 3.67999 71 13 96 255 
23.9496 8.74739 3.20746 72 37 118 255 
23.9393 8.72426 2.9706 71 17 100 255 
23.7501 8.71226 2.74374 72 26 108 255 
25.3829 9.28571 2.67394 71 17 100 255 
25.1742 9.18969 2.39647 72 31 112 255 
24.9255 9.06891 2.12475 72 24 106 255 
24.8908 9.12578 1.91428 72 35 116 255 
24.9063 9.10642 1.66378 71 19 101 255 
27.2008 9.91335 1.54259 72 23 105 255 
27.2586 9.90705 1.27138 72 20 103 255 
27.2502 9.98004 1.04384 72 20 103 255 
27.2511 9.95297 0.769834 71 19 101 255 
27.3094 9.94755 0.497179 71 13 96 255 
27.3147 9.91664 0.228234 70 11 94 255 
27.247 9.97349 -0.00506407 71 16 99 255 
27.2845 9.95438 -0.278808 70 11 94 255 
25.0534 9.11586 -0.502594 70 7 90 255 
19.4568 7.05613 -0.585342 72 23 105 255 
17.5899 6.42817 -0.680166 72 35 116 255 
15.9511 5.81323 -0.773907 70 51 127 255 
13.4524 4.89211 -0.787766 72 31 112 255 
12.2144 4.42724 -0.837879 70 50 126 255 
11.1615 4.07675 -0.862191 68 58 131 255 
10.3384 3.76366 -0.900679 60 79 138 255 
9.60685 3.48794 -0.93373 64 69 136 255 
8.80026 3.18974 -0.944203 69 56 130 255 
8.20853 2.9933 -0.952256 59 81 139 255 
7.70914 2.80495 -0.972408 58 83 139 255 
7.26344 2.63568 -0.989833 60 79 138 255 
6.8268 2.47175 -0.999728 64 70 136 255 
6.46954 2.35533 -1.00563 54 92 141 255 
6.17204 2.24325 -1.02133 59 82 139 255 
5.85742 2.12433 -1.02814 52 97 141 255 
5.58226 2.02115 -1.03829 58 84 140 255 
5.36095 1.9475 -1.04683 50 102 142 255 
5.11161 1.8548 -1.04911 55 90 140 255 
4.91887 1.78394 -1.06169 62 76 138 255 
4.7155 1.70825 -1.0688 64 70 136 255 
4.54017 1.64665 -1.07157 61 77 138 255 
4.39084 1.59153 -1.08168 61 77 138 255 
4.20841 1.52462 -1.08205 59 82 139 255 
4.04079 1.46542 -1.08445 62 76 138 255 
3.93399 1.42292 -1.0936 59 82 139 255 
3.79184 1.37142 -1.09402 64 69 136 255 
3.65532 1.32352 -1.09567 66 65 134 255 
3.51619 1.27656 -1.096 68 57 131 255 
8.41825 3.02463 2.68707 72 37 118 255 
8.43491 3.03879 2.59287 56 89 140 255 
9.82648 3.54409 2.9107 56 88 140 255 
10.1117 3.64675 2.88628 57 85 140 255 
14.6776 5.28223 4.04874 71 42 122 255 
12.236 4.40577 3.2377 72 40 120 255 
10.4295 3.75337 2.6468 71 46 124 255 
12.0048 4.31767 2.9219 72 40 120 255 
11.6978 4.21217 2.74269 72 29 111 255 
14.7255 5.29927 3.28942 62 74 137 255 
11.4727 4.12199 2.44258 71 44 122 255 
11.5153 4.13254 2.33383 64 69 136 255 
11.543 4.1564 2.23841 70 50 126 255 
14.5361 5.22822 2.66551 68 58 131 255 
24.418 8.76346 4.22043 72 23 105 255 
23.9034 8.5548 3.894 72 33 115 255 
15.1127 5.43884 2.33169 65 68 135 255 
15.1286 5.43834 2.17646 72 36 117 255 
24.0093 8.60262 3.20834 72 27 109 255 
23.8754 8.53541 2.95613 72 29 111 255 
23.8471 8.58219 2.7488 72 28 110 255 
26.1054 9.36879 2.74394 71 16 99 255 
25.1476 9.0055 2.38863 72 29 111 255 
24.9638 8.90977 2.12332 72 29 111 255 
24.9154 8.96175 1.91191 72 33 115 255 
26.8669 9.63679 1.79076 71 16 99 255 
27.1821 9.71802 1.53812 71 14 97 255 
56.709 20.2176 2.63914 69 4 87 255 
0 0 0 68 2 86 255 
55.7799 19.9855 1.57227 69 4 87 255 
53.0273 18.9476 0.963246 70 7 90 255 
53.0365 18.8875 0.442182 70 7 90 255 
52.6644 18.9116 -0.00976634 69 5 89 255 
38.1381 13.6496 -0.388853 70 8 92 255 
26.058 9.30075 -0.521593 70 10 93 255 
20.0487 7.13193 -0.601824 72 24 106 255 
17.6741 6.33631 -0.681908 72 29 111 255 
16.1501 5.77376 -0.781831 71 46 124 255 
13.469 4.80478 -0.786996 72 35 116 255 
12.2442 4.35321 -0.838072 70 51 127 255 
11.1779 4.00516 -0.861539 67 62 133 255 
10.3679 3.7025 -0.90125 64 70 136 255 
9.62901 3.42926 -0.933821 66 65 134 255 
8.8131 3.13335 -0.9435 70 52 128 255 
8.24359 2.9489 -0.954207 61 77 138 255 
7.72714 2.75793 -0.972526 61 77 138 255 
7.28788 2.59406 -0.990977 60 80 139 255 
6.82504 2.42385 -0.997273 63 72 137 255 
6.49318 2.31892 -1.00708 58 84 140 255 
6.18755 2.206 -1.02164 58 84 140 255 
5.86942 2.08802 -1.02798 51 98 141 255 
5.58342 1.9829 -1.03622 59 81 139 255 
5.34593 1.905 -1.0416 53 95 141 255 
5.12659 1.82472 -1.04987 55 90 140 255 
4.9288 1.7534 -1.06149 59 81 139 255 
4.73234 1.68158 -1.07026 66 65 134 255 
4.54559 1.61712 -1.07049 62 74 137 255 
4.39593 1.56292 -1.08055 59 82 139 255 
4.21494 1.49779 -1.08134 65 66 135 255 
4.05976 1.44418 -1.08714 62 73 137 255 
3.94995 1.40134 -1.09562 59 82 139 255 
3.79472 1.34619 -1.09245 65 68 135 255 
3.65611 1.29849 -1.0935 65 66 135 255 
3.54023 1.26075 -1.10106 66 64 134 255 
9.71569 3.42363 3.09445 57 86 140 255 
11.3917 4.0252 3.49411 72 37 118 255 
9.89889 3.50172 2.92573 70 52 128 255 
10.1685 3.59688 2.89614 69 55 129 255 
10.1488 3.58219 2.79337 59 82 139 255 
10.205 3.60389 2.69438 69 55 129 255 
12.2354 4.31865 3.09831 72 23 105 255 
12.0853 4.26306 2.93507 66 63 133 255 
11.9039 4.20405 2.78491 66 64 134 255 
14.7209 5.19578 3.2812 72 33 115 255 
14.6984 5.17935 3.12253 71 44 122 255 
14.8946 5.24236 3.01215 71 46 124 255 
11.5719 4.08681 2.23913 63 72 137 255 
11.6238 4.10039 2.12683 71 47 125 255 
14.7169 5.18008 2.53813 72 29 111 255 
15.0187 5.27131 2.44131 71 42 122 255 
15.2121 5.3694 2.34189 64 70 136 255 
23.7943 8.38896 3.41569 72 28 110 255 
24.0926 8.46599 3.21246 72 24 106 255 
23.9161 8.38481 2.95474 71 17 100 255 
28.0608 9.90459 3.22744 71 19 101 255 
25.4649 8.96295 2.67079 72 24 106 255 
25.1807 8.84343 2.38658 72 35 116 255 
25.0001 8.75017 2.1218 72 32 113 255 
24.9501 8.80173 1.91039 71 17 100 255 
26.9377 9.47606 1.79158 69 5 89 255 
27.2337 9.54841 1.53769 70 8 92 255 
0 0 0 68 2 86 255 
0 0 0 68 2 86 255 
59.5164 20.9131 1.67394 69 4 87 255 
78.8688 27.6368 1.42955 69 4 87 255 
0 0 0 68 2 86 255 
0 0 -0 68 2 86 255 
38.0183 13.3441 -0.386789 70 7 90 255 
26.7015 9.34614 -0.533317 70 11 94 255 
20.2337 7.05817 -0.606064 72 24 106 255 
17.3507 6.10045 -0.667971 72 32 113 255 
16.2013 5.68018 -0.782605 70 48 126 255 
13.5011 4.72304 -0.787161 72 35 116 255 
12.3036 4.2895 -0.840324 68 57 131 255 
11.2286 3.94576 -0.863566 65 66 135 255 
10.3707 3.6319 -0.899536 62 73 137 255 
9.64235 3.36749 -0.933093 65 66 135 255 
8.8594 3.08871 -0.946411 68 58 131 255 
8.24745 2.89333 -0.952581 61 78 138 255 
7.75141 2.71309 -0.973468 61 78 138 255 
7.32052 2.55518 -0.993264 59 81 139 255 
6.86504 2.39072 -1.00096 61 77 138 255 
6.51289 2.281 -1.00794 57 86 140 255 
6.19817 2.16701 -1.02118 55 91 141 255 
5.89516 2.05651 -1.03026 51 99 141 255 
5.62339 1.95832 -1.04139 53 94 141 255 
5.3668 1.8754 -1.0434 55 90 140 255 
5.1414 1.79452 -1.05062 54 93 141 255 
4.93762 1.72248 -1.06109 55 90 140 255 
4.70563 1.63964 -1.06192 63 72 137 255 
4.5545 1.58888 -1.07027 63 71 136 255 
4.39716 1.53303 -1.07852 58 83 139 255 
4.20202 1.46422 -1.0757 62 73 137 255 
4.08777 1.42595 -1.09228 60 79 138 255 
3.97126 1.38153 -1.09916 58 84 140 255 
3.80656 1.32415 -1.0935 64 69 136 255 
3.67037 1.27825 -1.0954 65 66 135 255 
3.54699 1.23869 -1.10078 66 64 134 255 
11.604 4.00915 3.68796 72 40 120 255 
10.1599 3.51998 3.10961 67 61 132 255 
10.0476 3.48511 2.96331 72 41 121 255 
10.0973 3.50214 2.86969 57 85 140 255 
10.4495 3.61641 2.86999 66 64 134 255 
10.3589 3.58693 2.72917 68 58 131 255 
9.47017 3.27742 2.39295 69 53 129 255 
11.7925 4.07858 2.85782 72 31 112 255 
14.6581 5.07579 3.4219 71 46 124 255 
12.0317 4.16379 2.67605 70 48 126 255 
12.0164 4.15156 2.54729 72 29 111 255 
14.9525 5.15984 3.0174 72 33 115 255 
11.5959 4.0154 2.23895 72 22 104 255 
11.6441 4.02738 2.12598 58 84 140 255 
14.3798 4.96249 2.47471 71 47 125 255 
15.1274 5.20543 2.45374 72 29 111 255 
15.1606 5.24683 2.32896 72 23 105 255 
24.2612 8.38655 3.47526 72 20 103 255 
23.8542 8.21814 3.17389 72 29 111 255 
24.5598 8.44163 3.02781 71 14 97 255 
27.1627 9.40058 3.11746 70 11 94 255 
25.8458 8.91918 2.70495 71 13 96 255 
25.2063 8.67903 2.38391 72 28 110 255 
25.0354 8.59046 2.12028 71 17 100 255 
25.1573 8.70162 1.92213 70 11 94 255 
26.5349 9.1518 1.76102 72 20 103 255 
0 0 0 68 2 86 255 
51.6623 17.7069 2.39399 69 4 87 255 
59.23 20.4639 2.25403 69 5 89 255 
0 0 0 69 4 87 255 
78.5395 26.9814 1.42056 69 5 89 255 
78.5696 26.8986 0.652259 69 5 89 255 
54.5344 18.8309 -0.0100695 70 7 90 255 
38.6327 13.2941 -0.392203 69 5 89 255 
26.9551 9.24963 -0.537237 70 10 93 255 
20.6587 7.06455 -0.617486 72 24 106 255 
17.7628 6.12317 -0.68238 72 36 117 255 
16.2037 5.56962 -0.781056 72 38 119 255 
13.5902 4.66084 -0.790678 72 38 119 255 
12.3089 4.20682 -0.838908 69 53 129 255 
11.246 3.87451 -0.863059 67 62 133 255 
10.3909 3.56755 -0.899373 66 65 134 255 
9.67791 3.31342 -0.934549 62 76 138 255 
8.87066 3.03172 -0.945608 68 59 132 255 
8.25377 2.83879 -0.951281 63 72 137 255 
7.79234 2.67386 -0.976528 62 76 138 255 
7.32667 2.507 -0.991993 63 72 137 255 
6.87864 2.34823 -1.00082 62 74 137 255 
6.51554 2.23713 -1.00621 59 82 139 255 
6.19172 2.12221 -1.01795 58 83 139 255 
5.90767 2.0203 -1.03026 53 94 141 255 
5.62971 1.92187 -1.04036 54 93 141 255 
5.39589 1.8485 -1.04683 52 97 141 255 
5.14581 1.76072 -1.0493 58 84 140 255 
4.94346 1.69056 -1.0601 54 92 141 255 
4.74244 1.6199 -1.06796 64 70 136 255 
4.56416 1.5609 -1.07027 61 78 138 255 
4.40464 1.5054 -1.07807 60 79 138 255 
4.20817 1.43747 -1.075 62 74 137 255 
4.0836 1.39644 -1.08885 65 68 135 255 
3.97234 1.35464 -1.09714 58 84 140 255 
3.79451 1.29391 -1.08773 63 72 137 255 
3.68361 1.25757 -1.09703 65 68 135 255 
3.55997 1.21877 -1.10246 69 56 130 255 
8.59496 2.91063 2.72591 69 53 129 255 
10.224 3.4721 3.12267 52 97 141 255 
10.1126 3.43828 2.97619 61 77 138 255 
10.0985 3.43328 2.86398 50 100 142 255 
10.3148 3.49905 2.82703 60 80 139 255 
9.83678 3.33867 2.58615 61 77 138 255 
9.39799 3.188 2.36972 53 95 141 255 
10.7188 3.63373 2.59216 71 45 123 255 
11.3471 3.85144 2.64338 65 66 135 255 
14.3822 4.87862 3.19213 71 17 100 255 
12.0286 4.07334 2.54454 72 36 117 255 
11.6443 3.93845 2.34489 71 44 122 255 
14.3982 4.88706 2.77418 72 35 116 255 
11.6677 3.95554 2.12581 69 56 130 255 
11.75 3.97441 2.01789 66 65 134 255 
15.1553 5.11125 2.45313 72 41 121 255 
15.23 5.16642 2.33471 72 33 115 255 
24.163 8.18696 3.45393 72 31 112 255 
23.9963 8.10273 3.18612 72 36 117 255 
24.0595 8.10496 2.95995 72 31 112 255 
24.8135 8.41741 2.84186 72 22 104 255 
24.4861 8.28214 2.55727 72 27 109 255 
25.0996 8.47038 2.36886 72 20 103 255 
25.2057 8.4764 2.13026 72 26 108 255 
24.8806 8.43533 1.897 72 24 106 255 
24.919 8.42373 1.65032 72 24 106 255 
24.7767 8.34698 1.39308 69 5 89 255 
50.2699 16.8857 2.32462 69 5 89 255 
0 0 0 68 1 84 255 
0 0 0 68 1 84 255 
78.7614 26.5185 1.4216 69 5 89 255 
0 0 0 69 5 89 255 
54.9937 18.6126 -0.010133 70 7 90 255 
39.862 13.4441 -0.403837 69 4 87 255 
27.3714 9.20517 -0.544399 71 13 96 255 
20.8135 6.97514 -0.620822 71 16 99 255 
17.6742 5.97152 -0.677553 72 32 113 255 
16.2281 5.4669 -0.780601 71 45 123 255 
13.4899 4.5341 -0.783205 66 63 133 255 
12.3421 4.13375 -0.839423 71 46 124 255 
11.2658 3.80416 -0.862769 67 62 133 255 
10.4173 3.50531 -0.899781 62 73 137 255 
9.72071 3.26158 -0.936732 56 88 140 255 
8.87966 2.97408 -0.944604 68 59 132 255 
8.25596 2.78301 -0.949548 65 68 135 255 
7.80577 2.62505 -0.976175 60 79 138 255 
7.34568 2.46326 -0.992502 61 78 138 255 
6.89762 2.30755 -1.0015 62 76 138 255 
6.52351 2.19522 -1.00534 58 84 140 255 
6.21961 2.08921 -1.02041 57 86 140 255 
5.91995 1.98402 -1.03026 54 93 141 255 
5.63392 1.88479 -1.03898 52 96 141 255 
5.40713 1.81535 -1.04683 54 92 141 255 
5.16769 1.73285 -1.05157 57 86 140 255 
4.94444 1.65708 -1.05811 54 93 141 255 
4.7458 1.5886 -1.0665 62 74 137 255 
4.57551 1.53349 -1.0707 59 82 139 255 
4.41841 1.47989 -1.07919 60 80 139 255 
4.22428 1.41409 -1.07688 61 77 138 255 
4.0976 1.37321 -1.09032 63 72 137 255 
3.96589 1.32533 -1.09309 62 73 137 255 
3.82435 1.27795 -1.09402 62 74 137 255 
3.67757 1.23036 -1.09296 64 69 136 255 
3.57284 1.19874 -1.10415 67 62 133 255 
8.59629 2.85241 2.72073 54 93 141 255 
11.699 3.89309 3.56579 72 38 119 255 
10.1198 3.3716 2.97216 64 70 136 255 
9.98104 3.32515 2.82482 53 95 141 255 
10.337 3.436 2.82728 68 58 131 255 
9.45377 3.14411 2.48033 51 98 141 255 
9.42938 3.13427 2.37274 50 102 142 255 
14.2626 4.73773 3.44207 72 33 115 255 
14.4469 4.80492 3.35857 72 23 105 255 
12.9121 4.29178 2.85994 66 63 133 255 
13.4986 4.47901 2.84965 72 31 112 255 
11.7746 3.90216 2.36625 67 62 133 255 
11.8123 3.92869 2.27125 71 47 125 255 
14.8031 4.91744 2.69152 72 26 108 255 
11.7685 3.90038 2.01692 58 84 140 255 
15.1554 5.00793 2.44813 70 52 128 255 
15.3431 5.10003 2.3472 62 76 138 255 
24.1225 8.00857 3.44105 72 41 121 255 
23.9834 7.93477 3.17788 72 37 118 255 
23.9551 7.90643 2.94107 71 19 101 255 
24.326 8.08594 2.78029 71 17 100 255 
24.5355 8.13143 2.55718 72 23 105 255 
28.9073 9.55821 2.72263 71 14 97 255 
25.4883 8.39769 2.14975 72 24 106 255 
25.0426 8.31929 1.90543 72 27 109 255 
26.1981 8.67737 1.73147 71 19 101 255 
39.0467 12.8881 2.19092 69 5 89 255 
49.7026 16.3564 2.2937 70 7 90 255 
59.8788 19.8689 2.26927 69 5 89 255 
0 0 0 68 2 86 255 
79.7895 26.3207 1.43722 69 5 89 255 
0 0 0 69 4 87 255 
55.1325 18.2833 -0.0101377 69 5 89 255 
42.3136 13.9824 -0.427796 69 5 89 255 
27.6173 9.09962 -0.548169 71 17 100 255 
21.4429 7.04 -0.638293 72 20 103 255 
17.6773 5.85197 -0.676282 72 31 112 255 
16.0251 5.28926 -0.769262 71 44 122 255 
13.4748 4.43719 -0.780732 70 50 126 255 
12.3672 4.05795 -0.839423 71 47 125 255 
11.3098 3.74185 -0.864362 66 65 134 255 
10.4452 3.44351 -0.900352 59 82 139 255 
9.74622 3.20374 -0.937278 57 85 140 255 
8.92799 2.92946 -0.947816 68 59 132 255 
8.28515 2.73635 -0.950956 64 70 136 255 
7.8255 2.57835 -0.976646 62 76 138 255 
7.35783 2.41721 -0.99212 64 70 136 255 
6.906 2.26334 -1.00068 62 74 137 255 
6.5331 2.15391 -1.00476 57 86 140 255 
6.24639 2.05564 -1.02271 58 83 139 255 
5.93108 1.94735 -1.03009 50 102 142 255 
5.63883 1.84804 -1.03777 54 92 141 255 
5.39948 1.77599 -1.04322 52 96 141 255 
5.18849 1.70448 -1.05366 55 91 141 255 
4.96104 1.62885 -1.0595 52 97 141 255 
4.75825 1.56036 -1.06713 66 65 134 255 
4.58854 1.5066 -1.07157 61 77 138 255 
4.44222 1.45761 -1.0828 59 82 139 255 
4.21164 1.38118 -1.07147 61 78 138 255 
4.09582 1.34471 -1.08763 64 70 136 255 
3.97027 1.29977 -1.09208 63 71 136 255 
3.83212 1.25446 -1.09402 62 73 137 255 
3.6823 1.20687 -1.09214 63 72 137 255 
3.5856 1.17859 -1.10584 63 72 137 255 
11.2614 3.66019 3.55706 71 47 125 255 
11.8861 3.87452 3.61552 72 24 106 255 
10.4425 3.40807 3.06074 54 92 141 255 
10.0591 3.28273 2.84116 61 78 138 255 
10.3385 3.36622 2.82201 56 89 140 255 
9.51625 3.10017 2.49169 45 112 142 255 
9.45583 3.07876 2.3746 63 71 136 255 
9.90607 3.22324 2.38587 72 23 105 255 
9.96362 3.24607 2.31164 71 42 122 255 
13.0638 4.25337 2.88771 70 50 126 255 
11.714 3.80723 2.46793 65 66 135 255 
11.7609 3.81771 2.35876 72 33 115 255 
11.8296 3.854 2.27 68 58 131 255 
11.8278 3.84865 2.14621 63 71 136 255 
11.8251 3.83876 2.02254 66 64 134 255 
11.8981 3.85079 1.91812 69 56 130 255 
15.3186 4.98772 2.33873 72 35 116 255 
24.3012 7.9027 3.45956 72 33 115 255 
24.3148 7.87922 3.21533 72 27 109 255 
26.7402 8.64409 3.27644 70 11 94 255 
25.9122 8.437 2.95561 71 13 96 255 
28.2091 9.15722 2.93415 71 13 96 255 
26.6798 8.64047 2.5078 70 11 94 255 
25.6133 8.26501 2.15598 71 17 100 255 
25.446 8.28029 1.93222 71 13 96 255 
26.1901 8.49674 1.72746 72 22 104 255 
26.6569 8.61763 1.49273 70 7 90 255 
49.4007 15.9218 2.27522 70 7 90 255 
0 0 0 68 2 86 255 
0 0 0 68 2 86 255 
0 0 0 69 4 87 255 
0 0 0 69 4 87 255 
0 0 -0 68 2 86 255 
42.7296 13.8297 -0.431137 70 7 90 255 
28.2607 9.11975 -0.559817 70 7 90 255 
21.5884 6.94134 -0.641346 71 14 97 255 
17.6948 5.73754 -0.675593 72 31 112 255 
16.0525 5.1893 -0.769035 72 40 120 255 
13.5625 4.37404 -0.784249 68 57 131 255 
12.409 3.98748 -0.840582 72 41 121 255 
11.3448 3.67638 -0.865302 66 64 134 255 
10.4737 3.38181 -0.901005 59 82 139 255 
9.78276 3.14937 -0.938916 57 85 140 255 
8.97516 2.88406 -0.950927 69 56 130 255 
8.30841 2.68761 -0.951715 66 65 134 255 
7.85063 2.53333 -0.977823 60 80 139 255 
7.38857 2.37718 -0.994281 62 76 138 255 
6.93013 2.22425 -1.00218 62 76 138 255 
6.55373 2.11622 -1.00592 55 90 140 255 
6.26359 2.01879 -1.02348 58 84 140 255 
5.91849 1.90306 -1.02586 54 92 141 255 
5.66038 1.81672 -1.03967 56 89 140 255 
5.39155 1.7368 -1.03961 53 94 141 255 
5.19417 1.67111 -1.05271 56 88 140 255 
4.97 1.59808 -1.0593 55 90 140 255 
4.7938 1.53951 -1.07297 60 80 139 255 
4.59398 1.47722 -1.0707 62 73 137 255 
4.41583 1.419 -1.07423 62 74 137 255 
4.24317 1.36274 -1.07735 62 74 137 255 
4.09476 1.31659 -1.08518 64 69 136 255 
3.95422 1.2677 -1.08551 62 74 137 255 
3.86732 1.23976 -1.10187 62 73 137 255 
3.69147 1.18484 -1.09269 63 71 136 255 
3.55714 1.1451 -1.09487 68 59 132 255 
10.3856 3.30523 3.27397 70 50 126 255 
10.698 3.41477 3.24769 62 73 137 255 
14.2638 4.55857 4.17252 71 46 124 255 
10.4581 3.34207 2.948 58 84 140 255 
10.5379 3.35976 2.87075 66 64 134 255 
9.98809 3.18623 2.61006 64 69 136 255 
9.5218 3.03575 2.38644 60 79 138 255 
9.74177 3.10381 2.34167 59 81 139 255 
10.0141 3.19466 2.31875 45 113 142 255 
11.4328 3.64492 2.52219 62 76 138 255 
9.52278 3.03057 2.00232 68 57 131 255 
24.4463 7.77004 4.89328 72 28 110 255 
11.7584 3.75115 2.25187 68 59 132 255 
11.8108 3.76314 2.1389 69 53 129 255 
11.871 3.77331 2.0264 66 64 134 255 
11.9272 3.7795 1.91903 60 79 138 255 
11.1173 3.54449 1.69396 70 51 127 255 
24.4078 7.77208 3.46788 72 31 112 255 
24.4743 7.76528 3.23005 72 28 110 255 
24.8619 7.86873 3.04032 71 14 97 255 
26.3055 8.38687 2.99454 72 22 104 255 
26.0484 8.27949 2.70407 71 14 97 255 
27.04 8.57414 2.53666 71 14 97 255 
29.4256 9.29623 2.47203 70 10 93 255 
27.4122 8.73446 2.07741 71 17 100 255 
26.4586 8.40478 1.74174 70 11 94 255 
39.3342 12.4499 2.19832 70 8 92 255 
39.3652 12.4213 1.80947 69 4 87 255 
0 0 0 69 4 87 255 
0 0 0 68 1 84 255 
80.912 25.5944 1.45167 70 7 90 255 
0 0 0 69 4 87 255 
0 0 -0 69 5 89 255 
43.2884 13.7176 -0.435917 70 8 92 255 
32.182 10.1676 -0.636248 70 8 92 255 
22.3047 7.02094 -0.661333 71 14 97 255 
17.782 5.64549 -0.677589 72 36 117 255 
15.885 5.0277 -0.759517 72 38 119 255 
13.6101 4.29735 -0.785458 68 58 131 255 
12.4123 3.90468 -0.839166 72 41 121 255 
11.3691 3.60731 -0.865447 64 70 136 255 
10.5095 3.32228 -0.902311 57 85 140 255 
9.79905 3.08838 -0.938643 57 86 140 255 
9.00123 2.83162 -0.951831 68 58 131 255 
8.34749 2.64378 -0.954315 64 69 136 255 
7.87265 2.48721 -0.978647 62 73 137 255 
7.40113 2.33121 -0.994026 62 73 137 255 
6.97673 2.19208 -1.00696 62 76 138 255 
6.58546 2.08193 -1.00881 55 90 140 255 
6.26926 1.97824 -1.0224 57 86 140 255 
5.92912 1.86642 -1.0257 54 93 141 255 
5.65826 1.77782 -1.03726 57 86 140 255 
5.40117 1.70339 -1.03943 54 93 141 255 
5.20433 1.63921 -1.05271 53 95 141 255 
4.98439 1.56903 -1.06029 54 93 141 255 
4.7845 1.5042 -1.0688 62 74 137 255 
4.60575 1.44989 -1.07135 62 73 137 255 
4.42074 1.39071 -1.07333 64 69 136 255 
4.28298 1.34659 -1.08534 62 76 138 255 
4.08611 1.2862 -1.08078 64 70 136 255 
3.97854 1.24863 -1.09006 61 78 138 255 
3.8417 1.2056 -1.09245 66 65 134 255 
3.71061 1.16592 -1.09621 63 71 136 255 
3.57691 1.12729 -1.09881 67 62 133 255 
10.3079 3.21096 3.24318 51 99 141 255 
10.7711 3.36539 3.26352 66 65 134 255 
12.1843 3.81175 3.55731 69 55 129 255 
10.5549 3.30177 2.96953 63 72 137 255 
10.2599 3.20189 2.7896 61 78 138 255 
10.227 3.19344 2.66732 62 74 137 255 
9.54861 2.97987 2.38853 47 108 142 255 
9.71876 3.03092 2.33162 60 79 138 255 
9.87314 3.08309 2.2817 46 111 142 255 
9.60063 2.99602 2.11389 59 82 139 255 
9.55617 2.97675 2.00546 64 70 136 255 
24.4776 7.61493 4.89009 71 19 101 255 
14.8303 4.63106 2.83467 62 74 137 255 
14.9701 4.66878 2.70581 72 32 113 255 
15.0842 4.69294 2.56993 69 55 129 255 
11.9435 3.7042 1.91797 67 61 132 255 
11.9617 3.733 1.81909 63 71 136 255 
24.4191 7.61097 3.46278 72 40 120 255 
24.4741 7.60025 3.22381 72 37 118 255 
24.5425 7.60229 2.9955 72 26 108 255 
25.3144 7.90011 2.87615 71 14 97 255 
25.2549 7.85699 2.61664 72 27 109 255 
25.6899 7.9729 2.40537 71 16 99 255 
25.6699 7.93683 2.15238 71 14 97 255 
25.3486 7.90593 1.91731 71 17 100 255 
25.4327 7.90744 1.67098 71 13 96 255 
35.5105 11.0003 1.98081 70 7 90 255 
0 0 0 68 2 86 255 
50.0128 15.5793 1.88418 69 5 89 255 
0 0 0 68 1 84 255 
81.5375 25.2429 1.46008 70 7 90 255 
0 0 0 69 4 87 255 
81.4484 25.3561 -0.0148884 70 7 90 255 
0 0 -0 69 4 87 255 
32.3374 9.99886 -0.638095 70 10 93 255 
22.5041 6.93221 -0.66597 71 13 96 255 
17.7257 5.5081 -0.674141 72 33 115 255 
15.6503 4.84797 -0.746858 72 36 117 255 
13.6619 4.22172 -0.786942 70 52 128 255 
12.4331 3.82756 -0.838973 69 56 130 255 
11.3853 3.5357 -0.865013 68 58 131 255 
10.523 3.25567 -0.901739 61 78 138 255 
9.81591 3.02761 -0.938461 59 81 139 255 
9.0289 2.77956 -0.952935 68 58 131 255 
8.36071 2.59163 -0.95399 64 70 136 255 
7.89441 2.44091 -0.979471 62 76 138 255 
7.39634 2.27991 -0.991485 60 79 138 255 
6.97869 2.14574 -1.00532 63 72 137 255 
6.60567 2.04382 -1.00997 54 92 141 255 
6.28789 1.94178 -1.02348 58 83 139 255 
5.94234 1.83058 -1.02602 55 91 141 255 
5.66718 1.74249 -1.03691 56 88 140 255 
5.42468 1.67428 -1.04196 54 93 141 255 
5.2171 1.60811 -1.05328 58 84 140 255 
4.99018 1.53726 -1.0595 52 97 141 255 
4.78616 1.47251 -1.06713 62 73 137 255 
4.62482 1.42476 -1.07374 65 66 135 255 
4.44781 1.36929 -1.07784 58 83 139 255 
4.29859 1.32257 -1.08722 62 76 138 255 
4.12173 1.26967 -1.08812 61 77 138 255 
3.9889 1.22505 -1.09082 62 73 137 255 
3.84718 1.18144 -1.09192 68 58 131 255 
3.73793 1.14936 -1.10218 64 69 136 255 
3.59202 1.10786 -1.10134 66 65 134 255 
8.46857 2.58111 2.65945 67 62 133 255 
10.4498 3.19476 3.16018 58 83 139 255 
11.0128 3.37121 3.20918 69 55 129 255 
10.5851 3.24005 2.97238 65 68 135 255 
10.084 3.07924 2.73659 59 82 139 255 
9.65708 2.95057 2.51391 63 71 136 255 
9.52671 2.90901 2.37855 54 92 141 255 
9.79591 2.98915 2.34569 60 79 138 255 
9.79755 2.99363 2.25994 56 88 140 255 
9.67124 2.95306 2.12541 46 110 142 255 
14.8219 4.51744 3.10465 72 40 120 255 
9.96949 3.03452 1.98793 68 57 131 255 
15.0052 4.58482 2.86267 62 73 137 255 
15.0305 4.58662 2.71159 69 53 129 255 
15.1467 4.61064 2.57571 71 46 124 255 
25.9307 7.86812 4.15627 71 14 97 255 
12.008 3.66676 1.82268 64 70 136 255 
12.1033 3.69104 1.71308 69 53 129 255 
24.5364 7.45484 3.22594 72 36 117 255 
25.274 7.65926 3.079 71 17 100 255 
25.1713 7.68627 2.85447 72 31 112 255 
25.2055 7.67232 2.6066 72 23 105 255 
25.2237 7.65885 2.35728 71 17 100 255 
24.7364 7.4822 2.07022 72 23 105 255 
25.699 7.84253 1.94014 72 20 103 255 
25.919 7.88456 1.69972 70 11 94 255 
27.5497 8.34938 1.53386 69 4 87 255 
50.1349 15.1456 2.2958 69 4 87 255 
50.0912 15.2672 1.88357 69 4 87 255 
0 0 0 68 2 86 255 
0 0 0 69 4 87 255 
82.2262 24.809 0.674572 70 8 92 255 
0 0 -0 69 4 87 255 
0 0 -0 69 4 87 255 
29.5262 8.93151 -0.581531 70 8 92 255 
20.0329 6.03664 -0.591731 70 10 93 255 
17.9848 5.46784 -0.682707 72 31 112 255 
16.0784 4.87266 -0.765847 71 46 124 255 
13.744 4.15486 -0.790184 67 61 132 255 
12.4631 3.75322 -0.839423 72 41 121 255 
11.3858 3.4594 -0.863421 71 47 125 255 
10.5543 3.19451 -0.902719 61 77 138 255 
9.85623 2.97394 -0.940553 57 86 140 255 
9.0515 2.72583 -0.953537 69 53 129 255 
8.38311 2.5423 -0.954748 62 73 137 255 
7.90068 2.38983 -0.978411 62 73 137 255 
7.43773 2.24279 -0.99517 61 78 138 255 
6.98698 2.10145 -1.00464 59 81 139 255 
6.61241 2.00153 -1.0091 54 93 141 255 
6.29496 1.90173 -1.02271 58 83 139 255 
5.95346 1.79409 -1.02602 54 92 141 255 
5.67305 1.70626 -1.03605 59 81 139 255 
5.46404 1.64977 -1.04755 53 95 141 255 
5.21465 1.57239 -1.05081 58 84 140 255 
4.97512 1.49926 -1.05433 54 93 141 255 
4.81384 1.44876 -1.0713 65 68 135 255 
4.62413 1.39354 -1.07157 63 72 137 255 
4.4524 1.34085 -1.07694 61 78 138 255 
4.28987 1.29113 -1.08299 61 77 138 255 
4.11366 1.2396 -1.08396 64 70 136 255 
3.99171 1.19916 -1.08955 64 70 136 255 
3.87562 1.1642 -1.09795 65 66 135 255 
3.75782 1.13028 -1.10598 65 66 135 255 
3.59691 1.08525 -1.10078 65 66 135 255 
8.44845 2.51843 2.64823 46 109 142 255 
10.7913 3.2269 3.25741 66 63 133 255 
11.3 3.38342 3.28675 70 48 126 255 
10.5955 3.17227 2.96979 68 58 131 255 
10.0888 3.01315 2.73282 54 93 141 255 
9.83678 2.93961 2.55595 58 83 139 255 
9.56302 2.85607 2.38319 54 92 141 255 
9.76362 2.91393 2.33363 66 63 133 255 
9.75959 2.91668 2.24702 71 42 122 255 
9.74732 2.91102 2.13817 57 85 140 255 
10.0073 2.98306 2.09229 58 83 139 255 
14.9607 4.45363 2.97768 71 46 124 255 
15.0764 4.50562 2.87093 70 50 126 255 
15.2737 4.55856 2.75036 64 70 136 255 
15.3298 4.5638 2.60204 69 53 129 255 
25.5426 7.57952 4.08654 72 26 108 255 
11.0252 3.29281 1.6704 60 79 138 255 
12.1485 3.6235 1.7163 62 74 137 255 
25.2855 7.51327 3.3183 72 35 116 255 
25.1768 7.46142 3.06151 72 32 113 255 
25.6495 7.66056 2.90332 72 20 103 255 
25.5326 7.601 2.63554 72 29 111 255 
24.8396 7.37607 2.31711 72 28 110 255 
24.8 7.33565 2.07173 72 31 112 255 
25.0088 7.46448 1.88454 71 17 100 255 
25.9114 7.70887 1.69609 72 20 103 255 
25.8292 7.65523 1.43543 69 5 89 255 
50.3505 14.8742 2.30145 70 7 90 255 
50.1877 14.9607 1.88372 70 8 92 255 
0 0 0 68 2 86 255 
0 0 0 69 5 89 255 
0 0 0 69 4 87 255 
0 0 -0 69 5 89 255 
0 0 -0 69 4 87 255 
28.848 8.53349 -0.567131 70 8 92 255 
22.1368 6.52274 -0.652683 71 17 100 255 
17.9845 5.34741 -0.681436 72 36 117 255 
16.0649 4.76114 -0.763798 71 42 122 255 
13.7491 4.0645 -0.78903 71 42 122 255 
12.4687 3.6716 -0.838265 72 36 117 255 
11.3982 3.38692 -0.862769 67 62 133 255 
10.5794 3.13139 -0.903208 61 78 138 255 
9.88575 2.91679 -0.941645 62 76 138 255 
9.00602 2.65197 -0.947013 70 52 128 255 
8.40999 2.4942 -0.956048 64 69 136 255 
7.92377 2.34385 -0.979471 60 79 138 255 
7.4504 2.19683 -0.995043 62 74 137 255 
7.00259 2.05938 -1.00505 63 72 137 255 
6.61602 1.95839 -1.0078 59 82 139 255 
6.29798 1.86055 -1.02133 58 84 140 255 
5.9672 1.75836 -1.02651 54 92 141 255 
5.68435 1.6717 -1.03622 58 84 140 255 
5.46462 1.61343 -1.04575 53 94 141 255 
5.22514 1.54064 -1.051 52 96 141 255 
5.00773 1.47563 -1.0593 53 95 141 255 
4.84703 1.42637 -1.07672 61 77 138 255 
4.6354 1.36597 -1.07222 65 68 135 255 
4.47363 1.31736 -1.0801 63 71 136 255 
4.28 1.25957 -1.07852 62 76 138 255 
4.11375 1.21214 -1.082 63 72 137 255 
4.0092 1.17764 -1.09233 62 73 137 255 
3.88546 1.14121 -1.09873 65 68 135 255 
3.75176 1.1034 -1.10218 66 65 134 255 
3.61086 1.06533 -1.10303 64 69 136 255 
8.4003 2.44806 2.62838 72 40 120 255 
10.809 3.16009 3.25686 69 55 129 255 
11.8863 3.47966 3.45102 70 48 126 255 
11.3656 3.32697 3.17984 71 47 125 255 
10.1768 2.97154 2.75166 64 70 136 255 
9.76894 2.85416 2.53372 59 82 139 255 
9.66626 2.82242 2.40456 67 61 132 255 
9.53616 2.78244 2.27514 62 74 137 255 
9.77262 2.85538 2.24594 66 65 134 255 
10.0027 2.92055 2.19021 51 99 141 255 
9.99624 2.91309 2.0862 64 70 136 255 
15.0462 4.37877 2.98929 72 29 111 255 
15.151 4.42683 2.8799 72 40 120 255 
15.185 4.43081 2.72944 68 57 131 255 
25.5311 7.43058 4.32576 72 23 105 255 
25.5839 7.42127 4.08578 72 22 104 255 
11.0328 3.2215 1.66853 72 27 109 255 
12.1809 3.55195 1.71777 64 70 136 255 
12.2444 3.55666 1.60398 68 58 131 255 
25.1954 7.29906 3.05827 72 33 115 255 
25.2694 7.37847 2.85512 72 29 111 255 
25.121 7.31099 2.58838 72 22 104 255 
25.2402 7.32681 2.35024 71 17 100 255 
25.0246 7.2354 2.08675 71 19 101 255 
25.0973 7.32346 1.88778 72 27 109 255 
29.0374 8.44526 1.89727 71 13 96 255 
29.0035 8.40276 1.60894 70 7 90 255 
47.8608 13.82 2.18373 69 5 89 255 
0 0 0 69 4 87 255 
0 0 0 68 1 84 255 
0 0 0 69 4 87 255 
0 0 0 69 4 87 255 
83.0275 24.1806 -0.0150931 70 7 90 255 
28.4498 8.25284 -0.284366 72 22 104 255 
28.4013 8.21219 -0.557348 71 14 97 255 
22.0486 6.34999 -0.648923 71 17 100 255 
17.7387 5.15607 -0.670911 72 36 117 255 
16.3654 4.74115 -0.776685 72 38 119 255 
13.7162 3.96343 -0.785733 65 66 135 255 
12.4766 3.59088 -0.837299 72 35 116 255 
11.4044 3.31274 -0.861684 67 61 132 255 
10.6185 3.07223 -0.904921 62 76 138 255 
9.90921 2.85774 -0.942191 61 78 138 255 
9.0269 2.59804 -0.947515 71 46 124 255 
8.42322 2.442 -0.955832 62 74 137 255 
7.93132 2.29325 -0.978647 63 71 136 255 
7.45802 2.14942 -0.994281 63 72 137 255 
7.02652 2.01965 -1.00669 61 78 138 255 
6.62601 1.91721 -1.00751 55 91 141 255 
6.30643 1.82105 -1.02087 57 85 140 255 
5.98831 1.72472 -1.0283 54 93 141 255 
5.70681 1.64033 -1.03846 56 88 140 255 
5.48387 1.5826 -1.04755 53 95 141 255 
5.25714 1.51507 -1.05555 54 92 141 255 
5.02045 1.44596 -1.0601 53 94 141 255 
4.84723 1.39417 -1.07484 61 78 138 255 
4.64745 1.33858 -1.07309 62 74 137 255 
4.48631 1.29123 -1.08122 59 81 139 255 
4.29045 1.23409 -1.07923 60 80 139 255 
4.13229 1.1901 -1.08494 62 73 137 255 
4.03588 1.15863 -1.09765 62 76 138 255 
3.90909 1.12214 -1.10345 63 72 137 255 
3.77141 1.08408 -1.10598 63 72 137 255 
3.62563 1.04555 -1.10556 66 65 134 255 
8.44925 2.40617 2.63902 64 69 136 255 
8.46824 2.41944 2.54703 58 84 140 255 
10.8091 3.09241 3.13268 61 78 138 255 
12.1658 3.4803 3.39767 67 62 133 255 
10.5029 2.99695 2.83482 71 46 124 255 
9.97009 2.84665 2.58132 64 70 136 255 
9.8106 2.79935 2.43615 65 66 135 255 
9.8577 2.81074 2.3477 71 45 123 255 
9.85662 2.8144 2.26123 57 85 140 255 
14.9308 4.26022 3.26351 72 36 117 255 
15.0987 4.29971 3.14551 70 48 126 255 
15.1522 4.30893 3.00503 68 59 132 255 
15.1542 4.32703 2.87541 72 29 111 255 
15.1399 4.31701 2.71652 68 58 131 255 
25.7186 7.31428 4.34985 72 24 106 255 
26.539 7.5221 4.23086 71 19 101 255 
11.1885 3.19257 1.68907 56 88 140 255 
12.2368 3.48691 1.7226 71 45 123 255 
12.2813 3.4858 1.60598 61 77 138 255 
25.5379 7.22873 3.0944 72 28 110 255 
24.9567 7.12126 2.81479 72 26 108 255 
24.9386 7.0922 2.56505 72 35 116 255 
25.5635 7.25089 2.37616 72 20 103 255 
27.0263 7.6348 2.24972 71 16 99 255 
27.6787 7.89277 2.07827 70 11 94 255 
27.3567 7.77474 1.78431 71 16 99 255 
29.2745 8.28693 1.62112 71 13 96 255 
48.1072 13.5719 2.19113 70 8 92 255 
48.4693 13.8031 1.81272 70 7 90 255 
0 0 0 68 1 84 255 
0 0 0 69 4 87 255 
0 0 0 69 4 87 255 
83.8255 23.856 -0.0152112 69 5 89 255 
28.5538 8.09339 -0.284903 72 26 108 255 
28.9294 8.17286 -0.566716 70 10 93 255 
22.0468 6.20321 -0.647735 71 13 96 255 
17.9247 5.09109 -0.676754 72 31 112 255 
16.1567 4.57344 -0.765437 71 42 122 255 
13.7163 3.87242 -0.784359 65 66 135 255 
12.4657 3.50508 -0.835111 72 40 120 255 
11.3947 3.23426 -0.859441 68 59 132 255 
10.6448 3.00919 -0.905574 63 71 136 255 
9.92464 2.79634 -0.942009 61 78 138 255 
9.08194 2.55364 -0.95163 70 51 127 255 
8.45718 2.39569 -0.957999 61 77 138 255 
7.94142 2.24346 -0.978176 63 72 137 255 
7.47488 2.1047 -0.994789 63 72 137 255 
7.03687 1.97597 -1.00641 61 77 138 255 
6.64432 1.8784 -1.00852 58 84 140 255 
6.31749 1.78232 -1.02087 56 89 140 255 
6.01017 1.69115 -1.03026 53 95 141 255 
5.71961 1.60608 -1.03898 57 85 140 255 
5.47644 1.54411 -1.0443 55 90 140 255 
5.27201 1.48439 -1.05669 56 88 140 255 
5.03017 1.41539 -1.06029 53 95 141 255 
4.82274 1.35514 -1.06755 60 80 139 255 
4.66216 1.31189 -1.0746 60 80 139 255 
4.48008 1.25972 -1.07784 58 83 139 255 
4.3335 1.21773 -1.08816 61 77 138 255 
4.14231 1.16551 -1.08567 62 74 137 255 
4.02894 1.12992 -1.09385 62 74 137 255 
3.91033 1.09657 -1.10187 66 63 133 255 
3.77428 1.05988 -1.10489 64 69 136 255 
3.64029 1.02562 -1.10809 67 61 132 255 
12.1943 3.39194 3.80218 71 45 123 255 
8.53012 2.38061 2.5612 56 89 140 255 
10.7239 2.99699 3.10261 66 64 134 255 
11.1488 3.11551 3.10827 68 58 131 255 
10.6768 2.97585 2.87678 69 56 130 255 
10.4996 2.92827 2.7137 66 64 134 255 
11.1393 3.1047 2.76131 72 37 118 255 
10.1283 2.82081 2.40798 64 70 136 255 
10.17 2.8365 2.32909 64 69 136 255 
10.1603 2.83174 2.21695 66 65 134 255 
15.2693 4.24718 3.17557 71 46 124 255 
15.3061 4.25137 3.03033 64 69 136 255 
15.188 4.23607 2.87685 66 63 133 255 
15.1633 4.22324 2.71601 65 66 135 255 
10.6647 2.96239 1.80064 72 37 118 255 
11.037 3.05525 1.75651 71 46 124 255 
26.0201 7.25234 3.92135 71 19 101 255 
10.9157 3.03817 1.53398 62 73 137 255 
12.3101 3.4125 1.60698 62 73 137 255 
12.3701 3.41963 1.4963 66 63 133 255 
25.2144 7.02779 2.83895 72 26 108 255 
25.4984 7.0826 2.61812 72 26 108 255 
25.5903 7.08911 2.37456 72 24 106 255 
24.8953 6.86812 2.06878 72 27 109 255 
26.7937 7.46292 2.00834 70 10 93 255 
26.4115 7.33125 1.71969 72 22 104 255 
25.959 7.17664 1.43506 70 7 90 255 
29.382 8.09491 1.33597 69 4 87 255 
48.0986 13.379 1.79576 70 10 93 255 
0 0 0 68 2 86 255 
0 0 0 68 2 86 255 
0 0 0 69 4 87 255 
84.3142 23.4368 -0.0152736 70 8 92 255 
28.628 7.92498 -0.285153 72 26 108 255 
29.0618 8.01807 -0.568337 72 20 103 255 
22.069 6.06358 -0.647283 71 13 96 255 
17.9576 4.98155 -0.676827 72 29 111 255 
16.2413 4.48992 -0.768124 72 31 112 255 
13.6329 3.75872 -0.778259 69 56 130 255 
12.4658 3.42271 -0.833695 71 44 122 255 
11.3865 3.15656 -0.857342 67 62 133 255 
10.6612 2.94329 -0.905411 62 73 137 255 
9.9176 2.72879 -0.939735 59 81 139 255 
9.10703 2.5005 -0.952633 69 55 129 255 
8.48417 2.3472 -0.959407 64 69 136 255 
7.96078 2.19628 -0.978882 62 73 137 255 
7.49053 2.05958 -0.99517 63 72 137 255 
7.04695 1.93223 -1.00614 63 71 136 255 
6.68338 1.84524 -1.01271 55 90 140 255 
6.33402 1.7451 -1.02179 57 85 140 255 
6.01187 1.65188 -1.02879 56 89 140 255 
5.73886 1.57356 -1.0407 57 86 140 255 
5.48296 1.5097 -1.04376 54 93 141 255 
5.27723 1.45097 -1.05593 53 95 141 255 
5.06239 1.39099 -1.06527 52 96 141 255 
4.82813 1.32475 -1.06692 62 74 137 255 
4.66823 1.28274 -1.07417 60 79 138 255 
4.50651 1.23737 -1.08235 58 84 140 255 
4.3287 1.18777 -1.0851 59 82 139 255 
4.14939 1.14007 -1.08567 62 73 137 255 
4.01714 1.10007 -1.08879 62 73 137 255 
3.92257 1.07409 -1.10345 63 71 136 255 
3.79742 1.04128 -1.10978 64 70 136 255 
3.67057 1.00989 -1.1154 65 68 135 255 
14.2787 3.8775 4.4446 72 31 112 255 
8.52881 2.32393 2.55648 66 65 134 255 
10.8118 2.95015 3.12275 67 61 132 255 
11.1677 3.04704 3.10827 72 41 121 255 
10.4492 2.84344 2.8107 72 37 118 255 
10.8769 2.96169 2.80647 62 74 137 255 
10.2731 2.79546 2.54229 71 47 125 255 
10.2 2.77344 2.42092 59 82 139 255 
10.1853 2.77353 2.32866 71 46 124 255 
13.2134 3.59542 2.87825 72 27 109 255 
13.3922 3.63668 2.78049 72 36 117 255 
15.8808 4.30622 3.13882 70 51 127 255 
15.1777 4.13298 2.87003 72 37 118 255 
15.3115 4.16348 2.73794 64 70 136 255 
10.5436 2.85918 1.77719 50 101 142 255 
10.9888 2.96942 1.74589 63 72 137 255 
12.4166 3.3788 1.86808 72 33 115 255 
10.9351 2.9714 1.53411 58 84 140 255 
12.3308 3.3369 1.60698 71 47 125 255 
12.3745 3.33927 1.49433 62 73 137 255 
25.3626 6.90166 2.85081 70 11 94 255 
25.9506 7.03696 2.66006 71 14 97 255 
26.0419 7.04247 2.41241 72 23 105 255 
24.9802 6.7269 2.07237 72 32 113 255 
24.941 6.78226 1.86632 72 29 111 255 
25.5428 6.92159 1.66033 72 26 108 255 
25.9804 7.01124 1.43383 72 20 103 255 
25.5325 6.86608 1.159 70 11 94 255 
48.012 13.0381 1.7895 70 7 90 255 
0 0 0 68 2 86 255 
0 0 0 69 4 87 255 
0 0 0 69 4 87 255 
85.3096 23.1505 -0.0154278 70 7 90 255 
28.6857 7.75178 -0.285249 72 32 113 255 
28.6722 7.72156 -0.55978 71 13 96 255 
22.0778 5.92055 -0.646463 71 13 96 255 
18.0698 4.89347 -0.679912 72 33 115 255 
16.2261 4.37873 -0.76612 72 40 120 255 
13.5169 3.63764 -0.770347 66 65 134 255 
12.3545 3.31077 -0.824878 71 44 122 255 
11.4095 3.08767 -0.857631 66 63 133 255 
10.6502 2.87003 -0.902963 63 72 137 255 
9.93416 2.66788 -0.939735 57 86 140 255 
9.14143 2.44973 -0.954641 69 55 129 255 
8.5013 2.29587 -0.959732 63 71 136 255 
7.99041 2.15178 -0.980883 64 70 136 255 
7.50302 2.01358 -0.99517 64 69 136 255 
7.05963 1.88921 -1.00628 62 73 137 255 
6.69458 1.80419 -1.01271 55 90 140 255 
6.35892 1.71005 -1.02409 57 86 140 255 
6.01523 1.61318 -1.02765 53 94 141 255 
5.75222 1.53933 -1.04139 56 88 140 255 
5.50067 1.47832 -1.04539 53 94 141 255 
5.2756 1.41576 -1.05384 55 90 140 255 
5.0803 1.36244 -1.06725 55 91 141 255 
4.8305 1.29358 -1.06567 64 70 136 255 
4.68073 1.25534 -1.07525 60 79 138 255 
4.4952 1.20465 -1.07784 59 81 139 255 
4.33966 1.1622 -1.08604 58 84 140 255 
4.17878 1.12061 -1.09154 61 77 138 255 
4.05466 1.08364 -1.09714 59 82 139 255 
3.90764 1.04427 -1.09742 62 73 137 255 
3.80002 1.01697 -1.10869 62 73 137 255 
3.65631 0.98187 -1.10921 66 65 134 255 
14.3735 3.80871 4.46675 71 16 99 255 
12.6667 3.36808 3.79054 72 32 113 255 
10.9051 2.90383 3.14449 69 53 129 255 
10.6393 2.83284 2.9563 68 58 131 255 
9.98094 2.65034 2.68032 65 68 135 255 
11.1565 2.96442 2.87387 63 72 137 255 
11.2715 2.99298 2.78476 71 45 123 255 
10.1527 2.69381 2.40574 59 81 139 255 
11.5376 3.06585 2.63347 62 73 137 255 
11.7719 3.12575 2.56004 70 52 128 255 
12.4968 3.31133 2.59032 71 44 122 255 
13.2404 3.50318 2.61266 69 55 129 255 
15.4053 4.09359 2.90826 72 35 116 255 
15.3692 4.07804 2.74373 70 50 126 255 
10.5399 2.78888 1.77366 55 90 140 255 
16.0284 4.2259 2.54243 72 37 118 255 
15.7896 4.19276 2.37163 70 52 128 255 
15.9723 4.23509 2.2371 71 14 97 255 
11.0023 2.90505 1.43149 63 72 137 255 
11.9136 3.13658 1.43632 70 50 126 255 
12.5403 3.32996 1.40724 72 33 115 255 
29.7221 7.86422 3.04165 70 11 94 255 
26.1424 6.89779 2.41775 72 31 112 255 
24.9757 6.56159 2.06862 72 38 119 255 
24.7546 6.56873 1.84932 72 35 116 255 
24.7115 6.53385 1.60367 72 38 119 255 
24.7695 6.52167 1.36477 72 24 106 255 
24.8494 6.51915 1.12616 70 8 92 255 
47.8593 12.6818 1.78087 70 8 92 255 
0 0 0 69 4 87 255 
12.755 3.35593 0.225611 70 7 90 255 
12.8074 3.3552 0.103986 71 17 100 255 
0 0 -0 69 4 87 255 
53.3947 14.078 -0.530085 70 7 90 255 
38.8861 10.2167 -0.757952 70 8 92 255 
22.105 5.78269 -0.646209 70 10 93 255 
18.0908 4.78021 -0.679585 72 29 111 255 
16.2314 4.27349 -0.765118 72 41 121 255 
13.5506 3.55767 -0.771006 71 46 124 255 
12.2288 3.19679 -0.81516 71 42 122 255 
11.4967 3.03569 -0.862769 60 79 138 255 
10.682 2.80843 -0.904187 64 70 136 255 
9.95131 2.60713 -0.939826 61 78 138 255 
9.13414 2.3878 -0.952332 69 56 130 255 
8.51522 2.24367 -0.959732 62 73 137 255 
7.99866 2.10145 -0.980295 64 70 136 255 
7.51524 1.96751 -0.99517 64 69 136 255 
7.0778 1.84761 -1.00723 62 74 137 255 
6.69882 1.76132 -1.0117 59 82 139 255 
6.37694 1.673 -1.02532 57 85 140 255 
6.0231 1.57574 -1.02733 58 84 140 255 
5.77585 1.50774 -1.04397 56 88 140 255 
5.51915 1.44704 -1.04719 54 93 141 255 
5.29179 1.38535 -1.05536 55 91 141 255 
5.08003 1.32901 -1.06546 55 90 140 255 
4.84119 1.26466 -1.0663 58 83 139 255 
4.68646 1.2261 -1.07482 59 81 139 255 
4.51947 1.18148 -1.0819 58 84 140 255 
4.35048 1.13653 -1.08698 57 85 140 255 
4.17432 1.09201 -1.08861 62 74 137 255 
4.05468 1.05704 -1.09537 60 80 139 255 
3.93732 1.02636 -1.10397 64 70 136 255 
3.79688 0.991199 -1.10598 65 68 135 255 
3.63442 0.952121 -1.10078 66 64 134 255 
9.61568 2.48493 2.9834 62 76 138 255 
9.62325 2.49569 2.87514 72 35 116 255 
13.028 3.38366 3.75057 70 7 90 255 
15.7922 4.10125 4.38103 72 24 106 255 
10.7354 2.78027 2.87828 71 44 122 255 
10.1459 2.62935 2.60934 55 91 141 255 
10.3057 2.66894 2.54206 60 79 138 255 
10.1304 2.62145 2.39659 61 77 138 255 
11.5609 2.99622 2.63455 64 70 136 255 
11.6213 3.00955 2.52322 60 80 139 255 
11.671 3.01601 2.41527 59 82 139 255 
10.4197 2.68856 2.05276 68 57 131 255 
11.7733 3.05125 2.21902 71 47 125 255 
11.8116 3.05663 2.10523 70 50 126 255 
10.5712 2.72786 1.77607 61 77 138 255 
10.8051 2.77798 1.71118 60 80 139 255 
15.8399 4.10225 2.37536 71 42 122 255 
11.0321 2.85286 1.5427 58 84 140 255 
11.0237 2.83847 1.43199 65 66 135 255 
11.695 3.00241 1.40771 63 71 136 255 
12.5692 3.25519 1.40821 66 65 134 255 
12.7318 3.28527 1.30084 72 36 117 255 
12.729 3.27518 1.17534 72 24 106 255 
12.8129 3.28228 1.05954 72 28 110 255 
24.7578 6.40722 1.84658 72 28 110 255 
12.7307 3.28263 0.824845 71 45 123 255 
12.7846 3.28237 0.703295 66 63 133 255 
12.7547 3.26263 0.577114 66 63 133 255 
12.7816 3.30307 0.474847 67 62 133 255 
12.7592 3.28522 0.349611 67 61 132 255 
12.753 3.27189 0.225217 67 62 133 255 
12.7706 3.26195 0.103522 67 61 132 255 
12.8185 3.31023 -0.00231064 70 52 128 255 
12.772 3.28376 -0.126594 70 51 127 255 
12.778 3.27354 -0.248667 68 58 131 255 
12.7476 3.25136 -0.372069 69 55 129 255 
12.7276 3.27965 -0.47735 71 44 122 255 
12.7015 3.2609 -0.597769 70 48 126 255 
12.6987 3.25085 -0.721386 69 55 129 255 
12.3294 3.1424 -0.820566 70 48 126 255 
11.5257 2.96782 -0.863566 62 73 137 255 
10.7135 2.74655 -0.905411 61 78 138 255 
9.94685 2.54084 -0.937915 60 79 138 255 
9.13995 2.3295 -0.951429 69 55 129 255 
8.52883 2.19138 -0.959732 64 70 136 255 
8.01236 2.05258 -0.980413 64 69 136 255 
7.53005 1.92209 -0.995551 63 72 137 255 
7.11685 1.81123 -1.01119 62 73 137 255 
6.69896 1.71748 -1.01011 60 79 138 255 
6.38421 1.63311 -1.02486 58 83 139 255 
6.047 1.54241 -1.02977 55 90 140 255 
5.78022 1.47106 -1.04311 55 91 141 255 
5.52984 1.41363 -1.04755 59 82 139 255 
5.29543 1.35164 -1.05441 57 86 140 255 
5.07574 1.29467 -1.06288 55 91 141 255 
4.86876 1.24 -1.07067 61 77 138 255 
4.68254 1.19443 -1.07222 61 78 138 255 
4.5323 1.15517 -1.08326 60 80 139 255 
4.34135 1.10574 -1.08299 60 79 138 255 
4.18564 1.06757 -1.08983 62 74 137 255 
4.05546 1.03071 -1.09385 61 77 138 255 
3.94167 1.0017 -1.10345 64 70 136 255 
3.79636 0.966221 -1.10408 65 68 135 255 
3.65507 0.933602 -1.10528 67 61 132 255 
11.1585 2.8107 3.45665 62 73 137 255 
9.86283 2.49334 2.94209 66 65 134 255 
9.80437 2.48229 2.81809 64 69 136 255 
10.0217 2.5371 2.77581 71 44 122 255 
11.3294 2.86005 3.03279 67 61 132 255 
10.0631 2.54209 2.58397 51 99 141 255 
10.0861 2.54614 2.48399 50 102 142 255 
10.1141 2.55114 2.389 61 77 138 255 
11.7637 2.97187 2.67656 71 46 124 255 
11.9024 3.00453 2.5802 64 69 136 255 
11.4307 2.87919 2.36184 70 51 127 255 
10.4074 2.61739 2.04714 69 56 130 255 
10.382 2.62282 1.95374 55 91 141 255 
11.3524 2.86358 2.02022 71 45 123 255 
11.722 2.94823 1.96634 68 58 131 255 
10.8901 2.72869 1.72194 47 108 142 255 
12.1236 3.06054 1.81521 59 81 139 255 
12.1708 3.06777 1.69926 62 76 138 255 
11.0371 2.76981 1.43149 56 89 140 255 
12.195 3.05114 1.46562 67 61 132 255 
11.9778 3.02373 1.33984 62 73 137 255 
12.6504 3.1816 1.2905 65 66 135 255 
12.6387 3.1694 1.16519 68 59 132 255 
12.6703 3.16303 1.04613 68 57 131 255 
12.6942 3.20225 0.945331 67 61 132 255 
12.7081 3.19375 0.82209 59 81 139 255 
12.7329 3.18593 0.699358 65 66 135 255 
12.7483 3.17778 0.575932 64 69 136 255 
12.7396 3.20896 0.472547 63 72 137 255 
12.7326 3.19519 0.348338 62 74 137 255 
12.7457 3.18679 0.224739 64 70 136 255 
12.7447 3.17218 0.103153 66 65 134 255 
12.7212 3.20198 -0.00228952 64 69 136 255 
12.7492 3.19464 -0.126171 63 71 136 255 
12.7406 3.18079 -0.247555 65 66 135 255 
12.7392 3.16609 -0.371249 67 62 133 255 
12.729 3.19687 -0.476661 63 71 136 255 
12.7164 3.18169 -0.597541 64 70 136 255 
12.6845 3.16442 -0.719463 66 64 134 255 
12.179 3.0246 -0.809304 65 68 135 255 
11.5708 2.90384 -0.865592 64 69 136 255 
10.735 2.68197 -0.905819 65 68 135 255 
9.97289 2.48241 -0.938916 60 80 139 255 
9.15503 2.27361 -0.951529 70 50 126 255 
8.53922 2.13828 -0.959407 61 78 138 255 
8.02288 2.0029 -0.980177 63 72 137 255 
7.55229 1.87849 -0.996949 61 77 138 255 
7.12879 1.76777 -1.01132 59 81 139 255 
6.74681 1.6857 -1.01575 62 74 137 255 
6.41616 1.5994 -1.0284 58 84 140 255 
6.07263 1.50932 -1.03254 55 91 141 255 
