ply
format ascii 1.0
comment VTK generated PLY File
obj_info vtkPolyData points and polygons: vtk4.0
element vertex 1244
property float x
property float y
property float z
property uchar red
property uchar green
property uchar blue
property uchar alpha
element face 0
property list uchar int vertex_indices
end_header
24.7464 12.0861 2.46273 71 17 100 255 
25.2321 12.2902 2.24828 71 17 100 255 
25.0807 12.2929 2.01684 71 16 99 255 
26.0749 12.7516 1.82107 72 24 106 255 
37.5888 18.334 2.22838 69 5 89 255 
51.8488 25.2324 2.52769 69 5 89 255 
37.3734 18.3019 1.49683 69 5 89 255 
0 0 0 68 2 86 255 
12.549 6.11808 0.238815 69 53 129 255 
12.5533 6.10372 0.109633 71 45 123 255 
12.5358 6.13612 -0.00243596 61 78 138 255 
12.4932 6.09884 -0.133457 71 13 96 255 
19.8692 9.67838 -0.416645 70 7 90 255 
12.1552 5.90491 -0.38219 68 59 132 255 
14.0507 6.86856 -0.568015 72 27 109 255 
13.9913 6.82414 -0.709608 71 46 124 255 
12.325 6.00089 -0.754411 69 56 130 255 
11.4842 5.57645 -0.823334 70 50 126 255 
10.6038 5.18128 -0.856329 66 63 133 255 
9.82406 4.78735 -0.894641 66 65 134 255 
9.07593 4.41308 -0.921993 70 50 126 255 
8.33706 4.04828 -0.934869 67 61 132 255 
7.78077 3.79684 -0.943589 59 81 139 255 
7.30911 3.56022 -0.963698 57 85 140 255 
6.92098 3.36376 -0.985767 57 85 140 255 
6.52075 3.16351 -0.997955 57 85 140 255 
6.20158 3.02222 -1.00766 53 94 141 255 
5.87827 2.86072 -1.01672 58 83 139 255 
5.58842 2.7149 -1.02521 54 93 141 255 
5.30868 2.57549 -1.03192 51 99 141 255 
5.05562 2.4594 -1.03185 52 96 141 255 
4.86509 2.3645 -1.04361 60 80 139 255 
4.65879 2.26328 -1.05095 62 73 137 255 
4.47593 2.17244 -1.06025 66 64 134 255 
4.31769 2.09763 -1.06507 63 72 137 255 
4.17146 2.02559 -1.074 61 78 138 255 
3.99444 1.93881 -1.07335 62 73 137 255 
3.87148 1.88073 -1.08591 66 64 134 255 
3.74269 1.81425 -1.08728 63 72 137 255 
3.63799 1.7634 -1.0969 66 64 134 255 
3.48032 1.68852 -1.09024 68 59 132 255 
3.39696 1.65168 -1.10668 67 61 132 255 
14.363 6.92468 4.78983 67 61 132 255 
10.011 4.8371 3.21546 72 36 117 255 
14.5111 7.01782 4.4914 69 55 129 255 
10.2596 4.9615 3.06003 45 113 142 255 
15.3867 7.42814 4.43462 72 35 116 255 
10.3162 4.98232 2.85213 58 83 139 255 
10.5619 5.09885 2.80056 64 69 136 255 
10.6358 5.13199 2.70468 66 65 134 255 
10.472 5.05774 2.5654 54 93 141 255 
10.5403 5.08832 2.46007 55 90 140 255 
10.7647 5.18982 2.39445 62 73 137 255 
10.7782 5.19143 2.28212 72 31 112 255 
26.2805 12.6929 5.3249 70 11 94 255 
24.1777 11.6665 4.63216 72 33 115 255 
23.692 11.412 4.27807 72 35 116 255 
23.8155 11.4454 4.05273 72 26 108 255 
24.1455 11.6566 3.89233 71 17 100 255 
23.4343 11.3028 3.52235 72 28 110 255 
23.4901 11.2996 3.27911 71 16 99 255 
23.7541 11.4058 3.07216 71 17 100 255 
26.038 12.5702 3.1359 70 10 93 255 
0 0 0 68 2 86 255 
24.3919 11.7282 2.42025 72 23 105 255 
25.3142 12.1386 2.24892 71 16 99 255 
26.3378 12.7093 2.11162 70 7 90 255 
25.5843 12.3178 1.7815 72 20 103 255 
25.8074 12.3921 1.5254 69 5 89 255 
0 0 0 68 2 86 255 
52.0529 25.0957 2.07854 69 4 87 255 
51.9625 24.9954 1.53007 70 7 90 255 
12.6088 6.05179 0.239242 71 19 101 255 
0 0 0 69 4 87 255 
12.393 5.97226 -0.00240105 72 37 118 255 
12.5142 6.01427 -0.133284 70 7 90 255 
12.2004 5.85049 -0.255076 71 45 123 255 
12.2507 5.85868 -0.384056 63 72 137 255 
14.035 6.75448 -0.565692 72 24 106 255 
14.023 6.73341 -0.709107 71 45 123 255 
12.4246 5.95536 -0.758258 71 42 122 255 
11.5164 5.50501 -0.823205 72 38 119 255 
10.6489 5.12261 -0.857414 66 63 133 255 
9.87481 4.73733 -0.896599 64 69 136 255 
9.10374 4.35774 -0.922084 69 53 129 255 
8.36265 3.99748 -0.93497 68 57 131 255 
7.81378 3.75376 -0.94478 62 76 138 255 
7.34873 3.52389 -0.966052 55 90 140 255 
6.93075 3.3161 -0.984242 59 82 139 255 
6.54629 3.12643 -0.99891 58 83 139 255 
6.22982 2.98881 -1.00925 53 95 141 255 
5.88234 2.8182 -1.01441 62 76 138 255 
5.60319 2.67971 -1.02488 52 96 141 255 
5.34394 2.5522 -1.0357 52 97 141 255 
5.09457 2.4398 -1.03672 50 102 142 255 
4.88482 2.33715 -1.04475 60 80 139 255 
4.67082 2.23381 -1.05055 62 73 137 255 
4.49623 2.14831 -1.06192 62 73 137 255 
4.34369 2.07741 -1.06832 62 74 137 255 
4.18118 1.99869 -1.07333 61 77 138 255 
4.04046 1.93061 -1.08252 61 77 138 255 
3.8637 1.84774 -1.08053 65 68 135 255 
3.73891 1.78417 -1.08298 66 63 133 255 
3.62783 1.73107 -1.09061 68 57 131 255 
3.49235 1.66796 -1.09079 68 59 132 255 
3.39404 1.62459 -1.10246 67 62 133 255 
14.4753 6.86968 4.81313 72 41 121 255 
10.0535 4.78178 3.21963 51 98 141 255 
10.4311 4.96595 3.21911 61 78 138 255 
10.4739 4.98604 3.11475 70 51 127 255 
10.246 4.86912 2.94435 64 70 136 255 
10.3036 4.89851 2.84029 59 81 139 255 
10.5912 5.03311 2.80009 53 95 141 255 
10.4901 4.98258 2.6598 72 32 113 255 
10.5399 5.011 2.57445 52 97 141 255 
10.5678 5.02187 2.45925 65 68 135 255 
10.6963 5.07617 2.37225 58 84 140 255 
25.7416 12.2047 5.43443 71 14 97 255 
23.426 11.1375 4.73259 71 17 100 255 
24.0361 11.4169 4.59152 72 38 119 255 
23.8481 11.3075 4.29365 72 40 120 255 
23.4885 11.1114 3.98541 72 31 112 255 
23.9672 11.3897 3.85224 72 24 106 255 
23.18 11.0053 3.47392 72 41 121 255 
23.5267 11.14 3.27461 72 20 103 255 
23.4743 11.0947 3.02712 72 27 109 255 
23.8393 11.3289 2.86267 71 13 96 255 
24.6405 11.6829 2.69786 71 13 96 255 
24.7596 11.7185 2.44955 72 24 106 255 
25.1538 11.8724 2.22816 71 19 101 255 
25.0837 11.9149 2.00517 72 24 106 255 
26.1095 12.3738 1.81274 71 16 99 255 
26.1348 12.3526 1.54025 69 4 87 255 
0 0 0 68 2 86 255 
32.2585 15.3092 1.28435 69 5 89 255 
32.2364 15.2637 0.946444 69 4 87 255 
0 0 0 68 2 86 255 
0 0 0 68 2 86 255 
12.3292 5.84853 -0.00238168 66 65 134 255 
12.3013 5.81935 -0.130635 66 65 134 255 
12.2559 5.78491 -0.255491 71 13 96 255 
12.2865 5.7834 -0.384056 63 72 137 255 
12.2573 5.80658 -0.492594 57 86 140 255 
12.2343 5.7824 -0.616849 63 72 137 255 
12.7409 6.01109 -0.775292 72 40 120 255 
11.5526 5.43552 -0.823398 72 37 118 255 
10.6891 5.06144 -0.858138 66 64 134 255 
9.90189 4.6758 -0.896436 62 73 137 255 
9.10688 4.29077 -0.919719 69 53 129 255 
8.39602 3.95033 -0.935973 69 55 129 255 
7.83756 3.70617 -0.944889 62 73 137 255 
7.37829 3.48255 -0.967111 57 85 140 255 
6.95725 3.27647 -0.985132 61 78 138 255 
6.56177 3.08452 -0.998364 60 79 138 255 
6.23999 2.94673 -1.00794 54 92 141 255 
5.89684 2.78079 -1.01395 59 81 139 255 
5.60882 2.64024 -1.02293 53 95 141 255 
5.3488 2.51434 -1.03364 53 95 141 255 
5.10677 2.40724 -1.03618 50 101 142 255 
4.93105 2.32219 -1.05157 61 78 138 255 
4.69685 2.21095 -1.05333 64 70 136 255 
4.53234 2.1315 -1.06734 64 69 136 255 
4.34488 2.04532 -1.0655 61 77 138 255 
4.17661 1.96512 -1.06904 62 73 137 255 
4.03552 1.89792 -1.07805 62 74 137 255 
3.86093 1.81739 -1.07662 64 69 136 255 
3.74541 1.75914 -1.08171 65 68 135 255 
3.61567 1.69811 -1.08381 65 66 135 255 
3.49555 1.64323 -1.08862 68 59 132 255 
3.37877 1.59187 -1.09431 68 58 131 255 
15.6339 7.30236 5.1834 71 46 124 255 
10.2819 4.81327 3.28325 55 91 141 255 
15.7292 7.37016 4.84007 70 51 127 255 
10.3328 4.84137 3.06392 70 50 126 255 
10.1924 4.7672 2.92049 52 96 141 255 
10.5848 4.95282 2.90939 59 82 139 255 
10.5365 4.92806 2.77756 56 89 140 255 
10.6883 4.99655 2.70222 72 32 113 255 
10.5748 4.94831 2.57553 69 55 129 255 
10.6747 4.99258 2.47694 61 77 138 255 
23.79 11.1118 5.26099 72 27 109 255 
23.6173 11.0206 4.9716 71 19 101 255 
27.3859 12.8148 5.5166 71 19 101 255 
24.1048 11.2688 4.59135 72 33 115 255 
23.6264 11.0253 4.24146 72 40 120 255 
23.1925 10.7977 3.92386 72 27 109 255 
23.5848 11.0311 3.77984 72 29 111 255 
22.9679 10.7324 3.43219 71 42 122 255 
24.0308 11.1987 3.33515 72 23 105 255 
23.8329 11.0858 3.06452 71 13 96 255 
25.5824 11.9654 3.06312 71 13 96 255 
24.636 11.4962 2.68959 71 19 101 255 
24.5755 11.4473 2.42435 72 23 105 255 
25.7415 11.9572 2.27368 71 13 96 255 
26.5017 12.3898 2.11241 70 7 90 255 
0 0 0 69 4 87 255 
0 0 0 68 2 86 255 
0 0 0 68 2 86 255 
0 0 0 68 2 86 255 
69.8427 32.5469 2.04464 69 5 89 255 
51.8429 24.1045 0.977989 70 7 90 255 
50.051 23.2068 0.433308 70 8 92 255 
12.3594 5.77023 -0.00238063 64 70 136 255 
12.3287 5.73996 -0.130549 60 80 139 255 
12.3021 5.71466 -0.255717 66 65 134 255 
12.2963 5.69614 -0.383264 65 66 135 255 
12.2745 5.72281 -0.491868 61 77 138 255 
12.5077 5.81803 -0.628825 70 51 127 255 
12.7802 5.93406 -0.775457 71 44 122 255 
11.6003 5.37124 -0.824428 72 40 120 255 
10.7164 4.99407 -0.857848 67 61 132 255 
9.94396 4.62125 -0.89766 60 79 138 255 
9.15201 4.2436 -0.921629 68 58 131 255 
8.41378 3.89581 -0.935271 69 56 130 255 
7.85565 3.65591 -0.944347 62 73 137 255 
7.40943 3.44181 -0.968406 57 85 140 255 
6.98082 3.23539 -0.98564 60 79 138 255 
6.57967 3.04378 -0.998228 57 85 140 255 
6.25437 2.90672 -1.00737 54 93 141 255 
5.91738 2.74622 -1.01457 60 80 139 255 
5.62491 2.60577 -1.02293 53 95 141 255 
5.3543 2.47692 -1.03174 56 89 140 255 
5.13126 2.38041 -1.03817 48 106 142 255 
4.93451 2.28694 -1.0493 62 76 138 255 
4.69788 2.17632 -1.05055 64 70 136 255 
4.5196 2.09174 -1.06129 65 66 135 255 
4.34494 2.01287 -1.06247 61 77 138 255 
4.20008 1.94478 -1.07197 64 69 136 255 
4.03474 1.86741 -1.07476 62 73 137 255 
3.88081 1.79774 -1.07907 64 69 136 255 
3.78248 1.7483 -1.0893 64 69 136 255 
3.63917 1.68197 -1.08773 69 56 130 255 
3.49509 1.6169 -1.08536 68 58 131 255 
3.40241 1.57757 -1.09881 68 59 132 255 
15.7368 7.23309 5.20267 70 10 93 255 
15.8438 7.29877 5.04489 71 42 122 255 
15.8266 7.29771 4.85617 70 52 128 255 
10.2019 4.70387 3.01647 54 93 141 255 
10.2294 4.70821 2.92275 57 85 140 255 
10.2625 4.72544 2.81275 55 90 140 255 
10.5824 4.87063 2.78174 72 38 119 255 
10.949 5.03679 2.76026 72 28 110 255 
10.479 4.82533 2.54494 71 17 100 255 
10.762 4.95318 2.49011 61 78 138 255 
23.3998 10.7551 5.16001 72 36 117 255 
23.7684 10.914 4.98921 72 23 105 255 
25.7859 11.8738 5.17952 70 8 92 255 
24.4448 11.2455 4.64287 72 20 103 255 
22.9679 10.5469 4.11156 72 24 106 255 
23.2313 10.6428 3.91931 72 36 117 255 
23.0327 10.6011 3.68085 71 44 122 255 
22.7983 10.4832 3.39718 72 41 121 255 
23.6012 10.8227 3.26625 72 26 108 255 
23.6837 10.8401 3.03673 71 19 101 255 
24.14 11.1107 2.88218 71 17 100 255 
24.5324 11.265 2.67069 72 27 109 255 
24.6362 11.2922 2.42345 72 23 105 255 
25.0574 11.453 2.207 69 5 89 255 
36.1512 16.6314 2.87337 69 4 87 255 
27.2063 12.4871 1.87811 71 14 97 255 
28.0686 12.8476 1.6448 71 13 96 255 
0 0 0 68 2 86 255 
0 0 0 68 2 86 255 
70.4872 32.3223 2.05767 69 5 89 255 
0 0 0 68 2 86 255 
50.3052 22.9507 0.434281 70 7 90 255 
12.4263 5.7089 -0.00238674 70 48 126 255 
12.4064 5.68378 -0.131 55 90 140 255 
12.4206 5.6773 -0.257451 51 98 141 255 
12.512 5.70308 -0.38889 72 33 115 255 
12.9343 5.93409 -0.516839 71 46 124 255 
12.5269 5.73369 -0.628005 62 76 138 255 
12.8482 5.87006 -0.77738 71 42 122 255 
11.6866 5.32437 -0.828225 72 40 120 255 
10.7432 4.92656 -0.857559 68 59 132 255 
9.9966 4.57134 -0.899863 59 81 139 255 
9.18966 4.19274 -0.922812 68 59 132 255 
8.46288 3.85566 -0.938081 67 61 132 255 
7.89782 3.61675 -0.946731 63 72 137 255 
7.43944 3.40041 -0.969583 58 83 139 255 
7.02039 3.20155 -0.988436 60 79 138 255 
6.60003 3.00417 -0.998501 61 77 138 255 
6.26758 2.86623 -1.00664 54 93 141 255 
5.93681 2.71109 -1.01503 59 81 139 255 
5.65426 2.57735 -1.02537 52 97 141 255 
5.38643 2.45177 -1.03502 56 89 140 255 
5.14935 2.35051 -1.03889 50 102 142 255 
4.94935 2.25702 -1.04949 61 77 138 255 
4.71471 2.14908 -1.05135 58 83 139 255 
4.54303 2.06883 -1.0638 66 64 134 255 
4.35277 1.98415 -1.06139 64 70 136 255 
4.21814 1.9218 -1.07355 59 81 139 255 
4.06559 1.85148 -1.07993 60 79 138 255 
3.89441 1.7751 -1.0798 65 68 135 255 
3.79313 1.72506 -1.0893 62 73 137 255 
3.66874 1.6684 -1.0935 66 65 134 255 
3.53473 1.60898 -1.09458 67 61 132 255 
3.41726 1.55905 -1.1005 68 59 132 255 
15.8995 7.19006 5.2418 70 11 94 255 
12.3727 5.60797 3.92862 71 42 122 255 
12.4621 5.65386 3.81311 62 74 137 255 
10.5524 4.78722 3.11138 55 91 141 255 
10.2642 4.64815 2.92451 48 106 142 255 
10.2957 4.66438 2.81396 62 74 137 255 
10.3702 4.69607 2.71834 58 84 140 255 
10.4033 4.70866 2.61538 71 42 122 255 
10.8767 4.92778 2.63412 72 22 104 255 
10.8038 4.8923 2.49278 57 85 140 255 
23.5699 10.6586 5.183 71 42 122 255 
23.9343 10.8128 5.01001 71 14 97 255 
27.5599 12.4863 5.52037 70 11 94 255 
24.5914 11.1306 4.65767 71 19 101 255 
22.8793 10.3367 4.08427 71 45 123 255 
23.2638 10.4855 3.91386 72 32 113 255 
22.9585 10.3967 3.65873 72 41 121 255 
23.1295 10.464 3.43689 72 31 112 255 
23.4899 10.5977 3.24179 71 16 99 255 
24.1926 10.894 3.09336 72 22 104 255 
24.3915 11.0457 2.90407 72 23 105 255 
24.4778 11.0586 2.6573 72 28 110 255 
25.4559 11.4794 2.49711 72 20 103 255 
24.7781 11.1421 2.17634 72 20 103 255 
27.3196 12.3659 2.16534 70 7 90 255 
27.6563 12.4888 1.90385 72 20 103 255 
28.258 12.7252 1.65129 71 19 101 255 
0 0 0 68 2 86 255 
0 0 0 68 2 86 255 
0 0 0 69 4 87 255 
0 0 0 69 4 87 255 
50.831 22.8148 0.437604 69 5 89 255 
13.6594 6.17418 -0.00261625 71 14 97 255 
12.4191 5.59769 -0.130769 71 44 122 255 
12.4032 5.57761 -0.256376 72 29 111 255 
19.0473 8.54115 -0.590374 72 27 109 255 
16.4317 7.41694 -0.65476 71 44 122 255 
14.4774 6.51931 -0.72377 72 28 110 255 
12.3958 5.5717 -0.747927 70 51 127 255 
11.7409 5.26236 -0.829769 71 44 122 255 
10.7669 4.85768 -0.857052 66 63 133 255 
10.0617 4.52668 -0.903208 56 89 140 255 
9.22884 4.14239 -0.924177 68 59 132 255 
8.48456 3.80285 -0.93788 69 55 129 255 
7.92167 3.56903 -0.946947 60 80 139 255 
7.4493 3.34981 -0.968171 60 79 138 255 
7.04986 3.16287 -0.989833 60 79 138 255 
6.61291 2.96119 -0.997682 61 78 138 255 
6.27874 2.82488 -1.00563 55 90 140 255 
5.96866 2.68149 -1.01764 56 89 140 255 
5.67807 2.54624 -1.02684 57 86 140 255 
5.38609 2.41183 -1.03209 57 86 140 255 
5.16188 2.31807 -1.03853 47 107 142 255 
4.95683 2.2238 -1.04816 55 90 140 255 
4.74033 2.12572 -1.05413 60 79 138 255 
4.54135 2.03452 -1.06046 64 69 136 255 
4.3809 1.96459 -1.06529 62 76 138 255 
4.22008 1.8915 -1.07107 60 80 139 255 
4.06445 1.82093 -1.07664 62 73 137 255 
3.90435 1.75078 -1.07955 65 66 135 255 
3.80365 1.70175 -1.0893 65 66 135 255 
3.66041 1.63758 -1.088 65 66 135 255 
3.52696 1.57939 -1.08916 67 61 132 255 
3.40925 1.5302 -1.09487 68 59 132 255 
15.9985 7.11689 5.25992 71 44 122 255 
16.1033 7.18007 5.09907 71 44 122 255 
12.4491 5.55609 3.79862 71 45 123 255 
12.4707 5.56547 3.66685 69 55 129 255 
10.3306 4.60202 2.93531 70 50 126 255 
10.3206 4.59954 2.81299 72 41 121 255 
10.3606 4.61533 2.70835 60 79 138 255 
10.4383 4.64751 2.61694 64 70 136 255 
24.0353 10.7121 5.80485 72 22 104 255 
10.8577 4.83667 2.49833 72 23 105 255 
23.6313 10.5122 5.18221 71 17 100 255 
24.5091 10.8919 5.11626 71 13 96 255 
27.5417 12.2749 5.50152 70 10 93 255 
27.9361 12.4385 5.2766 70 11 94 255 
22.9297 10.1905 4.08202 71 42 122 255 
22.8614 10.1358 3.83563 72 35 116 255 
23.1005 10.2907 3.67122 72 38 119 255 
23.1724 10.3127 3.4338 72 32 113 255 
25.7292 11.4185 3.54109 71 19 101 255 
24.7658 10.9698 3.15797 72 22 104 255 
24.7167 11.0107 2.9347 72 28 110 255 
24.5006 10.8884 2.65248 71 19 101 255 
22.9174 10.1659 2.24193 72 27 109 255 
24.7147 10.9317 2.16484 72 24 106 255 
24.7626 11.0259 1.95728 70 8 92 255 
27.8546 12.3731 1.91224 71 19 101 255 
28.4122 12.5855 1.65576 70 7 90 255 
0 0 0 68 2 86 255 
0 0 0 68 2 86 255 
71.3884 31.6812 2.07247 69 5 89 255 
0 0 0 68 2 86 255 
51.4091 22.6963 0.441374 69 5 89 255 
12.3474 5.49016 -0.00235846 66 63 133 255 
12.5364 5.55826 -0.131643 71 19 101 255 
23.3391 10.3237 -0.481106 70 10 93 255 
18.6494 8.22564 -0.576465 72 23 105 255 
16.6395 7.38817 -0.66122 72 41 121 255 
14.803 6.55699 -0.738024 72 27 109 255 
12.6553 5.59526 -0.7615 71 46 124 255 
11.7684 5.18821 -0.829448 71 47 125 255 
10.7946 4.79071 -0.856908 66 65 134 255 
10.0775 4.45962 -0.902147 59 81 139 255 
9.24315 4.08086 -0.923085 67 61 132 255 
8.50591 3.74991 -0.93768 69 55 129 255 
7.94433 3.52076 -0.947056 62 73 137 255 
7.47516 3.30645 -0.968877 60 80 139 255 
7.06641 3.11836 -0.989452 58 84 140 255 
6.64183 2.92535 -0.999319 59 82 139 255 
6.30862 2.7919 -1.00766 51 98 141 255 
5.97958 2.64242 -1.01672 55 90 140 255 
5.70803 2.51772 -1.02944 54 93 141 255 
5.39538 2.37636 -1.03105 54 92 141 255 
5.16791 2.28277 -1.0369 50 101 142 255 
4.93265 2.17669 -1.04021 61 78 138 255 
4.76673 2.10253 -1.05711 58 83 139 255 
4.53854 1.99991 -1.05692 63 71 136 255 
4.38215 1.93295 -1.06269 66 65 134 255 
4.23428 1.86675 -1.07175 63 72 137 255 
4.07644 1.79635 -1.07688 62 76 138 255 
3.93453 1.7354 -1.08494 64 70 136 255 
3.79099 1.66825 -1.08272 66 65 134 255 
3.65979 1.61042 -1.08485 65 66 135 255 
3.52426 1.55229 -1.08536 66 64 134 255 
3.41419 1.50731 -1.09347 68 57 131 255 
9.07777 3.97169 2.97649 63 71 136 255 
12.3949 5.43566 3.91417 72 20 103 255 
12.4582 5.46876 3.7911 72 27 109 255 
12.5064 5.48962 3.66737 72 38 119 255 
10.7239 4.69858 3.03881 67 62 133 255 
10.4704 4.5895 2.84609 65 68 135 255 
10.3344 4.52786 2.69418 52 97 141 255 
11.0622 4.84418 2.76585 72 35 116 255 
10.7351 4.70572 2.58565 61 77 138 255 
10.8478 4.75267 2.48928 61 78 138 255 
11.1865 4.89423 2.44651 72 31 112 255 
27.4314 11.9896 5.71082 70 10 93 255 
24.5783 10.7739 4.89628 72 22 104 255 
23.1699 10.1465 4.36452 72 38 119 255 
22.8706 9.99662 4.0605 72 38 119 255 
22.9041 9.98706 3.83244 72 40 120 255 
23.1369 10.1372 3.66706 72 33 115 255 
23.0201 10.0761 3.40201 72 32 113 255 
25.7333 11.2319 3.5321 71 16 99 255 
25.3243 11.0319 3.22051 71 13 96 255 
24.6154 10.785 2.91475 72 31 112 255 
23.056 10.0774 2.48934 72 33 115 255 
25.1567 10.975 2.45436 72 28 110 255 
24.795 10.7859 2.16604 71 16 99 255 
27.4766 12.0329 2.16592 72 20 103 255 
28.1751 12.3091 1.92902 70 11 94 255 
28.3086 12.3324 1.64528 71 17 100 255 
0 0 0 68 2 86 255 
0 0 0 68 2 86 255 
71.8911 31.3777 2.08143 69 4 87 255 
0 0 0 68 2 86 255 
52.5362 22.8098 0.44984 70 7 90 255 
13.6306 5.96081 -0.00259653 70 8 92 255 
32.5889 14.2103 -0.341289 70 11 94 255 
21.1576 9.20397 -0.434965 71 14 97 255 
14.194 6.15678 -0.437572 72 20 103 255 
16.777 7.32632 -0.664886 72 31 112 255 
14.4592 6.29887 -0.718944 72 31 112 255 
12.9541 5.63257 -0.77738 72 37 118 255 
11.757 5.09725 -0.826423 71 44 122 255 
10.8293 4.72678 -0.857342 67 61 132 255 
10.0726 4.38378 -0.899292 62 73 137 255 
9.30729 4.04112 -0.926997 67 61 132 255 
8.52237 3.69488 -0.936977 68 59 132 255 
7.97125 3.47433 -0.947706 59 82 139 255 
7.49986 3.2625 -0.969465 60 79 138 255 
7.08541 3.07494 -0.989452 58 84 140 255 
6.66329 2.88612 -0.999865 57 85 140 255 
6.3211 2.75117 -1.00693 58 84 140 255 
5.97665 2.59741 -1.01349 56 88 140 255 
5.73062 2.48579 -1.03075 54 93 141 255 
5.42161 2.3483 -1.03329 54 92 141 255 
5.17551 2.24828 -1.03564 52 96 141 255 
4.94772 2.14717 -1.04058 62 74 137 255 
4.77685 2.07207 -1.05652 59 81 139 255 
4.55611 1.97436 -1.05817 65 66 135 255 
4.38587 1.90253 -1.06074 65 68 135 255 
4.24387 1.83996 -1.0713 61 77 138 255 
4.08292 1.76937 -1.0757 63 72 137 255 
3.95044 1.71354 -1.0864 66 65 134 255 
3.81891 1.65264 -1.08778 64 70 136 255 
3.66695 1.58679 -1.08407 65 66 135 255 
3.5558 1.5402 -1.09214 66 65 134 255 
3.42865 1.48863 -1.09515 66 65 134 255 
9.13276 3.92916 2.98656 50 100 142 255 
13.8764 5.98412 4.37035 72 27 109 255 
14.4603 6.24205 4.38859 72 27 109 255 
23.7266 10.2415 6.93901 71 17 100 255 
16.2017 6.98045 4.57882 72 35 116 255 
12.5229 5.39786 3.39497 71 46 124 255 
10.379 4.47168 2.6986 53 95 141 255 
10.8732 4.68214 2.71137 71 47 125 255 
23.756 10.2401 5.70661 72 28 110 255 
10.8057 4.65543 2.47303 71 46 124 255 
24.8916 10.7089 5.42936 70 10 93 255 
26.7266 11.4867 5.5493 70 10 93 255 
24.6575 10.6287 4.89897 72 20 103 255 
22.9657 9.88956 4.31453 72 20 103 255 
23.1255 9.93951 4.09486 72 32 113 255 
23.243 9.96552 3.87884 72 38 119 255 
23.0014 9.91009 3.63588 71 42 122 255 
24.618 10.596 3.62847 71 16 99 255 
26.0798 11.1931 3.57017 71 16 99 255 
23.7426 10.17 3.01137 71 14 97 255 
25.0153 10.7777 2.95421 71 16 99 255 
23.1302 9.94128 2.49072 72 31 112 255 
23.099 9.90902 2.24763 72 24 106 255 
23.0562 9.86166 2.00881 72 29 111 255 
27.5838 11.8787 2.16859 71 19 101 255 
28.2795 12.1486 1.93103 72 24 106 255 
28.4874 12.2029 1.65129 71 14 97 255 
0 0 0 68 1 84 255 
0 0 0 68 1 84 255 
0 0 0 69 4 87 255 
0 0 0 68 2 86 255 
53.273 22.7422 0.454945 69 5 89 255 
13.6679 5.87746 -0.0025967 70 7 90 255 
28.2889 12.1293 -0.295472 71 17 100 255 
25.1849 10.7726 -0.516391 70 8 92 255 
14.306 6.10134 -0.439862 72 23 105 255 
14.3506 6.16217 -0.567216 72 36 117 255 
15.2019 6.51173 -0.753871 72 32 113 255 
12.9893 5.55337 -0.777435 71 42 122 255 
11.7935 5.02736 -0.826809 72 35 116 255 
10.8719 4.66614 -0.858427 67 62 133 255 
10.0957 4.32032 -0.898965 61 78 138 255 
9.32367 3.98042 -0.926178 68 59 132 255 
8.55312 3.64603 -0.93788 67 61 132 255 
7.99242 3.42536 -0.947706 59 81 139 255 
7.53891 3.22462 -0.971937 62 76 138 255 
7.11236 3.03491 -0.990596 60 80 139 255 
6.66812 2.83974 -0.997955 58 83 139 255 
6.32603 2.70727 -1.00505 58 84 140 255 
5.98066 2.55564 -1.01149 59 81 139 255 
5.73215 2.44478 -1.0283 54 92 141 255 
5.42413 2.30997 -1.03105 57 86 140 255 
5.19554 2.21918 -1.0369 51 98 141 255 
4.97254 2.12178 -1.04305 54 92 141 255 
4.80299 2.04849 -1.0595 59 82 139 255 
4.57623 1.94982 -1.06004 64 69 136 255 
4.40195 1.8775 -1.06182 63 71 136 255 
4.24611 1.81006 -1.06904 62 73 137 255 
4.07403 1.73591 -1.07053 65 66 135 255 
3.96534 1.69117 -1.08763 65 66 135 255 
3.80228 1.61781 -1.08019 63 71 136 255 
3.67839 1.56501 -1.08459 64 70 136 255 
3.57935 1.52439 -1.09648 65 66 135 255 
3.46067 1.47736 -1.10246 66 64 134 255 
9.30047 3.93386 3.03345 49 104 142 255 
13.9367 5.90899 4.37785 63 72 137 255 
14.4735 6.14267 4.38108 72 36 117 255 
25.1546 10.6752 7.33734 72 20 103 255 
16.2041 6.86392 4.56752 69 56 130 255 
10.4866 4.44401 2.83546 61 78 138 255 
10.3722 4.3935 2.68977 55 90 140 255 
10.9062 4.61724 2.71249 72 33 115 255 
10.9791 4.65289 2.63046 56 89 140 255 
11.1684 4.73065 2.54934 62 76 138 255 
24.7401 10.4643 5.38221 70 11 94 255 
24.7824 10.4714 5.13219 71 14 97 255 
24.7141 10.4738 4.89736 70 10 93 255 
25.1684 10.6555 4.71599 71 17 100 255 
23.5634 9.95687 4.1615 72 38 119 255 
23.7227 9.99932 3.94857 72 31 112 255 
23.3297 9.88225 3.67812 72 31 112 255 
23.8621 10.0976 3.50786 70 11 94 255 
25.2741 10.6641 3.45085 70 11 94 255 
23.0805 9.71916 2.91977 72 32 113 255 
23.0999 9.78492 2.72088 72 38 119 255 
23.1834 9.79607 2.48993 72 40 120 255 
23.1768 9.77446 2.24933 71 17 100 255 
26.7826 11.2616 2.32742 70 10 93 255 
25.0422 10.6025 1.96362 71 16 99 255 
28.4141 12.0004 1.93516 71 19 101 255 
0 0 0 69 4 87 255 
46.1495 19.3862 2.19424 70 7 90 255 
0 0 0 68 2 86 255 
0 0 0 68 2 86 255 
0 0 0 69 4 87 255 
0 0 0 68 2 86 255 
28.5016 12.0496 -0.00540075 72 24 106 255 
14.52 6.12046 -0.151264 71 19 101 255 
14.458 6.0796 -0.295675 71 19 101 255 
19.3176 8.09896 -0.59241 72 28 110 255 
17.0986 7.21822 -0.674068 72 40 120 255 
14.6219 6.15741 -0.723224 72 38 119 255 
13.0222 5.47318 -0.77738 72 40 120 255 
11.8729 4.97534 -0.83022 71 47 125 255 
10.8837 4.59237 -0.857125 66 64 134 255 
10.1275 4.26061 -0.899455 60 80 139 255 
9.38006 3.93662 -0.929363 68 59 132 255 
8.5735 3.59271 -0.93768 69 56 130 255 
8.00504 3.37278 -0.946731 61 78 138 255 
7.54666 3.1733 -0.970407 61 77 138 255 
7.13634 2.99351 -0.991358 56 89 140 255 
6.69181 2.80145 -0.99891 60 79 138 255 
6.34617 2.66994 -1.00563 59 81 139 255 
6.00807 2.52387 -1.01349 59 81 139 255 
5.73521 2.4046 -1.02619 52 96 141 255 
5.44093 2.27778 -1.03157 53 95 141 255 
5.2154 2.18993 -1.03817 49 104 142 255 
5.00176 2.09806 -1.04646 52 96 141 255 
4.81637 2.01936 -1.0597 60 80 139 255 
4.59533 1.92472 -1.06171 62 73 137 255 
4.42059 1.85347 -1.06356 61 77 138 255 
4.27062 1.78962 -1.07243 61 78 138 255 
4.0855 1.71125 -1.07077 63 72 137 255 
3.9828 1.6698 -1.08958 67 62 133 255 
3.80499 1.59147 -1.07817 64 69 136 255 
3.69059 1.54353 -1.08538 66 63 133 255 
3.57976 1.49868 -1.09377 66 64 134 255 
3.45994 1.45201 -1.09937 66 64 134 255 
9.40845 3.91165 3.06079 72 40 120 255 
9.45674 3.94125 2.96293 65 68 135 255 
14.5998 6.09083 4.40792 66 64 134 255 
14.6046 6.09251 4.24904 71 19 101 255 
14.6849 6.11438 4.12863 72 27 109 255 
10.3658 4.31801 2.7956 71 46 124 255 
10.2669 4.27481 2.65563 72 29 111 255 
10.7436 4.47084 2.66516 63 71 136 255 
10.9795 4.57379 2.62378 60 80 139 255 
11.0761 4.61163 2.52178 54 93 141 255 
23.6721 9.84174 5.13663 72 27 109 255 
24.2919 10.089 5.0177 70 10 93 255 
24.4919 10.2028 4.84082 70 10 93 255 
25.0796 10.4369 4.68725 72 20 103 255 
25.0278 10.3951 4.40878 71 19 101 255 
23.9991 9.94286 3.98435 72 31 112 255 
23.4666 9.77087 3.69019 72 29 111 255 
25.8551 10.7544 3.79107 71 16 99 255 
23.9157 9.91857 3.25701 71 14 97 255 
23.0286 9.5314 2.90575 72 36 117 255 
23.4119 9.74809 2.75053 72 36 117 255 
23.2413 9.65287 2.48974 71 17 100 255 
26.5359 10.9998 2.56873 71 16 99 255 
25.4758 10.5287 2.2082 71 13 96 255 
25.1528 10.4678 1.96722 72 29 111 255 
25.2362 10.4763 1.71431 71 16 99 255 
46.1279 19.0929 2.66005 70 8 92 255 
46.3026 19.1171 2.19591 70 7 90 255 
0 0 0 68 2 86 255 
0 0 0 68 2 86 255 
46.2103 19.1175 0.855443 69 5 89 255 
46.2127 19.0612 0.392624 70 8 92 255 
14.5987 6.06655 -0.00275919 71 42 122 255 
13.7416 5.69329 -0.142788 72 40 120 255 
13.7161 5.66884 -0.279786 70 52 128 255 
13.6848 5.63894 -0.418602 72 38 119 255 
13.696 5.68303 -0.538543 72 38 119 255 
13.6958 5.66872 -0.675683 71 45 123 255 
13.0509 5.39127 -0.777105 72 41 121 255 
11.8774 4.89176 -0.828418 71 45 123 255 
10.909 4.52435 -0.856908 68 58 131 255 
10.1351 4.19077 -0.897823 62 74 137 255 
9.41324 3.88279 -0.930273 67 62 133 255 
8.58342 3.53511 -0.936375 67 62 133 255 
8.02467 3.32322 -0.946622 59 82 139 255 
7.56782 3.12769 -0.970643 59 82 139 255 
7.15457 2.94967 -0.991358 59 81 139 255 
6.70888 2.76034 -0.99891 57 85 140 255 
6.37066 2.63435 -1.00693 57 85 140 255 
6.03623 2.49224 -1.01564 57 86 140 255 
5.7453 2.36749 -1.02537 51 98 141 255 
5.46573 2.24885 -1.03364 56 89 140 255 
5.22601 2.15676 -1.03762 51 98 141 255 
5.01727 2.06846 -1.04702 48 106 142 255 
4.82777 1.9894 -1.0595 61 77 138 255 
4.62424 1.90357 -1.06567 59 81 139 255 
4.44903 1.83338 -1.06767 63 72 137 255 
4.29413 1.76858 -1.07558 61 78 138 255 
4.09682 1.68652 -1.071 67 61 132 255 
3.99566 1.64644 -1.09032 65 66 135 255 
3.846 1.58096 -1.08702 63 72 137 255 
3.69018 1.51682 -1.0825 66 63 133 255 
3.59333 1.47852 -1.09513 66 64 134 255 
3.45281 1.42417 -1.09431 66 63 133 255 
11.1531 4.55695 3.6192 68 58 131 255 
9.48341 3.88424 2.96376 68 59 132 255 
14.5219 5.954 4.37329 66 65 134 255 
14.6462 6.00462 4.25033 71 17 100 255 
14.6719 6.00363 4.11456 72 20 103 255 
14.4531 5.91679 3.88804 66 63 133 255 
24.6522 10.0873 6.36036 71 14 97 255 
10.7988 4.41627 2.67208 71 17 100 255 
10.8474 4.44085 2.58565 71 19 101 255 
11.2265 4.59361 2.54955 59 82 139 255 
11.0228 4.50363 2.3858 55 90 140 255 
23.8668 9.74116 4.91745 72 27 109 255 
24.1216 9.87524 4.75556 72 28 110 255 
23.7066 9.69532 4.41945 72 27 109 255 
24.6735 10.0709 4.3354 72 31 112 255 
24.0541 9.79318 3.98344 72 29 111 255 
23.8925 9.77661 3.74765 72 36 117 255 
25.5904 10.4605 3.74277 72 20 103 255 
24.2408 9.87949 3.29296 72 29 111 255 
23.0959 9.39366 2.90691 72 38 119 255 
23.2735 9.52331 2.72735 71 19 101 255 
23.2798 9.50181 2.48757 72 23 105 255 
27.0567 11.0216 2.61255 72 24 106 255 
25.3773 10.3061 2.19415 72 24 106 255 
25.14 10.2819 1.96124 72 29 111 255 
26.3414 10.7461 1.78488 72 28 110 255 
0 0 0 68 2 86 255 
46.6162 18.9127 2.20523 69 5 89 255 
46.413 18.9635 1.80341 70 8 92 255 
46.4472 18.9294 1.33091 70 7 90 255 
0 0 0 68 2 86 255 
0 0 0 68 2 86 255 
14.5727 5.95116 -0.00274732 72 35 116 255 
14.5376 5.91882 -0.150678 71 47 125 255 
14.425 5.85845 -0.293508 72 27 109 255 
14.1917 5.74619 -0.43302 71 19 101 255 
14.1646 5.77586 -0.555566 72 24 106 255 
14.9333 6.07386 -0.734882 72 31 112 255 
13.0727 5.30658 -0.776446 66 64 134 255 
11.9997 4.85622 -0.834854 71 42 122 255 
10.9642 4.46863 -0.859079 67 61 132 255 
10.1661 4.13076 -0.898313 59 82 139 255 
9.43043 3.82234 -0.929636 66 64 134 255 
8.62985 3.49246 -0.939085 68 59 132 255 
8.07069 3.28441 -0.949656 58 84 140 255 
7.61447 3.09241 -0.974174 58 84 140 255 
7.17805 2.90795 -0.99212 56 89 140 255 
6.71742 2.71578 -0.997682 62 76 138 255 
6.38763 2.59559 -1.00708 59 82 139 255 
6.04592 2.45293 -1.01472 59 82 139 255 
5.77069 2.33663 -1.02733 50 101 142 255 
5.48765 2.2186 -1.03519 54 93 141 255 
5.23915 2.12465 -1.03762 52 96 141 255 
5.0244 2.03542 -1.04589 49 104 142 255 
4.8199 1.95164 -1.05512 61 77 138 255 
4.62495 1.87076 -1.06317 62 73 137 255 
4.45205 1.80275 -1.06572 59 82 139 255 
4.29316 1.73744 -1.07265 62 73 137 255 
4.108 1.66172 -1.07124 67 61 132 255 
4.00748 1.62262 -1.09081 64 69 136 255 
3.86101 1.55951 -1.08854 65 68 135 255 
3.70926 1.49813 -1.08538 65 66 135 255 
3.64339 1.47304 -1.10761 66 63 133 255 
3.46237 1.40331 -1.09459 65 66 135 255 
14.3831 5.77395 4.65577 72 32 113 255 
11.2172 4.51421 3.49689 64 69 136 255 
11.2459 4.53042 3.37828 67 62 133 255 
14.6962 5.92005 4.25422 72 29 111 255 
25.5841 10.286 7.15689 70 10 93 255 
11.1176 4.47185 2.98331 68 59 132 255 
25.034 10.0647 6.44282 72 26 108 255 
25.4908 10.2426 6.29186 71 14 97 255 
10.8735 4.37385 2.58544 63 71 136 255 
10.835 4.35599 2.45452 72 23 105 255 
11.1221 4.46477 2.40133 54 92 141 255 
23.8049 9.54591 4.89253 72 23 105 255 
23.854 9.59525 4.69113 72 31 112 255 
23.7848 9.55739 4.42302 72 29 111 255 
24.5461 9.84365 4.30232 71 16 99 255 
23.7237 9.48939 3.91901 72 29 111 255 
24.031 9.66157 3.76001 72 32 113 255 
24.1625 9.70427 3.52517 72 24 106 255 
24.3525 9.75122 3.29995 72 24 106 255 
23.3043 9.31222 2.9259 72 36 117 255 
23.0409 9.2635 2.69338 72 33 115 255 
23.3811 9.3762 2.4922 72 29 111 255 
27.4456 10.9842 2.64354 71 13 96 255 
25.5771 10.2049 2.20596 72 24 106 255 
25.2109 10.1308 1.96189 72 31 112 255 
26.4235 10.5909 1.78601 72 22 104 255 
46.7167 18.6684 2.68059 69 4 87 255 
46.3054 18.4565 2.18513 69 5 89 255 
0 0 0 68 2 86 255 
0 0 0 68 2 86 255 
0 0 0 68 2 86 255 
0 0 0 68 2 86 255 
14.5736 5.84748 -0.00274069 72 35 116 255 
14.5374 5.81502 -0.150304 70 48 126 255 
14.4328 5.75872 -0.292942 72 36 117 255 
19.2525 7.65814 -0.585992 72 26 108 255 
14.2239 5.6985 -0.556509 72 26 108 255 
15.1753 6.06404 -0.744945 71 45 123 255 
13.207 5.26695 -0.782491 72 41 121 255 
11.9727 4.76001 -0.830928 72 41 121 255 
10.9803 4.39682 -0.85821 68 59 132 255 
10.1718 4.06054 -0.896599 62 73 137 255 
9.46203 3.76772 -0.930455 66 65 134 255 
8.66221 3.44385 -0.940289 68 59 132 255 
8.09623 3.23704 -0.950306 59 81 139 255 
7.61117 3.0368 -0.971349 58 83 139 255 
7.1764 2.85615 -0.989452 58 84 140 255 
6.74501 2.6789 -0.999319 61 78 138 255 
6.40067 2.55524 -1.00664 56 89 140 255 
6.06728 2.41834 -1.0158 60 79 138 255 
5.79042 2.30337 -1.0283 51 98 141 255 
5.5039 2.18598 -1.0357 57 85 140 255 
5.24661 2.09028 -1.03654 52 96 141 255 
5.04227 2.00673 -1.04702 50 102 142 255 
4.82996 1.92131 -1.05473 59 82 139 255 
4.62634 1.83837 -1.06088 65 66 135 255 
4.46031 1.77431 -1.06507 60 80 139 255 
4.31641 1.71611 -1.07581 60 79 138 255 
4.12082 1.63756 -1.07194 65 68 135 255 
4.00115 1.59155 -1.0864 63 72 137 255 
3.84443 1.52544 -1.08121 63 72 137 255 
3.75157 1.48851 -1.09507 65 68 135 255 
3.62999 1.44177 -1.10082 66 65 134 255 
3.49053 1.38985 -1.10078 66 64 134 255 
14.6152 5.76323 4.71935 72 28 110 255 
12.2855 4.85674 3.82055 72 36 117 255 
11.1176 4.39965 3.33157 72 38 119 255 
11.2757 4.46196 3.25608 66 63 133 255 
14.37 5.67522 4.01005 72 35 116 255 
14.5616 5.7536 3.89794 70 51 127 255 
24.6601 9.73902 6.3311 72 20 103 255 
24.5214 9.67876 6.0378 72 23 105 255 
10.921 4.3153 2.59039 65 68 135 255 
10.9653 4.33041 2.47797 69 55 129 255 
23.6841 9.33925 5.10107 72 29 111 255 
24.128 9.50406 4.94687 72 22 104 255 
24.0616 9.50763 4.72038 72 20 103 255 
25.3435 10.0035 4.70137 71 17 100 255 
23.5637 9.28226 4.12007 72 27 109 255 
23.6067 9.27497 3.89021 72 33 115 255 
23.8413 9.41579 3.72122 72 33 115 255 
24.1654 9.53365 3.51698 72 24 106 255 
24.2014 9.51881 3.27149 72 20 103 255 
23.5746 9.25288 2.95265 72 33 115 255 
23.6105 9.32463 2.75323 71 19 101 255 
26.0723 10.2702 2.77229 71 14 97 255 
23.6581 9.30039 2.2732 72 26 108 255 
25.6801 10.0638 2.20948 72 27 109 255 
24.8106 9.79358 1.92602 72 24 106 255 
0 0 0 69 4 87 255 
46.2782 18.1647 2.64898 69 4 87 255 
57.6771 22.5799 2.71517 69 4 87 255 
0 0 0 69 4 87 255 
0 0 0 69 4 87 255 
0 0 0 68 2 86 255 
0 0 0 68 2 86 255 
14.5748 5.74438 -0.00273423 72 41 121 255 
14.4527 5.67854 -0.149065 72 32 113 255 
25.7111 10.0764 -0.520594 71 13 96 255 
19.3066 7.54278 -0.586218 72 29 111 255 
17.3747 6.83742 -0.678133 72 32 113 255 
14.8709 5.83686 -0.728233 72 35 116 255 
13.2697 5.19783 -0.784304 72 36 117 255 
12.0686 4.71259 -0.835562 72 37 118 255 
11.0052 4.32863 -0.858066 69 55 129 255 
10.1993 3.99915 -0.896844 62 73 137 255 
9.51094 3.71975 -0.933002 63 71 136 255 
8.68318 3.39064 -0.940289 69 56 130 255 
8.10761 3.18403 -0.949331 60 79 138 255 
7.63613 2.99258 -0.972173 57 86 140 255 
7.18548 2.80881 -0.988309 60 80 139 255 
6.7687 2.64035 -1.00041 60 79 138 255 
6.419 2.517 -1.00708 58 84 140 255 
6.09949 2.38792 -1.01872 60 79 138 255 
5.81547 2.2721 -1.03026 51 98 141 255 
5.52088 2.1536 -1.03639 57 86 140 255 
5.27399 2.06379 -1.03943 53 95 141 255 
5.08467 1.98755 -1.05328 47 108 142 255 
4.85535 1.89699 -1.05771 60 79 138 255 
4.66578 1.82097 -1.06734 62 73 137 255 
4.47656 1.74904 -1.06637 62 73 137 255 
4.32233 1.68782 -1.07468 60 79 138 255 
4.14347 1.61719 -1.07523 64 70 136 255 
4.01535 1.56873 -1.08763 66 65 134 255 
3.84831 1.49971 -1.07969 66 64 134 255 
3.72736 1.4525 -1.08538 66 65 134 255 
3.62891 1.41562 -1.09784 63 71 136 255 
3.50346 1.37016 -1.10218 65 66 135 255 
9.68112 3.7491 3.11861 56 89 140 255 
14.4643 5.61569 4.48731 72 35 116 255 
9.61263 3.73602 2.87366 60 80 139 255 
11.2966 4.39024 3.25427 72 29 111 255 
11.2695 4.37099 3.1373 65 68 135 255 
11.2983 4.38423 3.01713 71 47 125 255 
14.5692 5.65073 3.73144 72 27 109 255 
24.6112 9.5401 6.04539 71 19 101 255 
24.6558 9.56792 5.83414 72 29 111 255 
10.9999 4.26623 2.47982 72 29 111 255 
23.6871 9.17286 5.08948 72 26 108 255 
25.1194 9.71696 5.13781 72 23 105 255 
24.4872 9.50253 4.79236 71 17 100 255 
23.8856 9.25909 4.4203 72 37 118 255 
23.1903 8.9712 4.04509 72 41 121 255 
23.5562 9.08867 3.87262 72 31 112 255 
23.8341 9.24428 3.71116 72 31 112 255 
24.7039 9.57136 3.58674 72 24 106 255 
24.2149 9.35297 3.2655 72 22 104 255 
23.7172 9.14127 2.96342 72 37 118 255 
23.4699 9.10301 2.73026 72 40 120 255 
23.86 9.23003 2.53099 72 22 104 255 
23.7268 9.15971 2.27435 71 16 99 255 
23.9803 9.22831 2.05832 71 13 96 255 
24.155 9.36393 1.87064 71 19 101 255 
24.7428 9.56656 1.66434 71 13 96 255 
51.9067 20.0073 2.96408 69 5 89 255 
0 0 0 69 4 87 255 
0 0 0 68 2 86 255 
0 0 0 68 1 84 255 
0 0 0 68 2 86 255 
0 0 0 68 2 86 255 
46.0154 17.8106 -0.0086118 70 7 90 255 
36.8298 14.2103 -0.378956 70 7 90 255 
25.6278 9.86275 -0.517672 70 11 94 255 
19.4412 7.45819 -0.588904 72 29 111 255 
17.628 6.81245 -0.686372 72 31 112 255 
15.6783 6.04298 -0.765938 72 37 118 255 
13.3536 5.13639 -0.787381 72 36 117 255 
12.1076 4.64238 -0.83627 72 40 120 255 
11.0418 4.26498 -0.858862 68 59 132 255 
10.2367 3.9415 -0.897986 61 77 138 255 
9.52894 3.65954 -0.932547 65 66 135 255 
8.71218 3.3405 -0.941192 68 59 132 255 
8.12421 3.13315 -0.949006 61 78 138 255 
7.65898 2.94745 -0.972761 57 86 140 255 
7.20999 2.76751 -0.989325 62 76 138 255 
6.77922 2.59664 -0.999592 61 78 138 255 
6.40662 2.4669 -1.00274 54 93 141 255 
6.1214 2.35328 -1.01995 57 85 140 255 
5.84036 2.24062 -1.03221 53 95 141 255 
5.53951 2.12179 -1.03743 52 97 141 255 
5.28288 2.02997 -1.03871 52 97 141 255 
5.07018 1.94611 -1.04778 49 104 142 255 
4.86965 1.86821 -1.05831 62 73 137 255 
4.6586 1.78531 -1.06317 62 73 137 255 
4.50909 1.72994 -1.07157 64 70 136 255 
4.34443 1.6658 -1.07761 56 89 140 255 
4.18418 1.60356 -1.08322 61 78 138 255 
4.01223 1.5392 -1.0842 63 71 136 255 
3.84298 1.47054 -1.07564 64 70 136 255 
3.75874 1.43822 -1.09192 65 66 135 255 
3.62764 1.38954 -1.09486 66 65 134 255 
3.51001 1.34794 -1.10162 66 64 134 255 
9.60995 3.65388 3.0884 67 62 133 255 
9.70783 3.70064 3.0046 51 99 141 255 
9.63538 3.67697 2.87366 66 63 133 255 
9.70454 3.70314 2.78904 71 47 125 255 
14.6321 5.57217 4.06381 72 35 116 255 
10.1624 3.8719 2.70742 70 52 128 255 
11.195 4.26317 2.86048 67 61 132 255 
11.3047 4.30248 2.77031 70 50 126 255 
24.9011 9.48773 5.8783 71 17 100 255 
24.4853 9.32404 5.50699 72 36 117 255 
24.6704 9.37999 5.2883 71 19 101 255 
23.5477 8.94325 4.80502 72 31 112 255 
24.0027 9.14544 4.68646 72 32 113 255 
14.6124 5.5615 2.69782 72 31 112 255 
23.2745 8.83995 4.05023 72 37 118 255 
23.1392 8.76504 3.79515 72 35 116 255 
23.1949 8.83301 3.60313 72 24 106 255 
24.7372 9.41008 3.58312 72 24 106 255 
24.1011 9.13949 3.24254 72 33 115 255 
23.8648 9.03038 2.97489 72 31 112 255 
23.7501 9.04445 2.75635 72 38 119 255 
23.7376 9.01562 2.51208 72 33 115 255 
24.1859 9.1668 2.31292 71 17 100 255 
23.7269 8.96403 2.03181 71 14 97 255 
24.7658 9.42629 1.91342 72 27 109 255 
24.7992 9.41385 1.66422 71 14 97 255 
52.0266 19.6877 2.96397 69 5 89 255 
0 0 0 68 2 86 255 
0 0 0 68 2 86 255 
0 0 0 68 2 86 255 
80.3767 30.3998 1.46997 69 4 87 255 
0 0 0 68 2 86 255 
0 0 -0 69 4 87 255 
37.2754 14.1201 -0.382642 70 7 90 255 
25.4512 9.61592 -0.512904 70 10 93 255 
19.2686 7.25667 -0.582317 72 32 113 255 
17.6778 6.70735 -0.686699 72 31 112 255 
15.9879 6.0499 -0.779235 70 48 126 255 
13.3942 5.05788 -0.787931 72 35 116 255 
12.1648 4.5789 -0.838265 71 42 122 255 
11.0706 4.1982 -0.859079 68 58 131 255 
10.2635 3.87967 -0.898231 61 77 138 255 
9.54469 3.59854 -0.93191 64 69 136 255 
8.73531 3.28803 -0.941493 69 56 130 255 
8.16374 3.09099 -0.951389 62 74 137 255 
7.66577 2.89619 -0.971349 58 84 140 255 
7.24261 2.72917 -0.991485 59 82 139 255 
6.78483 2.55116 -0.998092 62 73 137 255 
6.40868 2.42265 -1.00072 55 91 141 255 
6.13295 2.31463 -1.01948 57 85 140 255 
5.84107 2.19987 -1.02993 53 95 141 255 
5.53122 2.07979 -1.03347 59 82 139 255 
5.28327 1.99301 -1.03636 52 97 141 255 
5.08938 1.91773 -1.0493 50 101 142 255 
4.87735 1.83692 -1.05751 61 78 138 255 
4.68594 1.76289 -1.06692 62 73 137 255 
4.5251 1.7043 -1.07287 61 77 138 255 
4.34454 1.63534 -1.07513 60 80 139 255 
4.1903 1.57649 -1.08228 59 82 139 255 
4.0098 1.51011 -1.08102 63 72 137 255 
3.87458 1.45544 -1.08196 65 66 135 255 
3.7693 1.41581 -1.09245 64 69 136 255 
3.64781 1.37166 -1.09838 66 63 133 255 
3.5254 1.32909 -1.10387 68 59 132 255 
11.3307 4.22876 3.63301 67 61 132 255 
8.3439 3.1222 2.57648 63 71 136 255 
9.74796 3.65157 2.9005 53 94 141 255 
9.86545 3.69536 2.82871 49 103 142 255 
14.7078 5.49788 4.07537 72 38 119 255 
10.1006 3.77752 2.68471 49 103 142 255 
11.4951 4.29691 2.93039 72 26 108 255 
11.3538 4.24157 2.77589 66 65 134 255 
11.3992 4.26338 2.68474 58 83 139 255 
11.4309 4.27278 2.56498 72 37 118 255 
14.6695 5.47474 3.13726 72 40 120 255 
14.3234 5.33961 2.91603 68 58 131 255 
15.0266 5.62004 2.92711 71 42 122 255 
14.7016 5.49243 2.70802 70 51 127 255 
23.3255 8.69594 4.04974 71 45 123 255 
23.2287 8.63633 3.80106 72 38 119 255 
23.2533 8.69225 3.60385 72 33 115 255 
23.9552 8.94476 3.46184 70 8 92 255 
23.9457 8.91287 3.2142 72 36 117 255 
23.8248 8.8485 2.96308 72 35 116 255 
23.7334 8.87175 2.74805 72 26 108 255 
26.2094 9.77082 2.76727 71 13 96 255 
23.872 8.8807 2.27765 72 24 106 255 
24.2796 9.003 2.07437 71 13 96 255 
24.7867 9.26054 1.91061 71 13 96 255 
27.073 10.0874 1.81262 71 14 97 255 
27.1685 10.0908 1.54424 72 20 103 255 
27.2076 10.0779 1.27186 71 13 96 255 
27.2109 10.1554 1.0447 70 10 93 255 
27.2354 10.1371 0.771134 71 17 100 255 
27.2545 10.1174 0.497298 72 23 105 255 
27.1933 10.0618 0.227732 72 22 104 255 
27.2368 10.1597 -0.00507367 71 16 99 255 
27.2642 10.1369 -0.27923 72 23 105 255 
25.4854 9.45053 -0.512414 70 10 93 255 
19.415 7.17608 -0.585399 72 27 109 255 
17.5604 6.53981 -0.680565 72 32 113 255 
16.005 5.94439 -0.778279 70 50 126 255 
13.4231 4.97491 -0.787821 72 29 111 255 
12.1823 4.50037 -0.837557 69 55 129 255 
11.112 4.13611 -0.860309 68 58 131 255 
10.2983 3.82079 -0.89921 59 81 139 255 
9.56472 3.53922 -0.931728 63 72 137 255 
8.77118 3.24023 -0.943199 69 56 130 255 
8.18814 3.04291 -0.95204 62 76 138 255 
7.69737 2.85428 -0.973114 59 81 139 255 
7.26945 2.68846 -0.992883 59 81 139 255 
6.7985 2.50879 -0.997819 62 73 137 255 
6.45589 2.39533 -1.00578 57 86 140 255 
6.14426 2.27593 -1.01902 57 85 140 255 
5.84243 2.15954 -1.02782 53 94 141 255 
5.54111 2.04479 -1.03295 57 86 140 255 
5.28618 1.95714 -1.03456 51 98 141 255 
5.10934 1.88953 -1.051 50 100 142 255 
4.89404 1.80899 -1.0587 56 88 140 255 
4.70218 1.73614 -1.06817 63 72 137 255 
4.52998 1.67447 -1.07157 64 70 136 255 
4.37459 1.61608 -1.0801 60 79 138 255 
4.20445 1.55243 -1.08346 58 83 139 255 
4.02081 1.48616 -1.08151 64 69 136 255 
3.91157 1.44201 -1.08981 62 73 137 255 
3.77067 1.38998 -1.09035 63 71 136 255 
3.63629 1.34192 -1.09241 67 62 133 255 
3.52629 1.30477 -1.10162 68 59 132 255 
9.76828 3.57751 3.12494 59 82 139 255 
8.3647 3.07161 2.57704 63 72 137 255 
9.79731 3.60166 2.90855 48 106 142 255 
9.89429 3.63709 2.83053 52 97 141 255 
10.1068 3.70747 2.79412 54 92 141 255 
10.1208 3.71447 2.68399 72 24 106 255 
14.7347 5.40505 3.7477 72 24 106 255 
24.9803 9.15794 6.09361 71 14 97 255 
11.405 4.18595 2.68 72 35 116 255 
11.4459 4.19851 2.56251 61 78 138 255 
11.4739 4.20209 2.44828 61 77 138 255 
14.3135 5.2361 2.90741 70 50 126 255 
14.5852 5.35317 2.83467 69 55 129 255 
14.6249 5.36175 2.68778 62 73 137 255 
23.7316 8.68185 4.11092 72 33 115 255 
23.5226 8.58172 3.84048 72 40 120 255 
23.3628 8.5702 3.61261 72 33 115 255 
25.4891 9.33969 3.67516 70 11 94 255 
23.9235 8.73786 3.20397 72 32 113 255 
23.9019 8.71065 2.96597 72 22 104 255 
23.7174 8.70028 2.73996 72 23 105 255 
25.6081 9.3681 2.69767 71 13 96 255 
25.0937 9.16031 2.38881 72 31 112 255 
25.0248 9.10503 2.13322 72 22 104 255 
24.9264 9.13883 1.91702 72 33 115 255 
24.8847 9.09854 1.66234 72 20 103 255 
27.198 9.91232 1.54243 72 24 106 255 
27.2849 9.9166 1.2726 71 17 100 255 
27.2624 9.98451 1.0443 72 23 105 255 
27.2342 9.9468 0.769357 71 17 100 255 
27.2183 9.91436 0.495519 70 11 94 255 
27.3316 9.92278 0.228376 69 5 89 255 
27.3109 9.99687 -0.00507594 71 17 100 255 
27.463 10.0195 -0.280632 70 10 93 255 
25.5504 9.29671 -0.512564 70 7 90 255 
19.4652 7.0592 -0.585597 72 28 110 255 
17.5852 6.42645 -0.679985 72 35 116 255 
16.0046 5.83273 -0.776503 70 50 126 255 
13.4449 4.88938 -0.787326 72 35 116 255 
12.2707 4.44764 -0.84174 70 48 126 255 
11.1569 4.07504 -0.861829 67 62 133 255 
10.33 3.76059 -0.899944 62 76 138 255 
9.59655 3.4842 -0.932729 66 65 134 255 
8.81054 3.19347 -0.945307 69 53 129 255 
8.18891 2.98615 -0.949981 60 79 138 255 
7.72593 2.81107 -0.974527 59 82 139 255 
7.2998 2.64888 -0.994789 59 82 139 255 
6.83798 2.4758 -1.00137 59 81 139 255 
6.5058 2.36853 -1.01127 55 90 140 255 
6.16089 2.23919 -1.01948 57 85 140 255 
5.86113 2.12567 -1.02879 52 96 141 255 
5.55262 2.01042 -1.03278 58 84 140 255 
5.32859 1.93575 -1.04051 51 99 141 255 
5.12822 1.86083 -1.05252 54 92 141 255 
4.89215 1.77425 -1.05592 62 73 137 255 
4.70538 1.70459 -1.0665 62 76 138 255 
4.52181 1.63999 -1.06724 62 73 137 255 
4.3716 1.58456 -1.07694 60 80 139 255 
4.19745 1.52064 -1.07923 59 81 139 255 
4.04535 1.46708 -1.08567 61 78 138 255 
3.92399 1.4193 -1.09082 59 81 139 255 
3.80727 1.377 -1.09847 65 68 135 255 
3.65441 1.32319 -1.0954 66 65 134 255 
3.53243 1.28245 -1.10106 66 63 133 255 
8.35696 3.00261 2.66751 72 36 117 255 
8.42226 3.03423 2.58898 56 89 140 255 
9.82466 3.54344 2.91016 55 91 141 255 
10.1399 3.65691 2.89432 54 92 141 255 
14.6448 5.27043 4.03969 72 40 120 255 
12.3136 4.43372 3.25823 71 46 124 255 
10.4515 3.76128 2.65238 70 48 126 255 
12.0039 4.31734 2.92167 72 38 119 255 
11.685 4.20754 2.73968 72 26 108 255 
14.6979 5.28932 3.28325 65 66 135 255 
11.4607 4.11768 2.44003 71 45 123 255 
11.5098 4.13055 2.33271 64 70 136 255 
11.5069 4.1434 2.23141 70 48 126 255 
14.499 5.21488 2.65871 68 58 131 255 
24.4514 8.77547 4.22621 72 24 106 255 
23.9816 8.58278 3.90673 72 35 116 255 
15.1137 5.43918 2.33183 62 73 137 255 
15.1677 5.45241 2.1821 72 29 111 255 
24.0308 8.61031 3.21121 72 27 109 255 
23.9203 8.55146 2.96169 72 29 111 255 
23.8181 8.57176 2.74546 72 24 106 255 
26.1653 9.3903 2.75024 71 14 97 255 
25.1082 8.99139 2.38489 72 29 111 255 
24.9121 8.89134 2.11893 72 28 110 255 
24.9491 8.9739 1.9145 72 35 116 255 
26.8556 9.63274 1.79001 71 16 99 255 
27.2225 9.73248 1.54041 71 19 101 255 
0 0 0 68 2 86 255 
0 0 0 68 2 86 255 
55.8627 20.0152 1.5746 70 7 90 255 
52.934 18.9143 0.961553 70 10 93 255 
53.1128 18.9147 0.442819 70 7 90 255 
52.718 18.9309 -0.00977629 69 4 87 255 
38.1955 13.6702 -0.389438 70 10 93 255 
26.058 9.30075 -0.521593 70 10 93 255 
20.0459 7.13093 -0.601739 72 22 104 255 
17.6732 6.33597 -0.681872 72 35 116 255 
16.2 5.79159 -0.784244 71 46 124 255 
13.4737 4.80646 -0.787271 72 36 117 255 
12.2301 4.3482 -0.837106 70 52 128 255 
11.191 4.00987 -0.862552 66 64 134 255 
10.3641 3.70116 -0.900924 62 74 137 255 
9.61775 3.42525 -0.932729 62 73 137 255 
8.83654 3.14168 -0.94601 68 58 131 255 
8.20427 2.93484 -0.949656 61 77 138 255 
7.75987 2.76962 -0.976646 61 78 138 255 
7.30003 2.59839 -0.992629 60 80 139 255 
6.85584 2.43479 -1.00177 62 76 138 255 
6.48946 2.31759 -1.0065 56 88 140 255 
6.18289 2.20434 -1.02087 58 84 140 255 
5.87128 2.08868 -1.0283 52 97 141 255 
5.58156 1.98224 -1.03588 54 92 141 255 
5.36261 1.91094 -1.04484 55 91 141 255 
5.12104 1.82274 -1.04873 57 86 140 255 
4.91126 1.74716 -1.05771 57 85 140 255 
4.68166 1.66357 -1.05879 62 73 137 255 
4.54099 1.61548 -1.0694 62 74 137 255 
4.38308 1.55835 -1.07739 57 85 140 255 
4.20395 1.49388 -1.07852 62 74 137 255 
4.03509 1.4354 -1.08053 61 78 138 255 
3.92989 1.39423 -1.09006 61 77 138 255 
3.82383 1.35651 -1.10083 64 69 136 255 
3.64886 1.29591 -1.09133 63 71 136 255 
3.52757 1.25625 -1.09712 64 70 136 255 
9.74821 3.43509 3.1048 53 94 141 255 
11.5674 4.08729 3.54801 71 42 122 255 
9.89798 3.5014 2.92546 70 52 128 255 
10.1749 3.59913 2.89795 69 55 129 255 
10.1396 3.57897 2.79086 58 84 140 255 
10.1876 3.59775 2.68979 70 51 127 255 
12.2464 4.32254 3.1011 72 24 106 255 
12.0844 4.26274 2.93485 69 53 129 255 
11.9168 4.2086 2.78793 66 65 134 255 
14.7384 5.20197 3.2851 72 31 112 255 
14.7095 5.18326 3.12489 71 42 122 255 
14.8817 5.23779 3.00953 71 45 123 255 
11.5367 4.07436 2.23231 63 71 136 255 
11.6127 4.09646 2.12479 71 47 125 255 
14.661 5.16042 2.5285 72 28 110 255 
15.041 5.27916 2.44495 72 38 119 255 
15.1673 5.35359 2.33499 64 70 136 255 
23.7747 8.38204 3.41287 72 29 111 255 
24.0692 8.45777 3.20934 72 26 108 255 
23.9958 8.41274 2.96458 71 19 101 255 
27.9595 9.86885 3.2158 71 13 96 255 
25.509 8.97848 2.67542 72 26 108 255 
25.1319 8.82627 2.38195 72 35 116 255 
24.9577 8.73535 2.11821 72 29 111 255 
24.9106 8.7878 1.90737 71 19 101 255 
26.7155 9.3979 1.7768 69 5 89 255 
27.2035 9.53784 1.53599 70 7 90 255 
0 0 0 69 4 87 255 
0 0 0 69 4 87 255 
59.7258 20.9867 1.67983 69 5 89 255 
0 0 0 68 2 86 255 
0 0 0 68 2 86 255 
54.3338 19.1356 -0.010054 70 7 90 255 
38.2344 13.42 -0.388987 69 5 89 255 
26.8204 9.38776 -0.535691 70 8 92 255 
20.2828 7.07529 -0.607534 72 24 106 255 
17.2828 6.07659 -0.665358 72 31 112 255 
16.1966 5.67853 -0.782377 70 48 126 255 
13.5331 4.73425 -0.78903 72 35 116 255 
12.3187 4.29475 -0.841354 67 62 133 255 
11.2136 3.94047 -0.862408 65 68 135 255 
10.3923 3.63947 -0.901413 64 69 136 255 
9.62637 3.3619 -0.931546 66 65 134 255 
8.85001 3.08544 -0.945407 67 61 132 255 
8.23245 2.88806 -0.950848 60 79 138 255 
7.77484 2.72129 -0.97641 59 81 139 255 
7.31209 2.55224 -0.99212 60 80 139 255 
6.87627 2.39463 -1.00259 62 74 137 255 
6.48768 2.27216 -1.00404 57 86 140 255 
6.2047 2.16929 -1.02225 57 86 140 255 
