ply
format ascii 1.0
comment VTK generated PLY File
obj_info vtkPolyData points and polygons: vtk4.0
element vertex 1250
property float x
property float y
property float z
property uchar red
property uchar green
property uchar blue
property uchar alpha
element face 0
property list uchar int vertex_indices
end_header
-3.5035 -4.20025 -1.37996 55 91 141 255 
-3.37716 -4.04181 -1.37686 57 85 140 255 
-3.21484 -3.84739 -1.36032 59 81 139 255 
-3.09436 -3.7059 -1.3607 57 85 140 255 
-2.97267 -3.56638 -1.3603 62 73 137 255 
-0 -0 0 69 4 87 255 
-0 -0 0 69 4 87 255 
-0 -0 0 68 2 86 255 
-0 -0 0 68 2 86 255 
-0 -0 0 69 4 87 255 
-51.3515 -61.2778 19.904 69 5 89 255 
-51.2577 -61.1453 19.0523 69 5 89 255 
-0 -0 0 69 4 87 255 
-0 -0 0 68 2 86 255 
-38.4918 -45.9161 12.5935 71 13 96 255 
-38.5592 -45.9483 12.0186 71 14 97 255 
-35.263 -41.9893 10.4598 70 10 93 255 
-14.7463 -17.5972 4.18892 72 29 111 255 
-28.8141 -34.3596 7.73756 71 13 96 255 
-14.6265 -17.4171 3.70002 64 69 136 255 
-14.6477 -17.4109 3.48982 72 28 110 255 
-14.6497 -17.4759 3.31048 72 38 119 255 
-14.6631 -17.4789 3.08875 71 42 122 255 
-14.6776 -17.4593 2.86934 72 40 120 255 
-14.6487 -17.3997 2.6518 72 40 120 255 
-14.6749 -17.5058 2.47751 71 46 124 255 
-14.6574 -17.4535 2.25483 71 47 125 255 
-14.6452 -17.4147 2.03476 71 45 123 255 
-14.9046 -17.6849 1.8527 71 16 99 255 
-18.4056 -21.9485 2.06833 71 13 96 255 
-18.4355 -21.9446 1.79815 72 29 111 255 
-20.035 -23.7983 1.65757 71 17 100 255 
-0 -0 0 68 1 84 255 
-21.4121 -25.5156 1.19812 71 14 97 255 
-21.4236 -25.4834 0.883418 69 5 89 255 
-0 -0 0 68 2 86 255 
-0 -0 0 68 1 84 255 
-21.3487 -25.4311 -0.00579519 70 8 92 255 
-0 -0 -0 68 2 86 255 
-19.2315 -22.8196 -0.562588 72 20 103 255 
-19.2243 -22.7621 -0.842633 71 16 99 255 
-18.4129 -21.9106 -1.03945 71 19 101 255 
-18.3997 -21.8554 -1.30232 71 14 97 255 
-17.5288 -20.7919 -1.49662 72 22 104 255 
-17.4984 -20.7113 -1.74861 71 17 100 255 
-17.2978 -20.5765 -1.95046 71 13 96 255 
-14.4054 -17.0989 -1.83032 70 10 93 255 
-12.2966 -14.5702 -1.74182 70 11 94 255 
-10.8338 -12.8229 -1.6933 72 32 113 255 
-9.57844 -11.3818 -1.6213 72 27 109 255 
-8.6138 -10.2208 -1.58439 72 27 109 255 
-7.81981 -9.2624 -1.55286 72 24 106 255 
-7.19491 -8.50992 -1.53444 72 24 106 255 
-6.62197 -7.86039 -1.50122 67 61 132 255 
-6.08696 -7.2174 -1.46837 68 58 131 255 
-5.65319 -6.69371 -1.44575 67 62 133 255 
-5.32002 -6.29237 -1.44106 63 72 137 255 
-5.04846 -5.98414 -1.43693 52 96 141 255 
-4.73863 -5.6127 -1.41719 54 92 141 255 
-4.50039 -5.32872 -1.41525 52 96 141 255 
-4.26716 -5.04885 -1.40874 58 83 139 255 
-4.06854 -4.81749 -1.39908 49 103 142 255 
-3.8673 -4.57741 -1.38786 52 97 141 255 
-3.68172 -4.35629 -1.37882 57 85 140 255 
-3.52045 -4.1683 -1.37654 61 78 138 255 
-3.40377 -4.02322 -1.37762 59 82 139 255 
-3.23838 -3.82759 -1.36032 60 79 138 255 
-3.11518 -3.68464 -1.35989 57 85 140 255 
-2.9914 -3.5444 -1.35889 63 71 136 255 
-0 -0 0 68 2 86 255 
-0 -0 0 69 4 87 255 
-0 -0 0 68 2 86 255 
-0 -0 0 68 2 86 255 
-0 -0 0 68 2 86 255 
-0 -0 0 68 2 86 255 
-51.8554 -61.0929 19.1347 69 5 89 255 
-51.8975 -61.1186 18.3637 69 5 89 255 
-0 -0 0 69 4 87 255 
-38.7849 -45.6932 12.5974 70 10 93 255 
-38.888 -45.7669 12.0333 71 13 96 255 
-35.5632 -41.823 10.4726 70 8 92 255 
-35.5724 -41.9245 10.0316 70 10 93 255 
-14.6484 -17.2514 3.90508 72 33 115 255 
-14.7069 -17.2962 3.69344 64 70 136 255 
-22.7317 -26.6857 5.3767 71 13 96 255 
-14.7125 -17.3336 3.30057 72 40 120 255 
-14.7187 -17.3282 3.07801 72 40 120 255 
-14.7292 -17.304 2.85861 71 47 125 255 
-14.7229 -17.2717 2.64601 71 45 123 255 
-14.699 -17.3177 2.4636 71 45 123 255 
-14.7165 -17.3071 2.24755 71 47 125 255 
-14.7253 -17.2934 2.03111 71 44 122 255 
-15.0083 -17.5878 1.85214 71 17 100 255 
-18.5303 -21.8237 2.06725 71 14 97 255 
-18.5439 -21.8007 1.79565 72 29 111 255 
-20.2687 -23.7783 1.66481 71 16 99 255 
-26.465 -30.9917 1.78648 69 4 87 255 
-0 -0 0 68 1 84 255 
-0 -0 0 68 1 84 255 
-0 -0 0 68 2 86 255 
-0 -0 0 68 1 84 255 
-0 -0 -0 68 1 84 255 
-20.6153 -24.2015 -0.305186 69 5 89 255 
-19.2096 -22.5118 -0.557895 71 17 100 255 
-19.1902 -22.4409 -0.835084 71 17 100 255 
-18.345 -21.5598 -1.02812 71 16 99 255 
-18.374 -21.5551 -1.29112 70 11 94 255 
-17.4207 -20.4083 -1.47668 72 24 106 255 
-17.4358 -20.3821 -1.72982 71 17 100 255 
-17.4257 -20.4722 -1.95068 70 10 93 255 
-14.536 -17.0405 -1.83359 70 10 93 255 
-12.4097 -14.5225 -1.74518 71 16 99 255 
-10.9226 -12.7683 -1.69491 72 29 111 255 
-9.64874 -11.3236 -1.6214 72 35 116 255 
-8.66475 -10.1541 -1.58227 72 23 105 255 
-7.86683 -9.20293 -1.55095 72 22 104 255 
-7.17354 -8.37982 -1.51889 72 22 104 255 
-6.66815 -7.81735 -1.50079 67 61 132 255 
-6.14332 -7.19419 -1.47129 69 55 129 255 
-5.69992 -6.66564 -1.44721 68 57 131 255 
-5.35853 -6.25961 -1.44106 66 65 134 255 
-5.07358 -5.93958 -1.43368 50 100 142 255 
-4.77872 -5.59023 -1.41889 53 94 141 255 
-4.53427 -5.3025 -1.41565 53 94 141 255 
-4.28534 -5.00771 -1.40457 54 93 141 255 
-4.09993 -4.79466 -1.39973 47 108 142 255 
-3.90418 -4.56396 -1.39102 50 100 142 255 
-3.6989 -4.32254 -1.37529 59 81 139 255 
-3.56045 -4.16357 -1.38216 54 93 141 255 
-3.41139 -3.98243 -1.37079 56 88 140 255 
-3.28441 -3.83403 -1.36975 57 85 140 255 
-3.14023 -3.66838 -1.36097 58 83 139 255 
-3.02245 -3.53693 -1.36311 62 76 138 255 
-0 -0 0 68 2 86 255 
-0 -0 0 69 4 87 255 
-0 -0 0 68 2 86 255 
-0 -0 0 68 2 86 255 
-0 -0 0 68 2 86 255 
-0 -0 0 68 2 86 255 
-52.5316 -61.1254 19.2455 69 5 89 255 
-52.4456 -61.0015 18.4248 69 5 89 255 
-52.3254 -60.9076 17.7133 70 7 90 255 
-39.2182 -45.6332 12.647 71 13 96 255 
-39.2154 -45.5824 12.0479 71 13 96 255 
-35.9775 -41.7878 10.5188 70 8 92 255 
-29.5325 -34.3762 8.2687 70 7 90 255 
-14.736 -17.1403 3.90032 68 58 131 255 
-14.758 -17.142 3.67979 70 51 127 255 
-23.0319 -26.7044 5.40884 72 26 108 255 
-14.7799 -17.1979 3.29195 71 45 123 255 
-14.7912 -17.1985 3.07104 72 41 121 255 
-14.7748 -17.1434 2.847 70 48 126 255 
-14.7962 -17.1434 2.64022 71 45 123 255 
-14.7668 -17.1826 2.45724 71 46 124 255 
-14.762 -17.1464 2.23839 70 48 126 255 
-14.7622 -17.1227 2.02167 70 50 126 255 
-15.0716 -17.4441 1.84671 71 14 97 255 
-18.6274 -21.6673 2.06322 71 16 99 255 
-18.609 -21.6071 1.78907 72 27 109 255 
-20.5891 -23.8561 1.67907 71 17 100 255 
-0 -0 0 69 4 87 255 
-0 -0 0 68 1 84 255 
-0 -0 0 68 1 84 255 
-0 -0 0 68 2 86 255 
-20.763 -23.9976 0.249236 70 7 90 255 
-0 -0 -0 68 1 84 255 
-20.719 -24.0231 -0.304533 72 28 110 255 
-19.1656 -22.1832 -0.552655 71 19 101 255 
-19.1855 -22.1587 -0.82895 71 17 100 255 
-18.3536 -21.3037 -1.02127 72 20 103 255 
-18.3356 -21.2446 -1.27924 71 17 100 255 
-17.4065 -20.1401 -1.46497 71 19 101 255 
-17.3906 -20.0786 -1.71308 71 16 99 255 
-17.3635 -20.1473 -1.92983 71 16 99 255 
-14.6083 -16.9141 -1.82959 70 10 93 255 
-12.5064 -14.4551 -1.74627 71 14 97 255 
-11.0144 -12.7168 -1.69702 72 32 113 255 
-9.72843 -11.2762 -1.62314 72 36 117 255 
-8.72624 -10.1 -1.58215 72 24 106 255 
-7.90043 -9.12824 -1.5465 72 23 105 255 
-7.23391 -8.34613 -1.5208 72 20 103 255 
-6.70758 -7.76655 -1.49891 66 63 133 255 
-6.19122 -7.16085 -1.47221 68 57 131 255 
-5.76332 -6.65665 -1.45291 69 55 129 255 
-5.42136 -6.2549 -1.44761 65 66 135 255 
-5.11186 -5.91057 -1.43422 53 95 141 255 
-4.81486 -5.56303 -1.41946 59 82 139 255 
-4.55902 -5.26568 -1.41326 51 98 141 255 
-4.32559 -4.99241 -1.40769 56 89 140 255 
-4.12352 -4.76277 -1.39778 49 104 142 255 
-3.9353 -4.5436 -1.39214 52 96 141 255 
-3.72726 -4.30196 -1.376 55 91 141 255 
-3.59355 -4.15044 -1.3851 57 85 140 255 
-3.42626 -3.95046 -1.367 60 79 138 255 
-3.30598 -3.81162 -1.36896 60 80 139 255 
-3.16205 -3.64831 -1.3607 59 81 139 255 
-3.03844 -3.51178 -1.36058 63 71 136 255 
-0 -0 0 69 4 87 255 
-0 -0 0 69 4 87 255 
-0 -0 0 68 2 86 255 
-0 -0 0 68 2 86 255 
-0 -0 0 68 2 86 255 
-0 -0 0 68 2 86 255 
-0 -0 0 69 4 87 255 
-53.0167 -60.9057 18.4938 70 8 92 255 
-52.9763 -60.9051 17.8068 69 5 89 255 
-39.5026 -45.3976 12.6486 70 7 90 255 
-36.4404 -41.8349 11.1163 69 5 89 255 
-36.5308 -41.9077 10.6052 70 8 92 255 
-14.7881 -17.0014 4.1112 71 13 96 255 
-14.8008 -17.0035 3.88978 62 73 137 255 
-14.7942 -16.9723 3.66277 72 33 115 255 
-23.2954 -26.6772 5.43219 72 24 106 255 
-14.8384 -17.0532 3.2816 71 47 125 255 
-14.8346 -17.0364 3.05829 72 37 118 255 
-14.8184 -16.9821 2.83527 71 45 123 255 
-14.841 -16.9835 2.62956 71 45 123 255 
-14.8308 -17.0445 2.45045 70 48 126 255 
-14.8114 -16.9917 2.23002 70 50 126 255 
-14.8074 -16.9636 2.01356 70 51 127 255 
-16.6412 -19.0236 2.0247 72 20 103 255 
-18.7194 -21.5059 2.05875 71 19 101 255 
-18.713 -21.4601 1.78638 72 28 110 255 
-20.7949 -23.7977 1.68391 71 17 100 255 
-20.8834 -23.8563 1.38984 71 16 99 255 
-20.8226 -23.9054 1.14032 71 17 100 255 
-20.8499 -23.8939 0.841481 72 22 104 255 
-20.8847 -23.8921 0.542827 71 19 101 255 
-20.8743 -23.8291 0.248812 71 19 101 255 
-20.8389 -23.9157 -0.00553636 71 19 101 255 
-20.6851 -23.6883 -0.301894 72 22 104 255 
-19.1802 -21.9267 -0.549187 72 22 104 255 
-19.1676 -21.8654 -0.822363 72 20 103 255 
-18.2712 -20.9467 -1.00951 71 19 101 255 
-18.3012 -20.9436 -1.26785 72 22 104 255 
-17.3463 -19.8232 -1.44964 72 23 105 255 
-17.3951 -19.8364 -1.7015 72 23 105 255 
-17.391 -19.9307 -1.91927 71 16 99 255 
-14.6994 -16.8098 -1.82804 71 13 96 255 
-12.6264 -14.4141 -1.75064 71 13 96 255 
-11.0863 -12.6423 -1.69611 72 26 108 255 
-9.80136 -11.2208 -1.62379 72 38 119 255 
-8.79197 -10.0508 -1.58286 72 26 108 255 
-7.97394 -9.09973 -1.54993 72 29 111 255 
-7.3451 -8.37009 -1.53335 72 26 108 255 
-6.774 -7.74685 -1.5031 67 62 133 255 
-6.24676 -7.13611 -1.47498 68 57 131 255 
-5.7969 -6.613 -1.45112 69 53 129 255 
-5.44404 -6.20374 -1.44348 68 57 131 255 
-5.14479 -5.8754 -1.43332 51 99 141 255 
-4.85925 -5.5452 -1.42249 53 94 141 255 
-4.59125 -5.23761 -1.41326 52 97 141 255 
-4.34905 -4.95769 -1.4054 54 92 141 255 
-4.14881 -4.73298 -1.39648 48 105 142 255 
-3.95347 -4.50838 -1.38876 51 99 141 255 
-3.75808 -4.28413 -1.37764 58 84 140 255 
-3.61319 -4.12175 -1.3829 61 78 138 255 
-3.46448 -3.94535 -1.37256 56 88 140 255 
-3.32548 -3.78691 -1.36739 56 89 140 255 
-3.19072 -3.63608 -1.36342 59 82 139 255 
-3.04159 -3.47214 -1.35242 65 66 135 255 
-0 -0 0 69 4 87 255 
-0 -0 0 68 2 86 255 
-0 -0 0 68 2 86 255 
-0 -0 0 68 2 86 255 
-0 -0 0 68 2 86 255 
-0 -0 0 68 2 86 255 
-53.6179 -60.8622 19.3684 70 7 90 255 
-53.6375 -60.8608 18.5798 70 7 90 255 
-53.5627 -60.8215 17.8781 69 5 89 255 
-39.8729 -45.2594 12.678 70 8 92 255 
-36.7632 -41.6863 11.1365 70 11 94 255 
-36.8067 -41.7048 10.6108 70 7 90 255 
-14.835 -16.8454 4.0954 72 35 116 255 
-14.8774 -16.8813 3.88264 64 70 136 255 
-23.5393 -26.6727 5.78727 71 16 99 255 
-23.5006 -26.5812 5.44189 72 29 111 255 
-14.8629 -16.8712 3.26408 71 45 123 255 
-14.8688 -16.8655 3.04394 72 38 119 255 
-14.8941 -16.8589 2.8299 71 45 123 255 
-14.8903 -16.8304 2.61995 71 42 122 255 
-14.8799 -16.8905 2.44139 71 44 122 255 
-14.8693 -16.8483 2.22313 70 51 127 255 
-14.8888 -16.847 2.01054 70 50 126 255 
-16.7458 -18.9077 2.02326 72 27 109 255 
-18.8635 -21.4049 2.06012 71 17 100 255 
-18.8549 -21.3569 1.78738 72 28 110 255 
-20.9935 -23.7295 1.68816 71 17 100 255 
-21.0374 -23.7367 1.39036 71 19 101 255 
-20.9696 -23.7779 1.14035 72 20 103 255 
-21.0021 -23.7723 0.84172 72 20 103 255 
-20.9985 -23.7268 0.541989 72 22 104 255 
-21.0274 -23.7088 0.248898 71 19 101 255 
-20.9694 -23.7694 -0.00553217 72 29 111 255 
-20.6645 -23.3737 -0.299494 72 26 108 255 
-19.1281 -21.5983 -0.543891 72 28 110 255 
-19.1076 -21.5291 -0.814108 71 19 101 255 
-18.2485 -20.6634 -1.00123 71 19 101 255 
-18.258 -20.6371 -1.25606 71 17 100 255 
-17.3869 -19.6252 -1.44294 72 28 110 255 
-17.3694 -19.5637 -1.68721 72 29 111 255 
-17.3288 -19.615 -1.89908 72 22 104 255 
-14.8214 -16.741 -1.8304 71 13 96 255 
-12.7192 -14.3415 -1.75128 70 10 93 255 
-11.1584 -12.5681 -1.69531 72 31 112 255 
-9.8799 -11.1716 -1.62541 72 41 121 255 
-8.89232 -10.0405 -1.5898 72 22 104 255 
-8.04214 -9.06473 -1.55235 72 26 108 255 
-7.37395 -8.29968 -1.52872 72 40 120 255 
-6.8214 -7.70514 -1.5031 66 63 133 255 
-6.29436 -7.10208 -1.4759 68 58 131 255 
-5.83737 -6.57731 -1.45112 68 57 131 255 
-5.48986 -6.17906 -1.44554 68 57 131 255 
-5.17748 -5.84004 -1.43242 51 99 141 255 
-4.8997 -5.52263 -1.42439 52 96 141 255 
-4.62005 -5.20568 -1.41227 53 95 141 255 
-4.38003 -4.93164 -1.40561 55 91 141 255 
-4.1836 -4.714 -1.39843 47 107 142 255 
-3.98041 -4.48331 -1.38853 52 96 141 255 
-3.78171 -4.25808 -1.3767 55 90 140 255 
-3.63134 -4.09153 -1.38021 60 79 138 255 
-3.49569 -3.93197 -1.37534 58 84 140 255 
-3.33391 -3.74985 -1.36137 62 74 137 255 
-3.20658 -3.60924 -1.3607 58 83 139 255 
-3.06475 -3.45557 -1.35327 66 64 134 255 
-0 -0 0 69 4 87 255 
-0 -0 0 69 4 87 255 
-0 -0 0 68 2 86 255 
-0 -0 0 68 2 86 255 
-0 -0 0 68 2 86 255 
-0 -0 0 68 2 86 255 
-0 -0 0 68 2 86 255 
-54.156 -60.6942 18.63 69 4 87 255 
-54.2377 -60.8313 17.9785 69 4 87 255 
-40.1916 -45.0606 12.6912 70 10 93 255 
-37.2508 -41.7203 11.2064 69 5 89 255 
-30.6734 -34.3284 8.78181 70 7 90 255 
-14.9138 -16.7269 4.08876 66 63 133 255 
-14.8928 -16.6912 3.85985 70 52 128 255 
-23.8386 -26.6802 5.82051 72 22 104 255 
-23.7858 -26.5735 5.47009 72 26 108 255 
-14.9233 -16.7317 3.25474 72 38 119 255 
-14.9383 -16.7362 3.03709 72 41 121 255 
-14.9377 -16.7007 2.81867 71 44 122 255 
-14.9237 -16.661 2.60779 72 40 120 255 
-14.9277 -16.7365 2.43234 71 44 122 255 
-14.9312 -16.7107 2.21703 71 47 125 255 
-14.9401 -16.6974 2.00359 71 46 124 255 
-16.8328 -18.7727 2.01983 72 24 106 255 
-18.9587 -21.2485 2.05623 70 11 94 255 
-18.9896 -21.2452 1.78776 72 29 111 255 
-21.1387 -23.6003 1.68816 72 26 108 255 
-0 -0 0 68 2 86 255 
-21.1364 -23.6727 1.1415 70 10 93 255 
-21.1836 -23.6832 0.843152 70 7 90 255 
-23.0032 -25.6729 0.589657 71 13 96 255 
-0 -0 0 69 4 87 255 
-22.5564 -25.2542 -0.00590986 70 11 94 255 
-20.5801 -22.9924 -0.296221 72 24 106 255 
-19.0934 -21.2944 -0.539178 72 26 108 255 
-19.0323 -21.181 -0.805344 72 20 103 255 
-18.2211 -20.379 -0.992846 72 23 105 255 
-18.1856 -20.303 -1.24249 72 22 104 255 
-17.5256 -19.539 -1.44448 72 29 111 255 
-17.5204 -19.4916 -1.69024 72 28 110 255 
-17.4435 -19.5024 -1.8985 71 19 101 255 
-14.9032 -16.6267 -1.82787 70 11 94 255 
-12.801 -14.2565 -1.75046 71 14 97 255 
-11.238 -12.5023 -1.69571 72 29 111 255 
-9.9476 -11.1101 -1.6253 72 41 121 255 
-8.95509 -9.9872 -1.59004 72 27 109 255 
-8.07573 -8.99086 -1.54816 72 28 110 255 
-7.43335 -8.26386 -1.53049 71 47 125 255 
-6.8745 -7.66977 -1.5044 69 55 129 255 
-6.3497 -7.07656 -1.47867 67 62 133 255 
-5.88619 -6.5509 -1.45324 69 55 129 255 
-5.54018 -6.15917 -1.44882 68 59 132 255 
-5.21388 -5.80889 -1.4326 50 101 142 255 
-4.91841 -5.47566 -1.42003 56 89 140 255 
-4.64732 -5.17213 -1.41087 53 95 141 255 
-4.41283 -4.90758 -1.40644 54 93 141 255 
-4.21832 -4.69478 -1.40038 46 109 142 255 
-3.99417 -4.44358 -1.3838 54 93 141 255 
-3.81102 -4.23841 -1.37788 58 84 140 255 
-3.67517 -4.09008 -1.3873 59 81 139 255 
-3.51587 -3.90614 -1.37383 57 85 140 255 
-3.3717 -3.74582 -1.36739 57 86 140 255 
-3.22545 -3.58591 -1.35935 62 76 138 255 
-3.08461 -3.43527 -1.35271 66 64 134 255 
-0 -0 0 69 4 87 255 
-0 -0 0 69 4 87 255 
-0 -0 0 69 4 87 255 
-0 -0 0 68 2 86 255 
-0 -0 0 68 2 86 255 
-0 -0 0 68 2 86 255 
-54.8197 -60.7079 19.5319 69 5 89 255 
-54.8345 -60.7007 18.7349 69 5 89 255 
-54.8592 -60.7736 18.0606 69 5 89 255 
-37.6772 -41.7234 11.8162 69 5 89 255 
-37.7553 -41.7666 11.2809 70 10 93 255 
-30.8552 -34.1083 8.77376 70 8 92 255 
-14.9502 -16.562 4.07081 63 71 136 255 
-14.9785 -16.5812 3.8556 72 27 109 255 
-24.0337 -26.5685 5.82822 72 24 106 255 
-24.0633 -26.5538 5.49632 72 20 103 255 
-15.0032 -16.6148 3.24985 72 41 121 255 
-14.9962 -16.595 3.02811 71 46 124 255 
-15.0046 -16.5697 2.81205 71 44 122 255 
-14.9976 -16.5382 2.60293 71 42 122 255 
-14.9774 -16.5863 2.42382 71 44 122 255 
-14.9854 -16.5657 2.20994 70 51 127 255 
-14.9781 -16.5346 1.99504 71 46 124 255 
-16.9256 -18.6447 2.0172 72 31 112 255 
-19.0726 -21.1141 2.05451 71 16 99 255 
-19.0573 -21.0595 1.78194 72 28 110 255 
-21.2838 -23.4709 1.68822 72 22 104 255 
-0 -0 0 68 2 86 255 
-0 -0 0 68 2 86 255 
-0 -0 0 68 1 84 255 
-23.1287 -25.4965 0.588853 72 27 109 255 
-22.6755 -24.9436 0.264763 70 8 92 255 
-22.6921 -25.0946 -0.00590497 71 13 96 255 
-20.563 -22.6915 -0.293965 71 19 101 255 
-19.0537 -20.9896 -0.53441 72 26 108 255 
-19.0341 -20.9233 -0.799972 72 23 105 255 
-18.3123 -20.2297 -0.991032 72 27 109 255 
-18.3199 -20.2021 -1.24317 72 23 105 255 
-17.7593 -19.5568 -1.45382 72 28 110 255 
-17.7579 -19.5136 -1.70156 72 27 109 255 
-17.6853 -19.5303 -1.91174 72 20 103 255 
-15.009 -16.5394 -1.82836 71 14 97 255 
-12.8808 -14.1696 -1.74946 71 14 97 255 
-11.3151 -12.4339 -1.69581 72 29 111 255 
-10.0223 -11.0562 -1.62639 72 38 119 255 
-8.99484 -9.90854 -1.58627 72 24 106 255 
-8.1461 -8.95802 -1.55108 72 29 111 255 
-7.50993 -8.24666 -1.53581 66 63 133 255 
-6.92475 -7.63111 -1.50512 66 63 133 255 
-6.39101 -7.03527 -1.47821 67 61 132 255 
-5.91565 -6.50299 -1.45063 68 58 131 255 
-5.56925 -6.1156 -1.44658 70 48 126 255 
-5.22561 -5.75059 -1.4261 57 85 140 255 
-4.94531 -5.43811 -1.41813 55 90 140 255 
-4.67303 -5.13699 -1.40909 55 91 141 255 
-4.44615 -4.88403 -1.40749 53 95 141 255 
-4.23916 -4.66014 -1.39778 51 98 141 255 
-4.03119 -4.4298 -1.38718 52 97 141 255 
-3.85331 -4.23291 -1.38375 56 89 140 255 
-3.70019 -4.06746 -1.3873 61 78 138 255 
-3.5339 -3.87805 -1.37155 58 84 140 255 
-3.39072 -3.72078 -1.36582 60 79 138 255 
-3.25258 -3.57175 -1.36152 62 73 137 255 
-3.10564 -3.41628 -1.35271 66 65 134 255 
-0 -0 0 68 2 86 255 
-0 -0 0 68 2 86 255 
-0 -0 0 68 2 86 255 
-0 -0 0 68 2 86 255 
-0 -0 0 68 2 86 255 
-0 -0 0 68 2 86 255 
-0 -0 0 69 4 87 255 
-55.4644 -60.6458 18.8227 69 5 89 255 
-55.3338 -60.5483 18.0942 69 4 87 255 
-38.1227 -41.6995 11.8754 70 10 93 255 
-38.0777 -41.6072 11.3007 70 7 90 255 
-31.2138 -34.082 8.8161 70 11 94 255 
-14.9965 -16.4097 4.05591 66 63 133 255 
-24.3533 -26.6289 6.2266 71 13 96 255 
-24.3222 -26.5581 5.85857 72 24 106 255 
-24.3454 -26.536 5.52346 72 24 106 255 
-15.0661 -16.4801 3.24152 71 42 122 255 
-15.0195 -16.4171 3.01241 71 44 122 255 
-15.0577 -16.4247 2.80307 70 52 128 255 
-15.0524 -16.3954 2.59494 71 45 123 255 
-15.0494 -16.4618 2.41907 70 51 127 255 
-15.0236 -16.4044 2.20068 69 55 129 255 
-15.0388 -16.3983 1.98969 71 47 125 255 
-17.041 -18.5419 2.01736 72 29 111 255 
-19.2012 -20.9959 2.05443 72 24 106 255 
-19.1895 -20.9458 1.78225 72 29 111 255 
-21.4206 -23.3325 1.68769 72 22 104 255 
-0 -0 0 68 1 84 255 
-0 -0 0 68 2 86 255 
-23.2526 -25.3631 0.913048 71 19 101 255 
-22.8675 -24.8997 0.5783 71 14 97 255 
-0 -0 0 68 2 86 255 
-22.7559 -24.8568 -0.00588176 71 19 101 255 
-20.5072 -22.3527 -0.2912 71 19 101 255 
-19.1828 -20.873 -0.534429 72 24 106 255 
-19.1973 -20.8443 -0.801442 72 24 106 255 
-18.5366 -20.2268 -0.99644 72 24 106 255 
-18.4962 -20.1467 -1.24672 72 26 108 255 
-17.8992 -19.4695 -1.45547 72 27 109 255 
-17.9118 -19.4417 -1.70485 72 26 108 255 
-17.8338 -19.453 -1.91485 72 20 103 255 
-15.1223 -16.4602 -1.82983 70 11 94 255 
-12.8981 -14.0148 -1.74009 70 10 93 255 
-11.3885 -12.3613 -1.69541 72 31 112 255 
-10.0839 -10.9879 -1.62541 71 45 123 255 
-9.0642 -9.86267 -1.5878 72 24 106 255 
-8.21636 -8.92465 -1.554 72 33 115 255 
-7.57247 -8.21353 -1.53826 69 55 129 255 
-6.97145 -7.58847 -1.50512 66 65 134 255 
-6.42803 -6.98938 -1.47682 69 53 129 255 
-5.96948 -6.48181 -1.45405 70 51 127 255 
-5.604 -6.07841 -1.44589 69 55 129 255 
-5.26679 -5.72493 -1.42773 61 77 138 255 
-4.96062 -5.38816 -1.41302 56 88 140 255 
-4.70446 -5.10822 -1.40909 55 90 140 255 
-4.47338 -4.85378 -1.40665 54 92 141 255 
-4.26768 -4.63404 -1.39778 48 105 142 255 
-4.0781 -4.42648 -1.39395 53 95 141 255 
-3.86537 -4.19418 -1.37882 57 85 140 255 
-3.70866 -4.02685 -1.38118 59 82 139 255 
-3.54714 -3.84492 -1.3675 57 85 140 255 
-3.40302 -3.68855 -1.36163 62 73 137 255 
-3.29009 -3.56871 -1.36803 62 73 137 255 
-3.13499 -3.40634 -1.35636 66 65 134 255 
-0 -0 0 68 2 86 255 
-0 -0 0 69 4 87 255 
-0 -0 0 68 2 86 255 
-0 -0 0 68 2 86 255 
-0 -0 0 68 2 86 255 
-0 -0 0 68 2 86 255 
-0 -0 0 69 4 87 255 
-0 -0 0 69 4 87 255 
-56.0631 -60.5954 18.2107 69 5 89 255 
-38.5653 -41.6673 11.9334 70 8 92 255 
-31.671 -34.1832 9.33694 70 7 90 255 
-31.4978 -33.9712 8.83728 70 11 94 255 
-15.0488 -16.2654 4.04299 71 47 125 255 
-24.5752 -26.5426 6.24157 72 24 106 255 
-24.6075 -26.5408 5.88795 72 28 110 255 
-24.6026 -26.4882 5.54483 72 20 103 255 
-15.0943 -16.3089 3.22601 72 37 118 255 
-15.089 -16.2912 3.00624 71 47 125 255 
-15.0765 -16.244 2.78796 70 52 128 255 
-15.1156 -16.2627 2.58857 71 47 125 255 
-15.0813 -16.2948 2.40807 70 48 126 255 
-15.0766 -16.2608 2.19379 70 51 127 255 
-15.1046 -16.2685 1.98515 71 42 122 255 
-17.0981 -18.3765 2.01073 72 29 111 255 
-19.3032 -20.8491 2.05163 71 19 101 255 
-19.3041 -20.8131 1.781 72 27 109 255 
-21.5069 -23.1399 1.68327 72 20 103 255 
-0 -0 0 68 1 84 255 
-0 -0 0 68 2 86 255 
-23.4439 -25.2588 0.914454 72 24 106 255 
-23.2649 -25.0226 0.584457 71 14 97 255 
-22.9519 -24.6335 0.264441 71 17 100 255 
-22.8842 -24.691 -0.00587565 71 14 97 255 
-20.6296 -22.2111 -0.290999 72 23 105 255 
-19.4011 -20.8523 -0.536936 72 27 109 255 
-19.406 -20.8132 -0.804806 72 26 108 255 
-18.7155 -20.172 -0.999379 72 23 105 255 
-18.7276 -20.1492 -1.25396 72 24 106 255 
-18.0911 -19.4375 -1.46135 72 24 106 255 
-18.1383 -19.4468 -1.71502 72 24 106 255 
-18.0329 -19.4295 -1.92339 72 22 104 255 
-15.2088 -16.3518 -1.82812 70 11 94 255 
-13.1257 -14.0877 -1.7591 71 13 96 255 
-11.4479 -12.2737 -1.693 72 24 106 255 
-10.1606 -10.936 -1.62693 72 35 116 255 
-9.11643 -9.79814 -1.58639 72 24 106 255 
-8.29531 -8.90019 -1.55857 72 33 115 255 
-7.62881 -8.17343 -1.53949 69 53 129 255 
-7.01451 -7.54193 -1.5044 65 66 135 255 
-6.46474 -6.9433 -1.47544 69 53 129 255 
-6.02999 -6.46743 -1.4591 68 58 131 255 
-5.62842 -6.03023 -1.44261 70 52 128 255 
-5.28439 -5.67379 -1.42303 64 70 136 255 
-5.01568 -5.38132 -1.41927 53 95 141 255 
-4.72369 -5.06636 -1.40551 56 89 140 255 
-4.50442 -4.82767 -1.40707 53 95 141 255 
-4.28804 -4.5992 -1.39518 51 99 141 255 
-4.1012 -4.39709 -1.3926 54 93 141 255 
-3.87778 -4.15617 -1.37412 57 85 140 255 
-3.72603 -3.99621 -1.37849 61 78 138 255 
-3.57859 -3.83157 -1.37054 56 88 140 255 
-3.45589 -3.70005 -1.37368 59 81 139 255 
-3.29419 -3.52945 -1.3607 62 76 138 255 
-3.17153 -3.40389 -1.36311 65 68 135 255 
-0 -0 0 68 2 86 255 
-0 -0 0 68 2 86 255 
-0 -0 0 68 2 86 255 
-0 -0 0 68 2 86 255 
-0 -0 0 68 2 86 255 
-0 -0 0 69 4 87 255 
-0 -0 0 68 2 86 255 
-0 -0 0 68 2 86 255 
-0 -0 0 68 2 86 255 
-38.8698 -41.4828 11.9486 70 10 93 255 
-31.8922 -34.0011 9.34047 70 11 94 255 
-15.2525 -16.2491 4.25131 72 26 108 255 
-15.0925 -16.1132 4.02809 72 23 105 255 
-24.8056 -26.4639 6.25874 72 26 108 255 
-24.853 -26.4779 5.9077 72 26 108 255 
-24.8621 -26.4405 5.56666 72 24 106 255 
-15.1495 -16.1683 3.21652 71 42 122 255 
-15.1751 -16.1839 3.00355 70 52 128 255 
-15.1528 -16.1266 2.78372 70 52 128 255 
-15.181 -16.1335 2.58278 70 50 126 255 
-15.1266 -16.1439 2.39945 71 47 125 255 
-15.1387 -16.1281 2.18838 70 52 128 255 
-15.1237 -16.0899 1.97464 71 46 124 255 
-17.2215 -18.2828 2.01201 72 32 113 255 
-19.4192 -20.7179 2.0504 72 22 104 255 
-19.4171 -20.679 1.77968 72 28 110 255 
-21.6492 -23.0082 1.68332 71 17 100 255 
-0 -0 0 68 1 84 255 
-23.4988 -25.0529 1.2355 70 8 92 255 
-23.6087 -25.1254 0.914852 71 14 97 255 
-23.4173 -24.8786 0.58444 70 11 94 255 
-23.0958 -24.4849 0.264362 71 13 96 255 
-23.5526 -25.1014 -0.0060076 71 14 97 255 
-20.8655 -22.1905 -0.2924 72 29 111 255 
-19.6171 -20.8267 -0.539367 72 28 110 255 
-19.6239 -20.7896 -0.808538 71 19 101 255 
-18.9354 -20.1595 -1.0045 72 26 108 255 
-18.9228 -20.1103 -1.25874 72 23 105 255 
-18.282 -19.4024 -1.46711 72 28 110 255 
-18.3224 -19.404 -1.72113 72 22 104 255 
-18.2044 -19.3745 -1.92896 72 22 104 255 
-15.3136 -16.2632 -1.82869 70 10 93 255 
-13.1962 -13.9903 -1.75701 71 16 99 255 
-11.4881 -12.1663 -1.68788 72 31 112 255 
-10.2459 -10.893 -1.62985 72 38 119 255 
-9.20498 -9.77238 -1.59133 72 29 111 255 
-8.3416 -8.84047 -1.55705 72 29 111 255 
-7.66249 -8.10919 -1.53622 69 53 129 255 
-7.05522 -7.49299 -1.50325 68 59 132 255 
-6.4957 -6.89128 -1.47283 68 57 131 255 
-6.07837 -6.43964 -1.46121 68 57 131 255 
-5.64908 -5.9784 -1.43848 68 59 132 255 
-5.32383 -5.64627 -1.4243 66 65 134 255 
-5.0385 -5.33974 -1.41643 53 94 141 255 
-4.76545 -5.04868 -1.40869 55 91 141 255 
-4.54 -4.80634 -1.40894 55 91 141 255 
-4.3202 -4.57706 -1.39648 52 96 141 255 
-4.12609 -4.36972 -1.39192 56 89 140 255 
-3.91789 -4.14785 -1.37929 54 92 141 255 
-3.75114 -3.97398 -1.37874 55 91 141 255 
-3.59871 -3.80602 -1.36927 61 78 138 255 
-3.47588 -3.67597 -1.37263 61 77 138 255 
-3.31248 -3.50568 -1.35935 62 74 137 255 
-3.19301 -3.38506 -1.36339 64 70 136 255 
-0 -0 0 68 2 86 255 
-0 -0 0 68 2 86 255 
-0 -0 0 68 2 86 255 
-0 -0 0 68 2 86 255 
-0 -0 0 68 2 86 255 
-0 -0 0 68 2 86 255 
-0 -0 0 68 2 86 255 
-57.2262 -60.3047 19.0406 69 5 89 255 
-39.3741 -41.5232 12.6232 70 7 90 255 
-39.3647 -41.4977 12.0223 70 7 90 255 
-32.2434 -33.9555 9.38212 71 14 97 255 
-15.2897 -16.0897 4.23407 70 50 126 255 
-25.1565 -26.5296 6.67053 71 13 96 255 
-25.0971 -26.4477 6.29122 72 20 103 255 
-25.117 -26.4322 5.93179 72 22 104 255 
-25.1118 -26.3798 5.58622 71 14 97 255 
-15.213 -16.0377 3.20905 71 46 124 255 
-15.2004 -16.0128 2.98907 70 50 126 255 
-15.2118 -15.9916 2.77648 70 48 126 255 
-15.2099 -15.9667 2.57096 71 46 124 255 
-15.1713 -15.9938 2.39093 71 45 123 255 
-15.1777 -15.9722 2.17981 69 56 130 255 
-15.174 -15.9463 1.96841 71 47 125 255 
-17.3416 -18.1854 2.01296 72 29 111 255 
-19.5294 -20.581 2.04867 72 20 103 255 
-19.525 -20.5399 1.77799 72 24 106 255 
-21.7514 -22.8345 1.68034 72 20 103 255 
-25.3233 -26.537 1.60793 69 5 89 255 
-0 -0 0 69 4 87 255 
-24.0718 -25.3052 0.926762 71 16 99 255 
-23.3867 -24.5426 0.579908 71 16 99 255 
-0 -0 0 68 2 86 255 
-23.724 -24.9753 -0.00601214 71 16 99 255 
-21.1413 -22.209 -0.294349 72 26 108 255 
-19.8646 -20.8319 -0.542647 72 28 110 255 
-19.8567 -20.7794 -0.812864 72 22 104 255 
-19.0794 -20.0646 -1.00559 72 27 109 255 
-19.154 -20.1074 -1.26589 72 24 106 255 
-18.4758 -19.3686 -1.4731 72 22 104 255 
-18.41 -19.2588 -1.71823 71 16 99 255 
-18.2528 -19.1887 -1.92158 70 10 93 255 
-15.4626 -16.2209 -1.83456 71 13 96 255 
-13.2866 -13.9141 -1.75765 71 14 97 255 
-11.5522 -12.0848 -1.68638 71 19 101 255 
-10.318 -10.8357 -1.63072 72 37 118 255 
-9.26545 -9.71643 -1.59145 72 26 108 255 
-8.38746 -8.78051 -1.55552 72 28 110 255 
-7.73744 -8.0885 -1.54127 70 48 126 255 
-7.10585 -7.45457 -1.50426 67 62 133 255 
-6.54468 -6.85844 -1.47436 68 58 131 255 
-6.11913 -6.40364 -1.46154 66 63 133 255 
-5.68429 -5.9422 -1.43813 70 50 126 255 
-5.36109 -5.61634 -1.42502 66 64 134 255 
-5.061 -5.29807 -1.41359 55 90 140 255 
-4.80649 -5.02997 -1.41167 55 90 140 255 
-4.5667 -4.77557 -1.40811 54 93 141 255 
-4.34888 -4.55117 -1.3967 49 103 142 255 
-4.15417 -4.34573 -1.39237 53 94 141 255 
-3.94394 -4.12443 -1.37952 57 86 140 255 
-3.77211 -3.94738 -1.37751 58 84 140 255 
-3.62868 -3.79086 -1.3718 61 78 138 255 
-3.48368 -3.63923 -1.36687 62 74 137 255 
-3.33925 -3.49085 -1.36152 63 71 136 255 
-3.2124 -3.36402 -1.36283 68 59 132 255 
-0 -0 0 68 2 86 255 
-0 -0 0 68 2 86 255 
-0 -0 0 69 4 87 255 
-0 -0 0 68 2 86 255 
-0 -0 0 69 4 87 255 
-0 -0 0 68 1 84 255 
-0 -0 0 68 2 86 255 
-0 -0 0 68 2 86 255 
-39.6992 -41.3548 12.6458 70 8 92 255 
-0 -0 0 69 4 87 255 
-32.5877 -33.8991 9.42161 71 13 96 255 
-15.3847 -15.992 4.23313 67 62 133 255 
-15.1801 -15.8132 3.99938 72 32 113 255 
-15.1872 -15.8091 3.78265 72 36 117 255 
-15.1883 -15.7885 3.56402 71 42 122 255 
-15.2262 -15.7997 3.3655 71 45 123 255 
-15.2206 -15.8499 3.19009 69 56 130 255 
-15.2448 -15.8635 2.9786 70 50 126 255 
-15.2677 -15.8544 2.76887 70 50 126 255 
-15.2427 -15.8058 2.56008 71 47 125 255 
-15.2485 -15.8789 2.3877 70 50 126 255 
-15.2568 -15.8594 2.17715 68 59 132 255 
-15.2633 -15.8443 1.96734 71 46 124 255 
-17.4349 -18.0601 2.01089 72 28 110 255 
-19.6581 -20.4637 2.04896 72 22 104 255 
-19.6549 -20.424 1.77837 72 29 111 255 
-21.8724 -22.6811 1.67891 71 16 99 255 
-25.5613 -26.4594 1.6127 72 22 104 255 
-0 -0 0 68 1 84 255 
-23.5096 -24.4125 0.899334 70 11 94 255 
-23.5383 -24.4001 0.579942 71 17 100 255 
-25.5574 -26.437 0.288804 70 8 92 255 
-24.5027 -25.4801 -0.00616974 70 7 90 255 
-24.0679 -24.9748 -0.332957 70 10 93 255 
-20.0254 -20.7441 -0.543551 72 28 110 255 
-20.0513 -20.7269 -0.815606 71 16 99 255 
-19.331 -20.0811 -1.01234 72 24 106 255 
-19.3512 -20.0664 -1.27077 72 23 105 255 
-18.5117 -19.1694 -1.46657 71 16 99 255 
-18.7479 -19.3728 -1.73864 72 23 105 255 
-18.6455 -19.3623 -1.95039 71 19 101 255 
-15.6034 -16.1687 -1.83946 71 14 97 255 
-13.3925 -13.8538 -1.76038 71 14 97 255 
-11.6656 -12.0545 -1.6921 71 16 99 255 
-10.3843 -10.7722 -1.63072 72 41 121 255 
-9.30558 -9.63939 -1.58815 72 29 111 255 
-8.43291 -8.72033 -1.554 72 29 111 255 
-7.78692 -8.04088 -1.54127 70 48 126 255 
-7.12809 -7.38662 -1.49934 68 59 132 255 
-6.59763 -6.82952 -1.47682 67 61 132 255 
-6.15556 -6.36314 -1.46089 70 50 126 255 
-5.72338 -5.91004 -1.43882 70 50 126 255 
-5.38725 -5.57485 -1.42285 66 63 133 255 
-5.09136 -5.2648 -1.41302 55 90 140 255 
-4.84203 -5.00532 -1.41306 55 90 140 255 
-4.60068 -4.75237 -1.40957 52 96 141 255 
-4.38215 -4.53002 -1.39843 49 103 142 255 
-4.18483 -4.32436 -1.39372 53 94 141 255 
-3.96579 -4.09666 -1.37835 55 91 141 255 
-3.79154 -3.91929 -1.3758 57 86 140 255 
-3.65322 -3.76991 -1.37231 59 82 139 255 
-3.51132 -3.62333 -1.36896 60 79 138 255 
-3.36128 -3.47099 -1.36179 62 74 137 255 
-3.21897 -3.32975 -1.35692 67 61 132 255 
-0 -0 0 69 4 87 255 
-0 -0 0 69 4 87 255 
-0 -0 0 68 2 86 255 
-0 -0 0 68 2 86 255 
-0 -0 0 68 2 86 255 
-0 -0 0 68 2 86 255 
-0 -0 0 68 2 86 255 
-0 -0 0 68 2 86 255 
-40.2598 -41.427 12.7432 70 7 90 255 
-33.0146 -33.9589 9.95487 70 10 93 255 
-32.9627 -33.8706 9.46974 71 13 96 255 
-15.4188 -15.8319 4.2157 67 62 133 255 
-25.6749 -26.4192 6.72151 71 19 101 255 
-25.7083 -26.4345 6.36263 72 24 106 255 
-15.2808 -15.6907 3.56306 72 32 113 255 
-15.298 -15.6805 3.36004 72 29 111 255 
-15.3086 -15.7469 3.18822 69 53 129 255 
-15.3239 -15.7512 2.97511 71 44 122 255 
-15.294 -15.6879 2.75614 70 51 127 255 
-15.3262 -15.6985 2.55788 71 46 124 255 
-15.2812 -15.7187 2.37767 70 51 127 255 
-15.3024 -15.7127 2.16987 69 53 129 255 
-15.3324 -15.7218 1.96377 70 50 126 255 
-17.5126 -17.9192 2.00713 72 36 117 255 
-19.7339 -20.2919 2.04385 72 24 106 255 
-19.7631 -20.2859 1.77686 72 24 106 255 
-22.0056 -22.5408 1.67848 71 17 100 255 
-25.8161 -26.3971 1.61853 71 17 100 255 
-25.6977 -26.4059 1.32533 72 28 110 255 
-25.6547 -26.315 0.975198 70 11 94 255 
-24.4267 -25.012 0.598037 71 14 97 255 
-25.7241 -26.2847 0.288859 71 14 97 255 
-24.7584 -25.4318 -0.0061947 72 22 104 255 
-23.639 -24.2305 -0.32496 71 13 96 255 
-20.2341 -20.7045 -0.545757 72 24 106 255 
-20.2592 -20.6863 -0.818885 72 22 104 255 
-19.5292 -20.0394 -1.01626 72 27 109 255 
-19.5431 -20.018 -1.27527 72 20 103 255 
-18.9354 -19.3689 -1.49069 72 23 105 255 
-18.9872 -19.3807 -1.74977 72 22 104 255 
-18.9004 -19.3875 -1.96457 72 22 104 255 
-15.7016 -16.072 -1.83938 71 14 97 255 
-13.503 -13.7977 -1.76374 71 14 97 255 
-11.7853 -12.0296 -1.69872 71 14 97 255 
-10.4377 -10.6955 -1.62877 72 36 117 255 
-9.39648 -9.61478 -1.59357 72 36 117 255 
-8.50915 -8.69181 -1.55819 72 26 108 255 
-7.83265 -7.98941 -1.54058 70 51 127 255 
-7.18365 -7.35336 -1.50151 69 55 129 255 
-6.65046 -6.80022 -1.47928 67 61 132 255 
-6.18483 -6.31538 -1.45861 69 56 130 255 
-5.7754 -5.89099 -1.44279 70 50 126 255 
-5.43236 -5.55294 -1.42574 68 59 132 255 
-5.1325 -5.24258 -1.41548 57 86 140 255 
-4.86854 -4.97131 -1.41187 55 90 140 255 
-4.62838 -4.72266 -1.40915 54 92 141 255 
-4.40645 -4.49956 -1.39735 50 102 142 255 
-4.21196 -4.2993 -1.39395 52 96 141 255 
-3.98609 -4.06739 -1.3767 55 90 140 255 
-3.80941 -3.88971 -1.3736 54 92 141 255 
-3.68848 -3.75986 -1.37686 57 86 140 255 
-3.53619 -3.60448 -1.37001 61 78 138 255 
-3.37847 -3.44617 -1.36016 60 79 138 255 
-3.25344 -3.32434 -1.36283 62 73 137 255 
-0 -0 0 68 2 86 255 
-0 -0 0 68 2 86 255 
-0 -0 0 69 4 87 255 
-0 -0 0 68 2 86 255 
-0 -0 0 68 2 86 255 
-0 -0 0 68 2 86 255 
-0 -0 0 68 2 86 255 
-40.7502 -41.3892 13.3028 69 5 89 255 
-40.6714 -41.34 12.793 70 10 93 255 
-33.4358 -33.9726 10.0188 70 10 93 255 
-33.3151 -33.8151 9.5112 71 13 96 255 
-15.466 -15.6866 4.20221 70 50 126 255 
-25.9179 -26.3439 6.74269 71 17 100 255 
-25.8438 -26.2495 6.35617 71 13 96 255 
-15.3407 -15.5601 3.55471 69 56 130 255 
-15.3502 -15.5421 3.35049 71 44 122 255 
-15.3244 -15.5709 3.17156 71 47 125 255 
-15.3563 -15.592 2.96277 70 48 126 255 
-15.3531 -15.5564 2.74952 71 46 124 255 
-15.3601 -15.5413 2.54757 71 44 122 255 
-15.339 -15.5857 2.37174 70 51 127 255 
-15.3399 -15.559 2.1616 69 55 129 255 
-15.3453 -15.5431 1.95318 71 45 123 255 
-17.6138 -17.8029 2.00618 72 32 113 255 
-19.8504 -20.1626 2.04305 71 17 100 255 
-19.8704 -20.1472 1.77536 72 26 108 255 
-22.1126 -22.3741 1.67614 72 22 104 255 
-26.0499 -26.3113 1.62304 72 22 104 255 
-25.8999 -26.289 1.32742 72 22 104 255 
-25.9688 -26.3121 0.980981 72 22 104 255 
-25.9793 -26.2773 0.63209 71 14 97 255 
-26.0017 -26.2443 0.290162 71 16 99 255 
-24.9111 -25.2765 -0.006194 71 17 100 255 
-23.762 -24.0594 -0.324615 71 14 97 255 
-20.4535 -20.6738 -0.548245 72 24 106 255 
-20.5096 -20.6865 -0.823861 72 24 106 255 
-19.7858 -20.0551 -1.02319 72 23 105 255 
-19.794 -20.0278 -1.28361 72 20 103 255 
-19.0701 -19.2687 -1.49195 71 17 100 255 
-19.1585 -19.317 -1.7546 71 19 101 255 
-19.038 -19.2903 -1.96652 70 10 93 255 
-15.7838 -15.959 -1.8375 71 17 100 255 
-13.5355 -13.6622 -1.75701 71 16 99 255 
-11.8337 -11.9316 -1.69511 72 20 103 255 
-10.5311 -10.6595 -1.6331 72 37 118 255 
-9.47206 -9.57389 -1.59639 71 47 125 255 
-8.5728 -8.65 -1.5601 72 29 111 255 
-7.88571 -7.94542 -1.5414 69 55 129 255 
-7.22585 -7.30633 -1.50093 67 61 132 255 
-6.67677 -6.74383 -1.4759 69 55 129 255 
-6.21582 -6.26961 -1.45682 69 56 130 255 
-5.80936 -5.85334 -1.44227 70 52 128 255 
-5.47394 -5.52719 -1.42773 67 61 132 255 
-5.15973 -5.20611 -1.41416 58 84 140 255 
-4.89067 -4.93299 -1.40948 55 91 141 255 
-4.66003 -4.69695 -1.40999 54 93 141 255 
-4.44085 -4.47937 -1.39952 51 99 141 255 
-4.23483 -4.26991 -1.39282 54 93 141 255 
-4.01371 -4.04562 -1.37764 57 86 140 255 
-3.84617 -3.87935 -1.37825 57 86 140 255 
-3.72511 -3.75088 -1.38192 59 82 139 255 
-3.55348 -3.57792 -1.36818 59 82 139 255 
-3.40158 -3.42743 -1.36097 61 78 138 255 
-3.2758 -3.30636 -1.36367 62 74 137 255 
-0 -0 0 68 2 86 255 
-0 -0 0 68 2 86 255 
-0 -0 0 68 2 86 255 
-0 -0 0 69 4 87 255 
-0 -0 0 69 4 87 255 
-0 -0 0 68 2 86 255 
-0 -0 0 68 2 86 255 
-41.0818 -41.2171 13.3283 69 5 89 255 
-0 -0 0 69 4 87 255 
-33.6954 -33.8188 10.0343 70 10 93 255 
-33.7123 -33.801 9.56522 71 16 99 255 
-15.5154 -15.5449 4.18966 72 29 111 255 
-26.0534 -26.1586 6.73604 70 11 94 255 
-15.3351 -15.3858 3.74831 71 19 101 255 
-15.3725 -15.4021 3.54009 64 70 136 255 
-15.3963 -15.3987 3.33988 72 35 116 255 
-15.3771 -15.4338 3.16279 71 47 125 255 
-15.3964 -15.442 2.95217 71 47 125 255 
-15.3704 -15.3839 2.73567 71 44 122 255 
-15.4173 -15.4088 2.54132 71 45 123 255 
-15.395 -15.4519 2.3657 71 47 125 255 
-15.3711 -15.4005 2.15264 71 46 124 255 
-15.3834 -15.3916 1.94596 71 47 125 255 
-17.7121 -17.684 2.00498 72 35 116 255 
-19.9618 -20.0284 2.04183 72 23 105 255 
-19.9781 -20.0093 1.77398 72 24 106 255 
-22.2403 -22.2288 1.67545 72 20 103 255 
-25.585 -25.5265 1.58428 71 13 96 255 
-25.6027 -25.6703 1.30409 71 13 96 255 
-21.9773 -21.9963 0.825088 72 20 103 255 
-21.9641 -21.9451 0.531112 72 32 113 255 
-22.0246 -21.9589 0.244272 72 32 113 255 
-25.0827 -25.1402 -0.00619819 71 17 100 255 
-23.8123 -23.8162 -0.3233 71 16 99 255 
-20.7187 -20.6864 -0.551939 72 24 106 255 
-20.6886 -20.6125 -0.825953 72 22 104 255 
-19.9827 -20.0075 -1.027 72 26 108 255 
-19.925 -19.9144 -1.28415 71 14 97 255 
-19.3208 -19.2839 -1.50228 72 20 103 255 
-19.2498 -19.1723 -1.75215 72 26 108 255 
-19.096 -19.1131 -1.96037 70 8 92 255 
-15.8878 -15.8682 -1.83824 71 14 97 255 
-13.6487 -13.6084 -1.76083 71 16 99 255 
-11.9701 -11.9219 -1.70414 72 20 103 255 
-10.5534 -10.5518 -1.6265 72 40 120 255 
-9.5229 -9.50787 -1.5951 70 50 126 255 
-8.63976 -8.61124 -1.56264 72 26 108 255 
-7.93712 -7.89968 -1.54195 69 53 129 255 
-7.27195 -7.26325 -1.50122 68 57 131 255 
-6.74111 -6.72577 -1.48097 68 58 131 255 
-6.24509 -6.2223 -1.4547 70 51 127 255 
-5.85005 -5.82245 -1.44348 70 51 127 255 
-5.5168 -5.50253 -1.43007 66 63 133 255 
-5.2034 -5.18613 -1.41738 61 78 138 255 
-4.91668 -4.89874 -1.40829 55 90 140 255 
-4.69777 -4.67724 -1.4127 56 89 140 255 
-4.46894 -4.45272 -1.39973 50 101 142 255 
-4.26509 -4.24797 -1.39418 52 97 141 255 
-4.04879 -4.0312 -1.38117 55 91 141 255 
-3.87609 -3.86184 -1.38045 56 89 140 255 
-3.74806 -3.72795 -1.38192 59 82 139 255 
-3.561 -3.54175 -1.36268 59 81 139 255 
-3.4205 -3.40446 -1.36016 57 85 140 255 
-3.30214 -3.2923 -1.3662 64 70 136 255 
-0 -0 0 68 2 86 255 
-0 -0 0 68 2 86 255 
-0 -0 0 68 2 86 255 
-0 -0 0 68 2 86 255 
-0 -0 0 68 2 86 255 
-0 -0 0 68 2 86 255 
-0 -0 0 68 2 86 255 
-0 -0 0 68 2 86 255 
-34.1597 -33.8794 10.6132 70 8 92 255 
-34.0468 -33.7548 10.077 70 11 94 255 
-34.1344 -33.8067 9.62593 70 8 92 255 
-15.6154 -15.4542 4.19097 70 10 93 255 
-25.6211 -25.4108 6.58384 70 10 93 255 
-15.3886 -15.2512 3.73844 72 41 121 255 
-15.4302 -15.2714 3.53174 62 76 138 255 
-15.4568 -15.2706 3.3326 71 45 123 255 
-15.4595 -15.3273 3.16035 71 42 122 255 
-15.4627 -15.3193 2.94681 71 47 125 255 
-15.4645 -15.2893 2.73567 71 46 124 255 
-15.4726 -15.2756 2.53495 71 45 123 255 
-15.4663 -15.334 2.36214 72 38 119 255 
-15.4589 -15.2996 2.15175 69 55 129 255 
-15.4478 -15.2675 1.94222 71 45 123 255 
-17.7983 -17.5532 2.0025 72 28 110 255 
-20.0687 -19.8901 2.04025 72 23 105 255 
-20.087 -19.873 1.77279 72 26 108 255 
-22.3819 -22.0976 1.67587 71 16 99 255 
-25.5426 -25.1734 1.57206 70 11 94 255 
-25.5439 -25.299 1.29316 71 13 96 255 
-22.1652 -21.9138 0.827077 72 38 119 255 
-25.5568 -25.2233 0.614234 71 16 99 255 
-25.5523 -25.1654 0.28168 71 17 100 255 
-0 -0 -0 68 1 84 255 
-22.2095 -21.9422 -0.299705 70 10 93 255 
-20.9257 -20.6382 -0.554069 72 26 108 255 
-20.9856 -20.6535 -0.832738 71 17 100 255 
-20.2244 -20.0026 -1.0331 72 23 105 255 
-19.139 -18.8955 -1.226 72 38 119 255 
-19.33 -19.0578 -1.49388 71 16 99 255 
-19.5719 -19.2554 -1.77069 72 23 105 255 
-19.3307 -19.112 -1.97239 70 11 94 255 
-15.9848 -15.7704 -1.83824 70 11 94 255 
-13.7206 -13.5132 -1.75938 71 17 100 255 
-12.0239 -11.8294 -1.70143 71 16 99 255 
-10.6434 -10.512 -1.6304 72 41 121 255 
-9.58318 -9.45135 -1.59545 71 46 124 255 
-8.69032 -8.55598 -1.56226 72 35 116 255 
-7.98121 -7.84666 -1.54113 69 56 130 255 
-7.31145 -7.21363 -1.50021 70 51 127 255 
-6.78506 -6.68706 -1.48159 69 55 129 255 
-6.30143 -6.20185 -1.45893 68 57 131 255 
-5.89129 -5.79197 -1.44485 70 52 128 255 
-5.52594 -5.44442 -1.42375 66 63 133 255 
-5.22953 -5.1486 -1.41586 64 69 136 255 
-4.95084 -4.87261 -1.40948 57 86 140 255 
-4.71174 -4.63392 -1.40832 60 80 139 255 
-4.4934 -4.42248 -1.39887 50 102 142 255 
-4.29177 -4.22241 -1.3944 50 101 142 255 
-4.06444 -3.99742 -1.37811 56 89 140 255 
-3.90662 -3.84478 -1.3829 55 90 140 255 
-3.75706 -3.69133 -1.37686 58 83 139 255 
-3.58128 -3.51849 -1.36216 58 83 139 255 
-3.44476 -3.38678 -1.36152 57 86 140 255 
-3.32775 -3.27736 -1.36845 67 62 133 255 
-0 -0 0 68 2 86 255 
-0 -0 0 68 2 86 255 
-0 -0 0 68 2 86 255 
-0 -0 0 69 4 87 255 
-0 -0 0 68 2 86 255 
-0 -0 0 68 2 86 255 
-0 -0 0 68 2 86 255 
-0 -0 0 68 2 86 255 
-34.4848 -33.7846 10.6496 70 10 93 255 
-34.4743 -33.7616 10.142 71 13 96 255 
-26.9819 -26.3969 7.5631 70 11 94 255 
-25.8091 -25.2311 6.88514 71 14 97 255 
-25.7646 -25.2414 6.58079 71 16 99 255 
-15.4706 -15.1455 3.73572 67 62 133 255 
-15.4714 -15.1254 3.51986 64 70 136 255 
-15.5056 -15.1319 3.32305 71 42 122 255 
-15.4904 -15.1706 3.14756 71 47 125 255 
-15.5068 -15.1757 2.93741 70 51 127 255 
-15.5005 -15.138 2.72556 70 50 126 255 
-15.5135 -15.129 2.52638 70 50 126 255 
-15.477 -15.1574 2.34953 70 50 126 255 
-15.4956 -15.1488 2.14388 69 55 129 255 
-15.5276 -15.1592 1.94053 71 47 125 255 
-17.9092 -17.4472 2.0029 72 33 115 255 
-20.1775 -19.7541 2.03895 72 23 105 255 
-20.19 -19.7313 1.77117 72 27 109 255 
-22.5264 -21.9689 1.67657 71 17 100 255 
-25.6887 -25.0085 1.57158 69 5 89 255 
-22.3834 -21.8983 1.12633 72 38 119 255 
-25.6591 -25.0586 0.951696 72 23 105 255 
-25.6803 -25.036 0.613499 69 4 87 255 
-0 -0 0 68 2 86 255 
-25.6467 -25.0822 -0.00626102 70 11 94 255 
-22.3731 -21.8342 -0.300099 70 7 90 255 
-21.2059 -20.6594 -0.558121 72 23 105 255 
-21.1865 -20.5968 -0.835678 72 24 106 255 
-20.3904 -19.9207 -1.03531 72 24 106 255 
-19.3526 -18.8733 -1.23224 71 45 123 255 
-19.7134 -19.1986 -1.51437 71 19 101 255 
-19.4807 -18.9319 -1.75189 71 16 99 255 
-19.0744 -18.6286 -1.93454 70 10 93 255 
-16.147 -15.7361 -1.84574 71 17 100 255 
-13.814 -13.4392 -1.76074 71 16 99 255 
-12.0684 -11.7284 -1.69752 71 16 99 255 
-10.7326 -10.4708 -1.63419 72 37 118 255 
-9.6474 -9.39861 -1.59651 71 45 123 255 
-8.72985 -8.49005 -1.55997 72 32 113 255 
-8.03347 -7.80168 -1.54195 72 41 121 255 
-7.32723 -7.14101 -1.49443 70 52 128 255 
-6.78702 -6.60739 -1.47314 69 53 129 255 
-6.34927 -6.1727 -1.46121 69 53 129 255 
-5.9147 -5.74405 -1.44192 69 53 129 255 
-5.57193 -5.42276 -1.427 68 58 131 255 
-5.26595 -5.1212 -1.41719 67 62 133 255 
-4.98346 -4.84487 -1.41028 58 84 140 255 
-4.74148 -4.60629 -1.40874 56 89 140 255 
-4.52185 -4.39619 -1.3993 48 106 142 255 
-4.29734 -4.1763 -1.38786 55 91 141 255 
-4.09307 -3.97647 -1.37952 57 86 140 255 
-3.9357 -3.82614 -1.38485 56 89 140 255 
-3.76367 -3.65271 -1.37105 57 85 140 255 
-3.60211 -3.49577 -1.36189 61 77 138 255 
-3.46479 -3.36491 -1.36125 56 88 140 255 
-3.32648 -3.23614 -1.35973 69 56 130 255 
-0 -0 0 69 4 87 255 
-0 -0 0 69 4 87 255 
-0 -0 0 68 2 86 255 
-0 -0 0 68 2 86 255 
-0 -0 0 68 2 86 255 
-0 -0 0 69 4 87 255 
-0 -0 0 68 2 86 255 
-0 -0 0 68 2 86 255 
-34.8283 -33.7048 10.6916 71 16 99 255 
-34.8137 -33.678 10.1809 71 14 97 255 
-27.1532 -26.2404 7.56585 72 22 104 255 
-27.1541 -26.222 7.20088 71 17 100 255 
-15.4585 -14.9598 3.92489 72 31 112 255 
-15.5179 -15.0064 3.72484 62 74 137 255 
-15.5256 -14.9931 3.51119 70 52 128 255 
-15.537 -14.9775 3.31001 71 45 123 255 
-15.5504 -15.0436 3.14096 71 45 123 255 
-15.5341 -15.0169 2.92507 69 53 129 255 
-15.5367 -14.9882 2.7157 71 47 125 255 
-15.5724 -15.0012 2.52094 70 50 126 255 
-15.549 -15.0421 2.3464 69 53 129 255 
-15.5324 -14.9995 2.1362 69 56 130 255 
-15.5587 -15.0042 1.93287 70 48 126 255 
-18.031 -17.3515 2.00458 72 29 111 255 
-20.2876 -19.6195 2.03787 72 20 103 255 
-20.2942 -19.5911 1.76973 72 26 108 255 
-22.6493 -21.8192 1.67571 72 23 105 255 
-24.4152 -23.4786 1.48483 70 7 90 255 
-22.6165 -21.8564 1.13129 71 17 100 255 
-0 -0 0 68 2 86 255 
-0 -0 0 68 2 86 255 
-0 -0 0 68 2 86 255 
-25.8181 -24.9418 -0.00626538 69 4 87 255 
-0 -0 -0 68 1 84 255 
-21.3344 -20.531 -0.558178 72 32 113 255 
-21.4069 -20.5571 -0.839381 72 22 104 255 
-20.6517 -19.9299 -1.04235 72 23 105 255 
-19.5299 -18.8138 -1.23616 72 22 104 255 
-19.8214 -19.0683 -1.51366 72 22 104 255 
-19.7959 -19.0034 -1.76972 72 26 108 255 
-19.6829 -18.9883 -1.9844 70 10 93 255 
-16.2418 -15.6353 -1.84558 71 17 100 255 
-13.9012 -13.359 -1.76138 71 14 97 255 
-12.1423 -11.6562 -1.69782 71 14 97 255 
-10.8045 -10.4123 -1.63538 72 35 116 255 
-9.71061 -9.34475 -1.59745 70 51 127 255 
-8.74316 -8.39921 -1.55311 72 24 106 255 
-8.08047 -7.75156 -1.54181 70 51 127 255 
-7.38944 -7.11376 -1.49819 70 48 126 255 
-6.831 -6.56904 -1.4739 69 56 130 255 
-6.38631 -6.13294 -1.46105 70 48 126 255 
-5.96903 -5.72606 -1.44658 70 51 127 255 
-5.61928 -5.4021 -1.43061 66 64 134 255 
-5.29869 -5.09016 -1.41757 65 68 135 255 
-5.01238 -4.81352 -1.41008 57 86 140 255 
-4.7753 -4.58252 -1.4104 55 90 140 255 
-4.54733 -4.36701 -1.39887 49 103 142 255 
-4.33975 -4.16605 -1.39327 51 99 141 255 
-4.12581 -3.95936 -1.38234 53 94 141 255 
-3.95141 -3.79454 -1.38216 55 91 141 255 
-3.78112 -3.62486 -1.36927 58 83 139 255 
-3.62977 -3.47962 -1.36425 53 94 141 255 
-3.47773 -3.33625 -1.35826 57 86 140 255 
-3.34835 -3.21766 -1.36058 67 61 132 255 
-0 -0 0 69 4 87 255 
-0 -0 0 68 2 86 255 
-0 -0 0 69 4 87 255 
-0 -0 0 69 4 87 255 
-0 -0 0 68 2 86 255 
-0 -0 0 68 2 86 255 
-0 -0 0 69 4 87 255 
-35.394 -33.8089 11.2103 70 7 90 255 
-35.2088 -33.6572 10.7448 70 7 90 255 
-35.1867 -33.6233 10.2295 70 10 93 255 
-27.4712 -26.2236 7.60947 72 22 104 255 
-27.4531 -26.1871 7.23742 71 17 100 255 
-15.5414 -14.8565 3.92273 69 53 129 255 
-15.5491 -14.8531 3.71039 64 70 136 255 
-15.5616 -14.8445 3.49867 72 32 113 255 
-15.6035 -14.858 3.3047 71 45 123 255 
-15.5938 -14.9014 3.13119 70 48 126 255 
-15.5851 -14.8823 2.91742 71 46 124 255 
-15.5961 -14.8618 2.71008 71 47 125 255 
-15.6397 -14.8821 2.517 70 48 126 255 
-15.5993 -14.9066 2.34014 70 52 128 255 
-15.5975 -14.8785 2.13256 68 58 131 255 
-15.5805 -14.8418 1.92423 71 45 123 255 
-18.083 -17.189 1.99859 72 29 111 255 
-20.355 -19.4443 2.03261 72 26 108 255 
-20.3563 -19.4111 1.76472 72 29 111 255 
-22.7617 -21.6598 1.67417 72 20 103 255 
-24.5638 -23.3332 1.48513 70 10 93 255 
-22.9424 -21.9008 1.14086 71 14 97 255 
-23.0099 -21.9262 0.843391 69 4 87 255 
-0 -0 0 68 1 84 255 
-27.6053 -26.204 0.298943 69 5 89 255 
-0 -0 -0 68 2 86 255 
-21.2974 -20.2802 -0.282311 71 42 122 255 
-21.3194 -20.266 -0.554521 72 40 120 255 
-21.3224 -20.2258 -0.831183 72 32 113 255 
-20.8532 -19.8786 -1.04634 72 24 106 255 
-20.8781 -19.8671 -1.31375 71 17 100 255 
-20.2044 -19.1995 -1.53388 71 19 101 255 
-20.0179 -18.9818 -1.77912 71 16 99 255 
-19.7442 -18.8149 -1.9789 70 10 93 255 
-16.3352 -15.5333 -1.84533 71 16 99 255 
-14.0003 -13.2899 -1.76356 71 16 99 255 
-12.2266 -11.5938 -1.69963 71 14 97 255 
-10.8452 -10.3239 -1.63191 72 33 115 255 
-9.78216 -9.29867 -1.59981 71 47 125 255 
-8.8672 -8.41437 -1.56594 72 26 108 255 
-8.13076 -7.70456 -1.54236 70 50 126 255 
-7.42936 -7.06488 -1.49746 70 52 128 255 
-6.90198 -6.55627 -1.48051 68 57 131 255 
-6.41738 -6.08753 -1.45959 70 51 127 255 
-6.01477 -5.69949 -1.44916 70 51 127 255 
-5.63734 -5.35329 -1.42682 68 59 132 255 
-5.31985 -5.04809 -1.41491 66 65 134 255 
-5.0596 -4.79954 -1.41505 55 90 140 255 
-4.80191 -4.55179 -1.40999 56 88 140 255 
-4.57546 -4.34036 -1.3993 48 105 142 255 
-4.37372 -4.14739 -1.39598 53 95 141 255 
-4.14721 -3.93129 -1.3814 54 93 141 255 
-3.95984 -3.75621 -1.37703 59 82 139 255 
-3.81383 -3.61157 -1.37307 59 82 139 255 
-3.66226 -3.4679 -1.36844 58 83 139 255 
-3.50652 -3.3228 -1.36152 63 71 136 255 
-3.37011 -3.19904 -1.36142 69 55 129 255 
-0 -0 0 69 4 87 255 
-0 -0 0 68 2 86 255 
-0 -0 0 68 2 86 255 
-0 -0 0 68 2 86 255 
-0 -0 0 68 2 86 255 
-0 -0 0 68 2 86 255 
-0 -0 0 68 2 86 255 
-35.6943 -33.6794 11.2397 70 10 93 255 
-35.6554 -33.6678 10.8178 70 10 93 255 
-27.9441 -26.3764 8.07669 70 11 94 255 
-27.7464 -26.1628 7.6411 72 22 104 255 
-15.5625 -14.6635 4.07892 72 22 104 255 
-15.613 -14.7427 3.91789 63 71 136 255 
-15.6113 -14.7303 3.70359 66 63 133 255 
-26.8573 -25.3068 6.00324 71 19 101 255 
-15.6663 -14.7356 3.29879 71 46 124 255 
-15.6245 -14.7484 3.11912 70 50 126 255 
-15.6559 -14.7673 2.91367 71 46 124 255 
-15.6609 -14.7413 2.70559 70 52 128 255 
-15.6489 -14.7089 2.50391 70 51 127 255 
-15.6644 -14.786 2.33626 69 56 130 255 
-15.6755 -14.7702 2.13078 68 59 132 255 
-15.6531 -14.7288 1.922 71 46 124 255 
-18.1801 -17.0702 1.99771 72 35 116 255 
-20.4594 -19.3054 2.03117 72 24 106 255 
-20.4873 -19.2975 1.76578 72 29 111 255 
-22.8069 -21.4377 1.66779 72 23 105 255 
-24.8238 -23.2921 1.49218 70 10 93 255 
-0 -0 0 68 1 84 255 
