ply
format ascii 1.0
comment VTK generated PLY File
obj_info vtkPolyData points and polygons: vtk4.0
element vertex 1243
property float x
property float y
property float z
property uchar red
property uchar green
property uchar blue
property uchar alpha
element face 0
property list uchar int vertex_indices
end_header
3.66227 1.94488 -1.08399 62 74 137 255 
3.56635 1.89385 -1.09559 61 78 138 255 
3.43451 1.82541 -1.09621 66 64 134 255 
3.31014 1.76296 -1.09881 64 70 136 255 
9.86014 5.20945 3.34992 70 10 93 255 
14.7138 7.78997 4.81486 67 62 133 255 
14.7953 7.8399 4.6656 70 52 128 255 
15.0419 7.97018 4.57086 68 58 131 255 
15.0421 7.95731 4.41678 66 63 133 255 
10.1661 5.37999 2.86349 70 8 92 255 
0 0 0 68 1 84 255 
10.1769 5.38102 2.63658 70 10 93 255 
13.5948 7.1947 3.39304 70 7 90 255 
35.7453 18.9087 8.4996 70 8 92 255 
24.0528 12.7077 5.45057 72 22 104 255 
25.4162 13.4161 5.4824 72 20 103 255 
25.3529 13.4174 5.23354 71 17 100 255 
23.6152 12.4868 4.60938 72 22 104 255 
23.6418 12.48 4.34905 72 40 120 255 
23.8783 12.5778 4.13945 70 10 93 255 
34.7834 18.4005 5.71256 70 11 94 255 
25.5589 13.5089 3.91382 70 11 94 255 
24.0448 12.6767 3.4194 72 20 103 255 
23.8843 12.5703 3.14674 69 5 89 255 
26.7229 14.1365 3.27888 71 16 99 255 
26.3577 13.9134 2.94862 72 28 110 255 
26.3757 13.8997 2.66608 72 22 104 255 
25.4635 13.3844 2.30442 71 14 97 255 
25.2164 13.3339 2.05969 71 19 101 255 
24.8109 13.0913 1.76002 72 31 112 255 
25.628 13.4885 1.54312 69 5 89 255 
0 0 0 68 2 86 255 
65.4844 34.5976 2.66396 70 7 90 255 
0 0 0 69 4 87 255 
50.5012 26.5685 0.976125 70 7 90 255 
12.1964 6.39996 0.10818 62 76 138 255 
12.3098 6.50095 -0.00242967 72 22 104 255 
12.0746 6.36035 -0.131009 71 16 99 255 
21.6746 11.3933 -0.461617 72 28 110 255 
17.1766 9.00564 -0.548506 72 32 113 255 
16.0202 8.44975 -0.657808 72 41 121 255 
13.809 7.26779 -0.711339 71 42 122 255 
12.3658 6.49735 -0.768753 71 45 123 255 
11.2856 5.91452 -0.821725 72 36 117 255 
10.4567 5.51295 -0.857704 62 74 137 255 
9.57731 5.03635 -0.885829 71 46 124 255 
8.84635 4.64221 -0.912713 54 93 141 255 
8.22218 4.30904 -0.936375 68 57 131 255 
7.65008 4.02816 -0.942288 58 84 140 255 
7.21404 3.79199 -0.966052 56 88 140 255 
6.8119 3.5731 -0.985386 60 79 138 255 
6.40835 3.35561 -0.996045 57 86 140 255 
6.10596 3.21103 -1.00766 53 95 141 255 
5.74576 3.01764 -1.00934 57 86 140 255 
5.48678 2.8768 -1.02228 51 99 141 255 
5.22893 2.73803 -1.03226 53 94 141 255 
5.00393 2.62703 -1.03726 52 96 141 255 
4.80679 2.52129 -1.04721 58 84 140 255 
4.59845 2.41104 -1.05353 60 80 139 255 
4.38552 2.29737 -1.05504 62 73 137 255 
4.22538 2.21548 -1.05857 65 66 135 255 
4.09097 2.144 -1.06972 65 66 135 255 
3.92017 2.05366 -1.06983 63 71 136 255 
3.78277 1.9833 -1.0776 66 65 134 255 
3.68871 1.93 -1.08829 61 77 138 255 
3.57277 1.86925 -1.09402 64 69 136 255 
3.46611 1.81502 -1.10272 65 66 135 255 
3.31665 1.74039 -1.0974 67 62 133 255 
15.4682 8.05137 5.23835 72 20 103 255 
15.0373 7.84349 4.90487 70 52 128 255 
14.8585 7.75699 4.67043 69 55 129 255 
15.4681 8.07484 4.68522 72 23 105 255 
15.9911 8.33413 4.68032 71 42 122 255 
10.1473 5.29059 2.84899 72 20 103 255 
0 0 0 68 2 86 255 
0 0 0 69 4 87 255 
35.66 18.593 8.87152 70 8 92 255 
35.2288 18.3598 8.34985 70 11 94 255 
24.1111 12.5499 5.44625 71 14 97 255 
24.2849 12.6291 5.22157 71 14 97 255 
34.1666 17.8143 7.03023 70 8 92 255 
23.7761 12.3858 4.62587 72 37 118 255 
23.9272 12.4436 4.38742 72 28 110 255 
23.8524 12.3777 4.12171 71 13 96 255 
23.7783 12.3927 3.89261 71 17 100 255 
23.9871 12.4904 3.66134 72 35 116 255 
24.0842 12.5092 3.41403 72 29 111 255 
26.6222 13.8033 3.49624 71 13 96 255 
26.5606 13.8427 3.24847 72 27 109 255 
26.4143 13.7367 2.94547 72 22 104 255 
26.4419 13.7279 2.66421 70 11 94 255 
25.5593 13.2353 2.3057 72 23 105 255 
25.1836 13.1195 2.0504 72 22 104 255 
24.9695 12.9798 1.76559 72 24 106 255 
53.0446 27.5041 3.18372 69 5 89 255 
0 0 0 68 2 86 255 
0 0 0 69 4 87 255 
0 0 0 69 4 87 255 
50.6926 26.2733 0.976689 69 4 87 255 
12.2239 6.31903 0.108078 56 88 140 255 
12.2217 6.35883 -0.00240454 64 69 136 255 
12.1037 6.28108 -0.130904 71 47 125 255 
12.0986 6.2652 -0.256848 72 40 120 255 
12.2411 6.32254 -0.389653 71 42 122 255 
12.1124 6.29388 -0.495752 72 40 120 255 
12.1293 6.28903 -0.622814 71 44 122 255 
12.1926 6.31119 -0.755565 70 48 126 255 
11.3075 5.83783 -0.820695 70 52 128 255 
10.4983 5.45282 -0.858355 64 70 136 255 
9.6452 4.99674 -0.889256 69 55 129 255 
8.90917 4.60568 -0.916262 65 68 135 255 
8.23874 4.25349 -0.935271 69 55 129 255 
7.65613 3.97153 -0.940013 59 81 139 255 
7.24776 3.75313 -0.967464 55 91 141 255 
6.85044 3.53989 -0.9878 60 79 138 255 
6.41385 3.30851 -0.993727 57 85 140 255 
6.11325 3.16713 -1.00563 56 88 140 255 
5.77996 2.9905 -1.01211 57 85 140 255 
5.50608 2.84399 -1.02261 54 92 141 255 
5.25526 2.71086 -1.03415 52 97 141 255 
5.00772 2.58996 -1.03474 57 86 140 255 
4.8213 2.4913 -1.04702 61 78 138 255 
4.61142 2.38188 -1.05314 60 79 138 255 
4.43256 2.28746 -1.06296 61 78 138 255 
4.24757 2.194 -1.06074 63 71 136 255 
4.10145 2.11752 -1.06904 64 70 136 255 
3.93356 2.03001 -1.07006 66 65 134 255 
3.79831 1.96183 -1.07858 64 69 136 255 
3.71166 1.91309 -1.09158 61 77 138 255 
3.58075 1.84552 -1.09297 64 69 136 255 
3.46521 1.78754 -1.09892 64 69 136 255 
3.32812 1.72044 -1.09768 66 64 134 255 
15.1799 7.78327 5.12442 72 20 103 255 
14.9527 7.68302 4.86181 65 68 135 255 
14.8802 7.65246 4.66238 70 50 126 255 
15.5328 7.98772 4.68989 71 42 122 255 
16.0324 8.231 4.67755 71 16 99 255 
10.3073 5.29384 2.88474 71 45 123 255 
0 0 0 68 1 84 255 
25.869 13.2746 6.65933 70 8 92 255 
23.397 12.0171 5.80226 72 23 105 255 
26.0011 13.3484 6.14319 71 14 97 255 
10.4544 5.36028 2.35398 59 82 139 255 
10.4884 5.37286 2.24801 69 53 129 255 
25.675 13.1871 5.26621 71 14 97 255 
23.9648 12.2977 4.64781 72 31 112 255 
23.8731 12.2299 4.36366 71 16 99 255 
23.8258 12.179 4.10412 72 28 110 255 
23.6998 12.1674 3.86747 72 27 109 255 
23.9469 12.2833 3.64363 72 35 116 255 
23.8346 12.1945 3.36797 72 27 109 255 
23.7961 12.1533 3.11524 71 17 100 255 
26.3682 13.5373 3.21472 72 23 105 255 
34.7766 17.8153 3.86569 69 5 89 255 
26.1088 13.3523 2.62234 71 17 100 255 
25.7386 13.1284 2.31456 72 22 104 255 
25.2353 12.9502 2.0481 72 22 104 255 
24.9927 12.7977 1.76165 69 5 89 255 
0 0 0 68 2 86 255 
0 0 0 68 1 84 255 
0 0 0 69 4 87 255 
0 0 0 69 4 87 255 
12.4441 6.35303 0.239003 68 57 131 255 
12.266 6.24573 0.108109 62 73 137 255 
12.2401 6.27323 -0.00240053 63 72 137 255 
12.1918 6.23218 -0.131441 72 32 113 255 
13.1504 6.70785 -0.278297 71 45 123 255 
13.2241 6.72776 -0.41962 72 28 110 255 
13.1337 6.72259 -0.535858 70 52 128 255 
13.2495 6.767 -0.678188 70 50 126 255 
12.4891 6.36779 -0.771501 71 45 123 255 
11.3947 5.79458 -0.824428 64 69 136 255 
10.5244 5.38467 -0.857776 65 66 135 255 
9.66769 4.93339 -0.888522 69 53 129 255 
8.95856 4.56177 -0.918445 71 44 122 255 
8.26646 4.20376 -0.935472 70 50 126 255 
7.68478 3.92674 -0.940555 60 79 138 255 
7.2388 3.69234 -0.963227 58 84 140 255 
6.87203 3.49779 -0.9878 58 83 139 255 
6.43668 3.27044 -0.994136 57 85 140 255 
6.12375 3.12506 -1.00419 56 88 140 255 
5.82549 2.96889 -1.01687 58 83 139 255 
5.5331 2.81507 -1.0244 51 98 141 255 
5.26653 2.67589 -1.03312 51 99 141 255 
5.01475 2.55472 -1.03293 59 81 139 255 
4.82512 2.45588 -1.04456 62 73 137 255 
4.61546 2.34821 -1.05075 64 69 136 255 
4.46657 2.27042 -1.06776 66 64 134 255 
4.26269 2.16878 -1.06117 62 73 137 255 
4.10395 2.08701 -1.06633 64 70 136 255 
3.96154 2.01377 -1.07429 66 63 133 255 
3.83361 1.95036 -1.08518 63 71 136 255 
3.70521 1.88108 -1.08626 64 69 136 255 
3.5834 1.81915 -1.09035 61 78 138 255 
3.45723 1.75665 -1.09296 66 65 134 255 
3.33519 1.69825 -1.09656 64 69 136 255 
15.0581 7.6045 5.06746 71 47 125 255 
14.931 7.55643 4.83958 70 50 126 255 
15.0128 7.60454 4.68922 69 55 129 255 
15.205 7.70156 4.57656 67 61 132 255 
16.3772 8.28141 4.76322 72 28 110 255 
10.1508 5.13501 2.83208 64 69 136 255 
10.1382 5.12648 2.71276 52 96 141 255 
10.2403 5.17564 2.62788 57 86 140 255 
10.2813 5.20115 2.54171 70 11 94 255 
10.3899 5.25365 2.44712 50 100 142 255 
10.5177 5.3115 2.36085 60 79 138 255 
10.5466 5.32124 2.25345 72 29 111 255 
24.2754 12.2806 4.96359 72 20 103 255 
24.1488 12.2056 4.66889 71 16 99 255 
27.2539 13.7514 4.96612 72 23 105 255 
23.8806 12.0228 4.10079 72 28 110 255 
23.5798 11.9235 3.83586 72 41 121 255 
24.4526 12.3538 3.70896 72 23 105 255 
23.9843 12.0859 3.37858 72 31 112 255 
24.1418 12.1437 3.15068 72 20 103 255 
25.9459 13.12 3.15337 72 20 103 255 
26.2806 13.26 2.91219 72 24 106 255 
34.9399 17.5989 3.49842 70 7 90 255 
25.6361 12.8785 2.29819 72 31 112 255 
25.365 12.8207 2.0522 71 16 99 255 
53.9654 27.2167 3.79198 69 5 89 255 
54.0035 27.1657 3.22102 69 4 87 255 
0 0 0 68 2 86 255 
0 0 0 69 4 87 255 
66.3065 33.4118 1.97021 70 7 90 255 
12.4694 6.26982 0.238746 63 71 136 255 
12.3604 6.19859 0.108604 64 70 136 255 
12.3372 6.22775 -0.00241204 63 72 137 255 
13.1525 6.62176 -0.141357 72 31 112 255 
13.269 6.66608 -0.279937 70 48 126 255 
13.274 6.65097 -0.419903 72 33 115 255 
13.2176 6.66347 -0.5376 71 45 123 255 
13.3158 6.69815 -0.679463 71 47 125 255 
12.536 6.29507 -0.771995 71 45 123 255 
11.4247 5.72187 -0.824042 72 40 120 255 
10.5198 5.30114 -0.854737 68 59 132 255 
9.7058 4.87801 -0.889256 69 53 129 255 
9.01664 4.5219 -0.921538 70 50 126 255 
8.31167 4.16276 -0.93768 67 62 133 255 
7.72471 3.88756 -0.942505 60 79 138 255 
7.26576 3.65009 -0.963815 54 92 141 255 
6.89514 3.45644 -0.988054 59 81 139 255 
6.48232 3.24374 -0.998092 60 79 138 255 
6.16049 3.09631 -1.00708 55 91 141 255 
5.83654 2.92954 -1.01564 57 85 140 255 
5.56086 2.78637 -1.02635 51 99 141 255 
5.28813 2.64617 -1.03415 49 104 142 255 
5.03297 2.52522 -1.03347 55 91 141 255 
4.84536 2.42886 -1.0457 63 72 137 255 
4.61752 2.31369 -1.04796 61 77 138 255 
4.44631 2.22589 -1.05963 66 63 133 255 
4.28639 2.14783 -1.06377 61 78 138 255 
4.10709 2.05699 -1.06385 62 73 137 255 
3.95644 1.98072 -1.06959 66 64 134 255 
3.8117 1.90986 -1.07564 66 63 133 255 
3.7089 1.85442 -1.08399 67 62 133 255 
3.58413 1.79195 -1.08721 65 66 135 255 
3.45934 1.7311 -1.09024 66 65 134 255 
3.36785 1.68894 -1.10387 67 62 133 255 
15.0916 7.50557 5.06314 71 45 123 255 
14.9573 7.45481 4.83319 70 52 128 255 
15.2134 7.58926 4.73726 71 46 124 255 
10.1435 5.05986 3.04369 70 51 127 255 
10.2872 5.1229 2.98279 69 53 129 255 
10.2925 5.12758 2.86276 58 83 139 255 
10.2208 5.08976 2.72647 52 97 141 255 
10.4001 5.17656 2.66069 71 42 122 255 
10.4493 5.2059 2.57531 68 57 131 255 
10.4044 5.18107 2.443 62 73 137 255 
10.5826 5.26302 2.36812 72 26 108 255 
26.2832 13.0593 5.59858 71 16 99 255 
25.9423 12.9246 5.28811 71 13 96 255 
23.9604 11.9263 4.61822 72 37 118 255 
26.9135 13.3731 4.88904 71 16 99 255 
23.404 11.6034 4.00664 72 32 113 255 
23.0864 11.4967 3.74406 72 35 116 255 
25.1667 12.5213 3.80556 72 20 103 255 
24.1762 11.9972 3.39518 72 27 109 255 
26.0422 12.9 3.38831 71 17 100 255 
26.187 13.0408 3.17288 72 26 108 255 
26.521 13.1778 2.92981 72 20 103 255 
26.1119 12.9521 2.60649 70 11 94 255 
25.5868 12.6578 2.28677 71 17 100 255 
34.5847 17.2152 2.78954 70 7 90 255 
26.4154 13.1196 1.85044 71 17 100 255 
37.2716 18.4632 2.21625 70 7 90 255 
37.3077 18.4399 1.82427 70 8 92 255 
37.2783 18.5398 1.49755 70 11 94 255 
37.2986 18.5086 1.10488 70 10 93 255 
12.487 6.18299 0.238353 66 65 134 255 
12.4457 6.14609 0.10902 68 57 131 255 
12.4504 6.18933 -0.00242671 62 76 138 255 
14.0386 6.96024 -0.150419 72 35 116 255 
22.4872 11.1248 -0.472964 70 11 94 255 
12.1026 5.97142 -0.381681 72 40 120 255 
16.4833 8.18337 -0.66837 70 48 126 255 
13.9555 6.91297 -0.709927 72 35 116 255 
12.6084 6.23485 -0.774083 71 44 122 255 
11.4462 5.64504 -0.823076 71 47 125 255 
10.5665 5.24359 -0.855895 66 64 134 255 
9.77038 4.8356 -0.892438 69 55 129 255 
9.05404 4.47134 -0.922539 70 48 126 255 
8.33973 4.113 -0.937981 69 56 130 255 
7.75376 3.84274 -0.943155 60 79 138 255 
7.27823 3.60059 -0.962521 57 85 140 255 
6.92333 3.41758 -0.989071 57 86 140 255 
6.50032 3.20303 -0.997819 59 81 139 255 
6.17849 3.05802 -1.00693 55 91 141 255 
5.84466 2.88886 -1.01395 59 81 139 255 
5.5752 2.75089 -1.02586 53 94 141 255 
5.29101 2.60714 -1.03157 51 98 141 255 
5.06425 2.50213 -1.03672 51 99 141 255 
4.87162 2.40474 -1.04816 62 74 137 255 
4.63427 2.28662 -1.04856 60 80 139 255 
4.45111 2.19424 -1.05754 65 66 135 255 
4.29424 2.1189 -1.06247 62 73 137 255 
4.14061 2.0421 -1.06927 64 70 136 255 
3.98857 1.96629 -1.075 66 64 134 255 
3.83987 1.89459 -1.08029 66 65 134 255 
3.72454 1.83376 -1.08525 65 66 135 255 
3.58121 1.7631 -1.08302 68 58 131 255 
3.47766 1.71367 -1.09269 65 66 135 255 
3.37901 1.66867 -1.10415 66 63 133 255 
14.7735 7.23465 4.94145 70 48 126 255 
15.0942 7.40776 4.86264 69 55 129 255 
15.1897 7.46136 4.71552 67 61 132 255 
10.203 5.01158 3.05225 53 95 141 255 
10.2524 5.0273 2.9637 69 56 130 255 
10.3072 5.05621 2.85817 56 88 140 255 
10.3252 5.06292 2.74598 57 86 140 255 
10.4037 5.09892 2.65355 71 42 122 255 
10.5459 5.17351 2.59125 71 47 125 255 
10.4782 5.13782 2.45287 51 98 141 255 
10.6235 5.2023 2.37009 70 51 127 255 
26.3734 12.903 5.60083 71 14 97 255 
26.2278 12.8665 5.33011 70 11 94 255 
24.088 11.806 4.62876 72 32 113 255 
23.7661 11.6279 4.30425 72 35 116 255 
23.2545 11.352 3.96904 72 37 118 255 
23.7225 11.6324 3.83558 71 17 100 255 
24.2161 11.8636 3.65074 72 35 116 255 
24.6951 12.0664 3.45759 70 11 94 255 
26.619 12.983 3.45293 70 10 93 255 
26.1219 12.809 3.15542 70 11 94 255 
36.4341 17.8255 4.01278 70 7 90 255 
24.784 12.1045 2.46647 71 17 100 255 
24.9623 12.1588 2.22425 72 20 103 255 
24.9902 12.2486 2.00957 71 13 96 255 
26.1834 12.8047 1.82865 72 23 105 255 
51.7875 25.2594 3.07012 70 7 90 255 
51.8542 25.2351 2.52795 69 5 89 255 
0 0 0 69 4 87 255 
0 0 0 69 4 87 255 
12.5858 6.13605 0.239516 69 56 130 255 
12.565 6.1094 0.109735 71 42 122 255 
12.5448 6.14051 -0.0024377 62 76 138 255 
12.5049 6.10454 -0.133582 71 13 96 255 
19.8692 9.67838 -0.416645 70 7 90 255 
12.166 5.91015 -0.382529 69 55 129 255 
14.0606 6.87339 -0.568414 72 26 108 255 
14.0021 6.8294 -0.710155 70 50 126 255 
12.3241 6.00045 -0.754356 67 62 133 255 
11.4716 5.57034 -0.822433 70 50 126 255 
10.6164 5.18741 -0.857342 65 66 135 255 
9.82227 4.78648 -0.894478 66 65 134 255 
9.08399 4.417 -0.922812 69 53 129 255 
8.35407 4.05654 -0.936776 68 59 132 255 
7.76647 3.78986 -0.941855 62 74 137 255 
7.31268 3.56196 -0.964168 58 83 139 255 
6.93347 3.36984 -0.987546 59 82 139 255 
6.51272 3.15962 -0.996728 59 82 139 255 
6.19891 3.02092 -1.00722 55 90 140 255 
5.85783 2.85078 -1.01318 58 83 139 255 
5.59818 2.71965 -1.027 52 96 141 255 
5.29362 2.56818 -1.02899 55 91 141 255 
5.0742 2.46843 -1.03564 50 102 142 255 
4.89423 2.37866 -1.04987 60 80 139 255 
4.65173 2.25985 -1.04936 61 78 138 255 
4.48297 2.17586 -1.06192 64 69 136 255 
4.30452 2.09123 -1.06182 62 73 137 255 
4.14517 2.01282 -1.06724 62 73 137 255 
3.99881 1.94093 -1.07453 64 70 136 255 
3.84008 1.86548 -1.07711 66 63 133 255 
3.70003 1.79357 -1.07488 66 64 134 255 
3.57546 1.7331 -1.07805 65 66 135 255 
3.49851 1.69734 -1.09594 68 59 132 255 
3.39091 1.64874 -1.10471 68 57 131 255 
14.3621 6.92426 4.78954 68 59 132 255 
10.056 4.85884 3.22991 72 38 119 255 
14.459 6.99266 4.47529 69 55 129 255 
10.2544 4.95897 3.05848 47 107 142 255 
15.3971 7.43319 4.43763 72 38 119 255 
10.3433 4.99541 2.85962 58 83 139 255 
10.5926 5.11365 2.80869 64 69 136 255 
10.6806 5.1536 2.71606 65 66 135 255 
10.4623 5.05307 2.56303 52 96 141 255 
10.5209 5.07896 2.45555 57 86 140 255 
10.755 5.18514 2.39229 60 80 139 255 
10.787 5.19569 2.28399 72 29 111 255 
26.4001 12.7507 5.34913 70 11 94 255 
24.1715 11.6635 4.63097 72 35 116 255 
23.6556 11.3945 4.27149 72 33 115 255 
23.7932 11.4347 4.04894 72 22 104 255 
24.223 11.694 3.90482 71 19 101 255 
23.4405 11.3058 3.52329 72 29 111 255 
23.4624 11.2863 3.27524 71 14 97 255 
23.8293 11.4419 3.08189 71 14 97 255 
26.0541 12.578 3.13784 70 10 93 255 
35.3145 17.01 3.8779 69 4 87 255 
24.3174 11.6924 2.41286 72 31 112 255 
25.3322 12.1472 2.25052 71 19 101 255 
35.2784 17.0236 2.82843 70 7 90 255 
25.409 12.2333 1.76929 71 19 101 255 
26.0612 12.514 1.54041 70 7 90 255 
0 0 0 68 1 84 255 
51.9583 25.0501 2.07477 70 7 90 255 
51.9733 25.0006 1.53038 69 5 89 255 
12.6079 6.05135 0.239225 71 19 101 255 
49.3421 23.618 0.429648 69 4 87 255 
12.4327 5.99136 -0.00240873 72 35 116 255 
12.5367 6.0251 -0.133524 70 7 90 255 
12.204 5.85222 -0.255151 71 47 125 255 
12.2426 5.8548 -0.383801 63 71 136 255 
16.5194 7.95014 -0.665829 72 24 106 255 
14.0032 6.7239 -0.708106 72 40 120 255 
12.4579 5.97133 -0.760291 71 44 122 255 
11.5209 5.50717 -0.823527 72 37 118 255 
10.6543 5.1252 -0.857848 67 61 132 255 
9.87032 4.73517 -0.896191 63 71 136 255 
9.10464 4.35817 -0.922175 69 56 130 255 
8.36624 3.9992 -0.935371 70 50 126 255 
7.78689 3.74084 -0.94153 62 76 138 255 
7.35052 3.52475 -0.966287 58 84 140 255 
6.96207 3.33108 -0.98869 61 77 138 255 
6.53646 3.12174 -0.99741 61 78 138 255 
6.20127 2.97512 -1.00462 54 92 141 255 
5.87165 2.81307 -1.01257 61 78 138 255 
5.58272 2.66992 -1.02114 55 91 141 255 
5.31639 2.53904 -1.03036 51 99 141 255 
5.09368 2.43937 -1.03654 52 96 141 255 
4.88659 2.33799 -1.04513 61 77 138 255 
4.67347 2.23507 -1.05115 63 71 136 255 
4.49623 2.14831 -1.06192 61 77 138 255 
4.33841 2.07489 -1.06702 63 72 137 255 
4.18293 1.99954 -1.07378 65 68 135 255 
4.03257 1.92684 -1.0804 62 74 137 255 
3.86108 1.84649 -1.0798 65 68 135 255 
3.75899 1.79375 -1.08879 64 69 136 255 
3.6078 1.72151 -1.08459 68 57 131 255 
3.49409 1.66879 -1.09133 69 56 130 255 
3.39058 1.62293 -1.10134 67 61 132 255 
14.4978 6.88035 4.82061 71 42 122 255 
10.0874 4.79787 3.23046 51 99 141 255 
10.4268 4.96388 3.21776 60 79 138 255 
10.4172 4.95906 3.09789 70 50 126 255 
10.2871 4.88864 2.95616 61 77 138 255 
10.3071 4.90018 2.84126 59 81 139 255 
10.6176 5.04563 2.80706 54 92 141 255 
10.4752 4.97547 2.65601 72 35 116 255 
10.5257 5.00429 2.571 50 100 142 255 
10.5678 5.02187 2.45925 63 71 136 255 
10.7299 5.09214 2.37971 57 85 140 255 
25.6013 12.1382 5.40483 71 13 96 255 
23.466 11.1565 4.74066 71 17 100 255 
24.0397 11.4186 4.5922 71 42 122 255 
23.8276 11.2977 4.28996 72 32 113 255 
23.4796 11.1072 3.9839 72 32 113 255 
23.9118 11.3634 3.84334 72 27 109 255 
23.1362 10.9845 3.46734 72 37 118 255 
23.515 11.1345 3.27299 71 19 101 255 
23.5174 11.1151 3.03267 72 31 112 255 
23.7926 11.3067 2.85706 71 13 96 255 
24.4589 11.5968 2.67798 70 11 94 255 
24.8199 11.747 2.45552 72 20 103 255 
25.1475 11.8694 2.2276 71 17 100 255 
25.1134 11.929 2.00755 72 26 108 255 
26.1401 12.3884 1.81487 71 14 97 255 
26.1068 12.3394 1.5386 69 4 87 255 
0 0 0 68 2 86 255 
32.3939 15.3735 1.28974 69 4 87 255 
32.3475 15.3163 0.949707 70 7 90 255 
0 0 0 68 2 86 255 
49.79 23.458 0.432287 69 4 87 255 
12.3228 5.84553 -0.00238045 66 64 134 255 
12.2552 5.79754 -0.130145 66 64 134 255 
12.2613 5.78747 -0.255604 72 22 104 255 
12.2856 5.78297 -0.384027 64 69 136 255 
12.2762 5.81556 -0.493356 56 88 140 255 
12.2605 5.79478 -0.618169 62 73 137 255 
12.7842 6.03154 -0.77793 72 41 121 255 
11.5626 5.4402 -0.824106 72 38 119 255 
10.69 5.06186 -0.85821 66 65 134 255 
9.93344 4.69069 -0.899292 62 74 137 255 
9.124 4.29883 -0.921448 69 53 129 255 
8.41943 3.96134 -0.938583 69 56 130 255 
7.84385 3.70914 -0.945647 62 76 138 255 
7.35674 3.47237 -0.964286 56 88 140 255 
6.99045 3.2921 -0.989833 59 82 139 255 
6.57611 3.09126 -1.00055 57 85 140 255 
6.23462 2.9442 -1.00708 51 98 141 255 
5.89416 2.77952 -1.01349 60 80 139 255 
5.60971 2.64066 -1.02309 52 97 141 255 
5.32919 2.50512 -1.02985 54 92 141 255 
5.11389 2.41059 -1.03762 50 100 142 255 
4.89729 2.30629 -1.04437 61 77 138 255 
4.69685 2.21095 -1.05333 63 72 137 255 
4.49251 2.11277 -1.05796 66 65 134 255 
4.36166 2.05322 -1.06962 62 73 137 255 
4.17132 1.96263 -1.06769 62 73 137 255 
4.03112 1.89585 -1.07688 62 73 137 255 
3.87848 1.82565 -1.08151 66 63 133 255 
3.76642 1.76901 -1.08778 61 77 138 255 
3.62179 1.70099 -1.08564 68 59 132 255 
3.50339 1.64691 -1.09106 69 56 130 255 
3.39961 1.60169 -1.10106 70 52 128 255 
15.6669 7.31776 5.19433 70 50 126 255 
10.2219 4.78516 3.26408 57 85 140 255 
15.717 7.36443 4.83631 71 45 123 255 
10.3346 4.84219 3.06444 71 47 125 255 
10.2056 4.77335 2.92426 54 93 141 255 
10.5989 4.9594 2.91325 61 77 138 255 
10.5356 4.92764 2.77733 56 89 140 255 
10.7174 5.01017 2.70959 72 32 113 255 
10.5952 4.95783 2.58048 69 53 129 255 
10.6738 4.99217 2.47674 62 74 137 255 
23.7332 11.0852 5.24842 72 27 109 255 
23.7562 11.0854 5.00083 72 20 103 255 
27.3939 12.8185 5.51821 72 22 104 255 
24.1146 11.2734 4.59322 72 29 111 255 
23.5611 10.9948 4.22974 72 35 116 255 
23.2104 10.8061 3.92689 72 24 106 255 
23.6054 11.0407 3.78314 72 28 110 255 
22.9347 10.7169 3.42723 72 35 116 255 
23.948 11.1601 3.32367 72 22 104 255 
24.0247 11.175 3.08919 70 11 94 255 
25.496 11.925 3.05277 71 13 96 255 
24.5765 11.4684 2.68309 72 20 103 255 
24.6396 11.4772 2.43067 72 26 108 255 
25.8717 12.0177 2.28518 71 14 97 255 
26.7447 12.5034 2.13178 69 5 89 255 
0 0 0 68 2 86 255 
0 0 0 68 2 86 255 
0 0 0 68 2 86 255 
0 0 0 68 1 84 255 
70.0483 32.6428 2.05066 69 5 89 255 
51.7803 24.0754 0.976809 69 4 87 255 
50.0038 23.1849 0.432899 69 5 89 255 
12.3476 5.76473 -0.00237836 64 69 136 255 
12.3169 5.73447 -0.130424 60 79 138 255 
12.3129 5.71971 -0.255943 68 58 131 255 
12.319 5.70664 -0.383971 64 69 136 255 
12.2981 5.73379 -0.492812 60 79 138 255 
12.4561 5.79401 -0.62623 71 47 125 255 
12.8228 5.95383 -0.77804 71 46 124 255 
11.6084 5.37502 -0.825007 72 38 119 255 
10.7191 4.99533 -0.858066 68 58 131 255 
9.96474 4.63091 -0.899536 57 86 140 255 
9.16827 4.25114 -0.923267 69 56 130 255 
8.44357 3.90961 -0.938583 69 53 129 255 
7.84213 3.64962 -0.942722 61 78 138 255 
7.39052 3.43302 -0.965934 55 90 140 255 
7.00242 3.2454 -0.98869 62 74 137 255 
6.58147 3.04462 -0.998501 60 80 139 255 
6.24988 2.90463 -1.00664 56 89 140 255 
5.91738 2.74622 -1.01457 59 81 139 255 
5.63297 2.60951 -1.0244 52 96 141 255 
5.34804 2.47403 -1.03054 57 86 140 255 
5.14019 2.38455 -1.03997 50 102 142 255 
4.91135 2.2762 -1.04437 61 77 138 255 
4.70677 2.18044 -1.05254 60 80 139 255 
4.52226 2.09297 -1.06192 66 65 134 255 
4.37152 2.02518 -1.06897 61 78 138 255 
4.17622 1.93373 -1.06588 65 68 135 255 
4.01534 1.85843 -1.06959 65 68 135 255 
3.87905 1.79693 -1.07858 64 69 136 255 
3.76403 1.73977 -1.08399 63 71 136 255 
3.64355 1.684 -1.08904 68 59 132 255 
3.50644 1.62215 -1.08889 67 61 132 255 
3.41546 1.58362 -1.10303 68 57 131 255 
15.7794 7.25269 5.21677 70 11 94 255 
15.8848 7.31766 5.05795 72 37 118 255 
15.7942 7.28278 4.84624 70 52 128 255 
10.2264 4.71519 3.02373 50 102 142 255 
10.2619 4.72319 2.93204 58 84 140 255 
10.2581 4.72341 2.81155 54 92 141 255 
10.6769 4.91415 2.8066 72 37 118 255 
10.9003 5.01439 2.74799 72 31 112 255 
24.114 11.1039 5.85633 71 17 100 255 
10.7398 4.94295 2.48496 62 74 137 255 
23.4239 10.7662 5.16531 72 38 119 255 
23.7613 10.9107 4.98772 72 22 104 255 
25.6411 11.8071 5.15044 70 11 94 255 
24.3946 11.2224 4.63335 72 20 103 255 
22.8531 10.4942 4.09101 72 23 105 255 
23.234 10.6441 3.91977 72 31 112 255 
23.0399 10.6044 3.682 71 42 122 255 
22.7992 10.4836 3.39731 71 44 122 255 
23.4948 10.7739 3.25152 72 27 109 255 
23.6755 10.8364 3.03569 71 14 97 255 
24.0253 11.058 2.86849 71 19 101 255 
24.4673 11.2351 2.6636 72 28 110 255 
24.6462 11.2967 2.42443 72 23 105 255 
25.3185 11.5723 2.23 70 7 90 255 
36.5644 16.8215 2.90621 70 7 90 255 
27.3134 12.5363 1.8855 71 14 97 255 
28.0822 12.8539 1.6456 71 13 96 255 
0 0 0 68 2 86 255 
0 0 0 68 1 84 255 
0 0 0 69 4 87 255 
51.8171 23.7069 0.974739 69 5 89 255 
50.1915 22.8988 0.4333 69 4 87 255 
12.3973 5.69554 -0.00238115 70 48 126 255 
12.3855 5.6742 -0.130779 55 90 140 255 
12.3978 5.66691 -0.25698 51 99 141 255 
12.5475 5.71925 -0.389992 72 35 116 255 
12.967 5.94909 -0.518146 71 45 123 255 
12.4969 5.71997 -0.626503 63 72 137 255 
12.8818 5.88541 -0.779413 72 37 118 255 
11.6721 5.31775 -0.827195 72 41 121 255 
10.7532 4.93113 -0.858355 68 58 131 255 
10.0093 4.57714 -0.901005 56 88 140 255 
9.19328 4.1944 -0.923176 66 64 134 255 
8.43934 3.84494 -0.935472 70 52 128 255 
7.90505 3.62006 -0.947597 64 69 136 255 
7.44486 3.40289 -0.970289 56 89 140 255 
7.01227 3.19784 -0.987292 60 79 138 255 
6.59101 3.00007 -0.997137 61 77 138 255 
6.27388 2.86911 -1.00766 54 93 141 255 
5.93322 2.70944 -1.01441 59 81 139 255 
5.65516 2.57776 -1.02554 53 94 141 255 
5.37746 2.44769 -1.03329 57 85 140 255 
5.15472 2.35296 -1.03997 48 105 142 255 
4.93863 2.25213 -1.04721 61 77 138 255 
4.70044 2.14258 -1.04816 60 80 139 255 
4.54036 2.06762 -1.06317 66 65 134 255 
4.38297 1.99792 -1.06875 64 70 136 255 
4.20485 1.91574 -1.07017 61 78 138 255 
4.04789 1.84342 -1.07523 62 73 137 255 
3.88735 1.77189 -1.07784 65 66 135 255 
3.77904 1.71865 -1.08525 62 74 137 255 
3.65205 1.66081 -1.08852 65 66 135 255 
3.51283 1.59901 -1.0878 68 58 131 255 
3.40416 1.55308 -1.09628 69 53 129 255 
15.8681 7.17586 5.23144 70 8 92 255 
12.3841 5.61313 3.93223 71 45 123 255 
12.4946 5.66859 3.82304 62 76 138 255 
10.563 4.79201 3.11449 58 83 139 255 
10.2898 4.65973 2.93179 49 103 142 255 
10.2736 4.65437 2.80792 61 77 138 255 
10.372 4.69687 2.7188 59 81 139 255 
10.4762 4.74162 2.63368 71 42 122 255 
10.818 4.90118 2.6199 71 19 101 255 
10.7761 4.87978 2.4864 61 77 138 255 
23.5422 10.6461 5.17691 72 36 117 255 
23.7033 10.7085 4.96167 70 11 94 255 
27.3556 12.3937 5.47944 70 11 94 255 
24.5959 11.1326 4.65852 71 16 99 255 
22.8577 10.3269 4.08041 72 33 115 255 
23.2647 10.4859 3.91401 72 35 116 255 
23.0062 10.4183 3.66634 72 41 121 255 
23.1521 10.4743 3.44024 72 29 111 255 
23.3018 10.5129 3.21583 71 16 99 255 
24.2098 10.9017 3.09556 72 27 109 255 
24.4558 11.0748 2.91173 72 26 108 255 
24.5222 11.0787 2.66212 72 28 110 255 
25.4078 11.4577 2.49239 72 22 104 255 
24.7954 11.1498 2.17786 72 20 103 255 
36.0345 16.3106 2.85609 70 7 90 255 
27.5999 12.4633 1.89997 72 23 105 255 
28.3791 12.7797 1.65837 71 19 101 255 
0 0 0 69 4 87 255 
0 0 0 68 2 86 255 
0 0 0 69 4 87 255 
0 0 0 68 2 86 255 
50.831 22.8148 0.437604 70 7 90 255 
13.8298 6.2512 -0.00264889 71 16 99 255 
12.4055 5.59152 -0.130625 71 44 122 255 
12.3713 5.56326 -0.255717 72 33 115 255 
18.9251 8.48634 -0.586586 72 28 110 255 
16.3388 7.37501 -0.651057 72 40 120 255 
14.4774 6.51931 -0.72377 72 24 106 255 
12.3503 5.55123 -0.745179 70 51 127 255 
11.7454 5.2644 -0.830091 71 42 122 255 
10.7832 4.86506 -0.858355 66 63 133 255 
10.0381 4.51605 -0.901087 55 91 141 255 
9.23429 4.14484 -0.924723 69 55 129 255 
8.48456 3.80285 -0.93788 69 53 129 255 
7.92802 3.57189 -0.947706 62 74 137 255 
7.45201 3.35103 -0.968524 58 83 139 255 
7.04443 3.16044 -0.989071 57 85 140 255 
6.61472 2.962 -0.997955 58 83 139 255 
6.29859 2.83381 -1.00881 56 89 140 255 
5.95063 2.67339 -1.01457 57 86 140 255 
5.67357 2.54422 -1.02602 53 95 141 255 
5.38339 2.41063 -1.03157 56 89 140 255 
5.16906 2.32129 -1.03997 46 109 142 255 
4.95683 2.2238 -1.04816 55 91 141 255 
4.7135 2.11369 -1.04816 59 81 139 255 
4.55117 2.03892 -1.06275 66 65 134 255 
4.38001 1.9642 -1.06507 64 69 136 255 
4.21297 1.88831 -1.06927 62 74 137 255 
4.05824 1.81815 -1.075 62 73 137 255 
3.90081 1.74919 -1.07858 66 65 134 255 
3.7904 1.69582 -1.08551 63 72 137 255 
3.66922 1.64152 -1.09061 65 68 135 255 
3.53838 1.58451 -1.09269 66 64 134 255 
3.41275 1.53177 -1.096 67 61 132 255 
15.9958 7.11573 5.25906 70 50 126 255 
16.1691 7.20941 5.1199 71 46 124 255 
12.4763 5.56826 3.80694 71 47 125 255 
12.4672 5.56389 3.66581 70 51 127 255 
10.3332 4.6032 2.93606 69 53 129 255 
10.2816 4.58216 2.80236 72 35 116 255 
10.3508 4.61098 2.7058 59 82 139 255 
10.4525 4.65386 2.62051 61 78 138 255 
24.0799 10.732 5.81562 71 17 100 255 
10.8416 4.8295 2.49463 72 20 103 255 
23.6089 10.5022 5.1773 71 14 97 255 
24.5854 10.9258 5.13219 70 11 94 255 
27.4231 12.222 5.47783 70 11 94 255 
28.0774 12.5015 5.3033 71 16 99 255 
22.9206 10.1865 4.08041 72 40 120 255 
22.8957 10.151 3.84139 72 33 115 255 
23.0272 10.2581 3.65959 72 38 119 255 
23.0801 10.2716 3.42012 72 32 113 255 
25.7482 11.427 3.54371 71 16 99 255 
24.8502 11.0072 3.16874 71 19 101 255 
24.694 11.0006 2.932 72 26 108 255 
24.6006 10.9328 2.66331 71 19 101 255 
22.9056 10.1606 2.24078 72 24 106 255 
24.7165 10.9326 2.165 71 19 101 255 
27.641 12.3076 2.18479 70 11 94 255 
27.9048 12.3954 1.91568 72 22 104 255 
28.2954 12.5338 1.64895 70 7 90 255 
0 0 0 68 2 86 255 
0 0 0 68 2 86 255 
0 0 0 69 4 87 255 
0 0 0 68 2 86 255 
51.4311 22.706 0.441562 70 7 90 255 
12.3255 5.48041 -0.00235427 67 62 133 255 
12.5392 5.55948 -0.131672 71 19 101 255 
23.5257 10.4062 -0.484951 70 8 92 255 
18.75 8.27002 -0.579575 72 24 106 255 
16.6304 7.38411 -0.660857 72 37 118 255 
14.8468 6.57641 -0.740209 72 26 108 255 
12.6343 5.58597 -0.760236 71 47 125 255 
11.7812 5.19385 -0.830349 70 52 128 255 
10.8028 4.79435 -0.857559 65 68 135 255 
10.0556 4.44994 -0.900189 60 80 139 255 
9.28323 4.09856 -0.927088 68 59 132 255 
8.5132 3.75312 -0.938482 68 59 132 255 
7.95706 3.5264 -0.948573 60 79 138 255 
7.46335 3.30123 -0.967347 59 81 139 255 
7.07367 3.12156 -0.990469 57 85 140 255 
6.64365 2.92615 -0.999592 58 84 140 255 
6.29505 2.7859 -1.00549 55 91 141 255 
5.96602 2.63643 -1.01441 57 86 140 255 
5.69178 2.51056 -1.02651 54 93 141 255 
5.40619 2.38112 -1.03312 54 92 141 255 
5.17421 2.28556 -1.03817 50 102 142 255 
4.95152 2.18502 -1.04418 60 80 139 255 
4.73176 2.08711 -1.04936 60 79 138 255 
4.55912 2.00898 -1.06171 65 66 135 255 
4.40359 1.9424 -1.06789 63 71 136 255 
4.21823 1.85967 -1.06769 62 73 137 255 
4.06665 1.79204 -1.07429 62 76 138 255 
3.90526 1.72248 -1.07686 66 65 134 255 
3.76885 1.65851 -1.0764 62 73 137 255 
3.68364 1.62092 -1.09192 64 70 136 255 
3.54099 1.55966 -1.09052 66 64 134 255 
3.42736 1.51312 -1.09768 68 57 131 255 
9.12691 3.99319 2.9926 62 73 137 255 
12.4274 5.44993 3.92445 71 19 101 255 
12.4565 5.46799 3.79056 72 28 110 255 
12.5206 5.49583 3.67152 71 42 122 255 
10.7124 4.69353 3.03555 68 59 132 255 
10.5112 4.60742 2.8572 64 70 136 255 
10.3451 4.53255 2.69697 51 98 141 255 
11.0166 4.82424 2.75446 72 35 116 255 
10.7566 4.71513 2.59082 61 77 138 255 
10.872 4.76328 2.49484 62 73 137 255 
11.218 4.90799 2.45339 72 35 116 255 
27.3909 11.9719 5.70239 70 11 94 255 
24.6053 10.7857 4.90167 72 22 104 255 
23.2033 10.1611 4.37081 72 33 115 255 
22.8887 10.0045 4.06371 72 33 115 255 
22.9286 9.99772 3.83654 72 37 118 255 
23.0616 10.1043 3.65513 72 37 118 255 
23.0292 10.0801 3.40335 72 29 111 255 
25.8515 11.2835 3.54833 72 20 103 255 
25.2406 10.9954 3.20985 71 13 96 255 
24.6764 10.8117 2.92197 72 32 113 255 
23.0752 10.0858 2.49141 72 38 119 255 
25.2115 10.9989 2.45971 72 26 108 255 
24.923 10.8415 2.17722 71 16 99 255 
27.5543 12.0669 2.17204 72 24 106 255 
28.0379 12.2491 1.91963 70 10 93 255 
28.3553 12.3527 1.64799 71 17 100 255 
0 0 0 68 2 86 255 
0 0 0 68 2 86 255 
72.034 31.4401 2.08557 69 5 89 255 
0 0 0 68 2 86 255 
52.4463 22.7707 0.44907 69 5 89 255 
13.6902 5.98686 -0.00260787 70 11 94 255 
32.4789 14.1623 -0.340137 71 13 96 255 
21.187 9.21673 -0.435569 70 11 94 255 
14.2894 6.19815 -0.440512 71 19 101 255 
16.8018 7.33712 -0.665866 72 35 116 255 
14.4473 6.29369 -0.718352 72 28 110 255 
12.933 5.62341 -0.776116 72 37 118 255 
11.8092 5.11987 -0.830091 71 45 123 255 
10.8266 4.72558 -0.857125 68 57 131 255 
10.0818 4.38775 -0.900108 62 76 138 255 
9.30912 4.04192 -0.927179 66 65 134 255 
8.51507 3.69172 -0.936174 68 57 131 255 
7.9831 3.4795 -0.949114 58 84 140 255 
7.52172 3.27201 -0.972291 59 81 139 255 
7.07996 3.07257 -0.98869 60 79 138 255 
6.66966 2.88887 -1.00082 58 83 139 255 
6.31928 2.75038 -1.00664 58 84 140 255 
5.98571 2.60135 -1.01503 58 84 140 255 
5.71251 2.47794 -1.02749 56 89 140 255 
5.40353 2.34047 -1.02985 56 89 140 255 
5.19084 2.25494 -1.03871 49 103 142 255 
4.95943 2.15225 -1.04305 62 76 138 255 
4.74987 2.06037 -1.05055 60 80 139 255 
4.57136 1.98097 -1.06171 65 66 135 255 
4.40288 1.90991 -1.06485 62 73 137 255 
4.23493 1.83608 -1.06904 62 73 137 255 
4.07222 1.76474 -1.07288 62 73 137 255 
3.92909 1.70428 -1.08053 65 68 135 255 
3.7905 1.64034 -1.07969 65 68 135 255 
3.67846 1.59177 -1.08747 65 68 135 255 
3.56109 1.5425 -1.09377 64 70 136 255 
3.44714 1.49665 -1.10106 69 56 130 255 
9.14596 3.93484 2.99088 49 103 142 255 
13.8552 5.97499 4.36368 72 22 104 255 
14.4824 6.25159 4.3953 72 23 105 255 
23.7373 10.2461 6.94212 71 13 96 255 
16.1821 6.97202 4.5733 72 36 117 255 
12.5016 5.38864 3.38917 72 41 121 255 
10.3718 4.4686 2.69674 56 89 140 255 
10.8714 4.68137 2.71093 71 46 124 255 
23.7775 10.2494 5.71178 72 27 109 255 
10.8165 4.66008 2.4755 71 45 123 255 
24.8997 10.7124 5.43112 71 16 99 255 
24.6067 10.5756 5.10914 71 13 96 255 
24.6783 10.6377 4.9031 72 20 103 255 
22.8996 9.8611 4.30212 72 24 106 255 
22.9922 9.88222 4.07126 72 35 116 255 
23.2802 9.98149 3.88505 72 38 119 255 
22.996 9.90774 3.63502 72 41 121 255 
24.618 10.596 3.62847 71 17 100 255 
26.0816 11.1939 3.57042 71 17 100 255 
23.6084 10.1125 2.99434 71 16 99 255 
25.0235 10.7813 2.95518 71 13 96 255 
23.1311 9.94168 2.49082 72 20 103 255 
23.1018 9.9102 2.2479 72 24 106 255 
23.0443 9.85656 2.00777 72 28 110 255 
27.5389 11.8594 2.16506 71 14 97 255 
28.2373 12.1304 1.92814 72 20 103 255 
28.4489 12.1864 1.64906 70 11 94 255 
0 0 0 69 4 87 255 
0 0 0 68 2 86 255 
0 0 0 68 2 86 255 
0 0 0 68 2 86 255 
53.2509 22.7327 0.454757 69 5 89 255 
13.7184 5.89919 -0.0026063 70 8 92 255 
28.3505 12.1557 -0.296115 71 13 96 255 
20.9958 8.98079 -0.430498 70 8 92 255 
14.3437 6.11741 -0.441021 72 27 109 255 
14.3727 6.17164 -0.568087 72 33 115 255 
15.29 6.54949 -0.758242 72 32 113 255 
12.9691 5.54473 -0.776226 70 50 126 255 
11.8073 5.03323 -0.827774 72 38 119 255 
10.8865 4.67244 -0.859585 68 59 132 255 
10.1021 4.32307 -0.899536 60 79 138 255 
9.31818 3.97807 -0.925633 67 61 132 255 
8.54763 3.64369 -0.937278 66 64 134 255 
8.02349 3.43867 -0.951389 60 79 138 255 
7.54074 3.2254 -0.972173 63 72 137 255 
7.09594 3.0279 -0.988309 58 84 140 255 
6.68544 2.84712 -1.00055 56 89 140 255 
6.36515 2.72401 -1.01127 55 90 140 255 
6.00338 2.56535 -1.01534 57 85 140 255 
5.72852 2.44323 -1.02765 53 95 141 255 
5.42957 2.31228 -1.03209 55 91 141 255 
5.20096 2.2215 -1.03799 50 100 142 255 
4.97796 2.12409 -1.04418 54 93 141 255 
4.76423 2.03196 -1.05095 59 82 139 255 
4.56814 1.94637 -1.05817 63 71 136 255 
4.42081 1.88554 -1.06637 63 72 137 255 
4.2497 1.81159 -1.06994 63 72 137 255 
4.09281 1.74391 -1.07547 63 71 136 255 
3.95018 1.6847 -1.08347 66 65 134 255 
3.82898 1.62918 -1.08778 62 76 138 255 
3.67484 1.5635 -1.08354 67 61 132 255 
3.59529 1.53118 -1.10137 66 64 134 255 
3.45537 1.4751 -1.10078 68 59 132 255 
9.30047 3.93386 3.03345 49 103 142 255 
13.9155 5.89999 4.37118 64 69 136 255 
14.5045 6.15584 4.39047 72 37 118 255 
25.1653 10.6798 7.34045 72 26 108 255 
16.1925 6.85901 4.56425 69 55 129 255 
10.4893 4.44514 2.83619 62 74 137 255 
10.3963 4.40374 2.69604 52 97 141 255 
10.8964 4.61306 2.71003 72 36 117 255 
10.9908 4.65784 2.63326 57 86 140 255 
11.1819 4.73638 2.55243 60 80 139 255 
11.2123 4.74245 2.43924 71 14 97 255 
24.6756 10.4263 5.11008 70 11 94 255 
25.2467 10.6995 5.0029 70 10 93 255 
25.1503 10.6478 4.71259 72 20 103 255 
23.6261 9.98337 4.17258 72 29 111 255 
23.6899 9.9855 3.94312 72 29 111 255 
23.3734 9.90078 3.68502 72 31 112 255 
23.895 10.1115 3.51269 71 14 97 255 
25.3463 10.6946 3.46071 71 13 96 255 
23.1061 9.72996 2.92301 72 31 112 255 
23.1301 9.79772 2.72444 72 31 112 255 
23.1578 9.78523 2.48718 72 38 119 255 
23.1796 9.77562 2.24959 72 24 106 255 
26.993 11.3501 2.3457 70 11 94 255 
25.0413 10.6021 1.96354 72 22 104 255 
28.4068 11.9973 1.93466 72 22 104 255 
0 0 0 68 1 84 255 
46.2885 19.4446 2.20086 69 5 89 255 
0 0 0 68 1 84 255 
0 0 0 69 4 87 255 
72.8262 30.6534 1.35161 69 4 87 255 
0 0 0 68 2 86 255 
28.5016 12.0496 -0.00540075 72 22 104 255 
14.4786 6.10298 -0.150832 71 16 99 255 
14.4239 6.06526 -0.294978 71 16 99 255 
19.3176 8.09896 -0.59241 72 31 112 255 
17.0535 7.19918 -0.67229 72 33 115 255 
14.644 6.16671 -0.724317 72 37 118 255 
12.9992 5.46351 -0.776006 72 36 117 255 
11.8693 4.9738 -0.829963 72 41 121 255 
10.9168 4.60633 -0.85973 66 64 134 255 
10.1137 4.25482 -0.898231 60 79 138 255 
9.35527 3.92622 -0.926906 69 56 130 255 
8.58359 3.59694 -0.938783 66 63 133 255 
8.02795 3.38243 -0.949439 62 76 138 255 
7.55123 3.17523 -0.970996 61 78 138 255 
7.11164 2.98315 -0.987927 57 86 140 255 
6.69181 2.80145 -0.99891 59 82 139 255 
6.35256 2.67262 -1.00664 57 86 140 255 
6.02356 2.53038 -1.0161 55 91 141 255 
5.74158 2.40727 -1.02733 53 94 141 255 
5.4382 2.27664 -1.03105 56 89 140 255 
5.19908 2.18307 -1.03492 51 99 141 255 
5.01263 2.10262 -1.04873 50 100 142 255 
4.80011 2.01254 -1.05612 59 81 139 255 
4.56917 1.91377 -1.05567 63 72 137 255 
4.42599 1.85574 -1.06485 61 78 138 255 
4.26882 1.78887 -1.07197 62 74 137 255 
4.12316 1.72702 -1.08064 63 71 136 255 
3.93898 1.65143 -1.0776 66 64 134 255 
3.82373 1.59931 -1.08348 63 71 136 255 
3.70662 1.55024 -1.09009 66 63 133 255 
3.58331 1.50017 -1.09486 66 63 133 255 
3.46701 1.45498 -1.10162 67 62 133 255 
11.1223 4.6242 3.61834 72 41 121 255 
9.41683 3.92462 2.95042 65 66 135 255 
14.5705 6.07859 4.39906 64 70 136 255 
14.6403 6.10739 4.25941 71 17 100 255 
14.7036 6.12219 4.1339 72 29 111 255 
10.3318 4.30383 2.78642 72 41 121 255 
10.2885 4.28379 2.6612 72 28 110 255 
10.7481 4.47271 2.66628 62 74 137 255 
11.0038 4.58393 2.6296 59 82 139 255 
11.0653 4.60712 2.51931 58 84 140 255 
23.5408 9.78716 5.10815 72 29 111 255 
24.0678 9.99593 4.97141 70 10 93 255 
27.3742 11.4035 5.41052 70 11 94 255 
25.065 10.4309 4.68453 72 23 105 255 
25.1281 10.4368 4.42644 72 23 105 255 
24.0511 9.96443 3.993 72 27 109 255 
23.5215 9.79369 3.69881 72 33 115 255 
25.8176 10.7388 3.78557 70 11 94 255 
23.9231 9.92162 3.25801 71 19 101 255 
23.0222 9.52874 2.90494 71 44 122 255 
23.3734 9.73204 2.746 72 35 116 255 
23.2091 9.63951 2.48629 72 22 104 255 
26.4034 10.9449 2.5559 71 16 99 255 
25.4758 10.5287 2.2082 71 13 96 255 
25.1565 10.4693 1.96751 72 29 111 255 
25.2445 10.4797 1.71487 71 19 101 255 
46.1805 19.1147 2.66308 69 5 89 255 
46.3414 19.1331 2.19775 70 7 90 255 
0 0 0 68 2 86 255 
0 0 0 69 4 87 255 
46.1659 19.0992 0.854622 70 7 90 255 
46.1924 19.0528 0.392452 70 8 92 255 
14.5784 6.05811 -0.00275535 72 41 121 255 
13.7619 5.70171 -0.142999 72 37 118 255 
13.717 5.66922 -0.279805 70 51 127 255 
13.6506 5.62485 -0.417556 72 32 113 255 
13.6443 5.66158 -0.536511 72 40 120 255 
13.682 5.66299 -0.675 71 46 124 255 
12.9789 5.36153 -0.772819 71 46 124 255 
11.9014 4.90164 -0.830091 70 50 126 255 
10.9237 4.53047 -0.858066 67 62 133 255 
10.1176 4.18354 -0.896273 61 78 138 255 
9.40312 3.87862 -0.929272 67 61 132 255 
8.59998 3.54193 -0.938181 65 68 135 255 
8.03661 3.32816 -0.948031 60 79 138 255 
7.58159 3.13338 -0.972408 58 83 139 255 
7.12981 2.93946 -0.987927 59 82 139 255 
6.71163 2.76147 -0.999319 58 84 140 255 
6.35878 2.62944 -1.00505 58 83 139 255 
6.04536 2.49601 -1.01718 57 86 140 255 
5.76628 2.37613 -1.02912 54 93 141 255 
5.44114 2.23873 -1.02899 57 86 140 255 
5.23056 2.15864 -1.03853 50 101 142 255 
5.03361 2.07519 -1.05043 48 106 142 255 
4.80693 1.98081 -1.05492 60 79 138 255 
4.62424 1.90357 -1.06567 62 74 137 255 
4.42736 1.82445 -1.06247 63 72 137 255 
4.28242 1.76375 -1.07265 62 76 138 255 
4.12109 1.69651 -1.07735 66 64 134 255 
3.95801 1.63093 -1.08004 64 70 136 255 
3.8299 1.57434 -1.08247 61 77 138 255 
3.73213 1.53407 -1.0948 64 70 136 255 
3.58888 1.47669 -1.09377 63 71 136 255 
3.47676 1.43404 -1.1019 67 61 132 255 
11.146 4.55405 3.6169 69 55 129 255 
9.50385 3.89262 2.97015 68 58 131 255 
14.5567 5.96825 4.38376 67 62 133 255 
14.7025 6.0277 4.26667 71 14 97 255 
14.7337 6.02892 4.13189 72 20 103 255 
14.4522 5.91642 3.8878 65 66 135 255 
24.8952 10.1868 6.42307 71 17 100 255 
10.7473 4.39524 2.65936 72 20 103 255 
10.8202 4.42975 2.57919 71 17 100 255 
11.2156 4.58916 2.54708 58 84 140 255 
11.0446 4.51253 2.39052 55 90 140 255 
23.855 9.73633 4.91501 72 26 108 255 
24.1234 9.87599 4.75592 72 32 113 255 
23.7266 9.70352 4.42319 72 27 109 255 
24.6543 10.0631 4.33203 72 23 105 255 
24.1155 9.81815 3.9936 72 32 113 255 
23.9017 9.78036 3.74909 72 31 112 255 
25.6463 10.4834 3.75096 72 20 103 255 
24.2307 9.87537 3.29159 72 24 106 255 
23.1888 9.43146 2.91861 72 35 116 255 
23.267 9.52067 2.72659 71 17 100 255 
23.2522 9.49053 2.48462 72 26 108 255 
27.1019 11.04 2.61691 71 19 101 255 
25.3312 10.2874 2.19015 72 23 105 255 
25.2027 10.3076 1.96614 72 33 115 255 
26.3082 10.7325 1.78262 72 24 106 255 
0 0 0 68 2 86 255 
46.5348 18.8796 2.20138 69 5 89 255 
46.4629 18.9839 1.80535 70 10 93 255 
46.3935 18.9075 1.32937 69 4 87 255 
0 0 0 69 4 87 255 
0 0 0 68 2 86 255 
14.6051 5.96439 -0.00275343 72 38 119 255 
14.5376 5.91882 -0.150678 71 47 125 255 
14.4129 5.85356 -0.293263 72 24 106 255 
14.1324 5.72218 -0.431211 72 20 103 255 
14.1414 5.76642 -0.554658 72 22 104 255 
14.937 6.07537 -0.735064 72 29 111 255 
13.0486 5.29681 -0.775017 68 58 131 255 
11.9507 4.83638 -0.831443 72 41 121 255 
10.9624 4.46787 -0.858934 66 64 134 255 
10.1717 4.13301 -0.898802 61 77 138 255 
9.43043 3.82234 -0.929636 67 61 132 255 
8.61325 3.48574 -0.937278 67 62 133 255 
8.07253 3.28516 -0.949873 59 82 139 255 
7.58687 3.0812 -0.970643 60 80 139 255 
7.15874 2.90013 -0.989452 58 83 139 255 
6.73028 2.72098 -0.999592 60 79 138 255 
6.38488 2.59447 -1.00664 59 82 139 255 
6.045 2.45256 -1.01457 58 83 139 255 
5.78349 2.34182 -1.02961 51 99 141 255 
5.46847 2.21084 -1.03157 54 93 141 255 
5.23095 2.12133 -1.036 51 99 141 255 
5.04897 2.04537 -1.051 49 103 142 255 
4.82172 1.95238 -1.05552 60 79 138 255 
4.63583 1.87516 -1.06567 62 74 137 255 
4.46834 1.80934 -1.06962 57 86 140 255 
4.26968 1.72794 -1.06678 62 74 137 255 
4.11701 1.66536 -1.07359 66 64 134 255 
3.94996 1.59933 -1.07515 65 68 135 255 
3.84218 1.5519 -1.08323 65 68 135 255 
3.72805 1.50572 -1.09088 64 69 136 255 
3.59252 1.45247 -1.09214 66 64 134 255 
3.49617 1.41701 -1.10528 66 63 133 255 
14.4036 5.78216 4.66238 72 32 113 255 
11.2154 4.51349 3.49634 64 69 136 255 
11.2307 4.5243 3.37371 65 66 135 255 
14.715 5.92763 4.25967 72 26 108 255 
25.6272 10.3033 7.16895 70 11 94 255 
11.096 4.46316 2.97751 68 59 132 255 
24.9717 10.0396 6.42679 72 24 106 255 
25.6536 10.308 6.33204 71 14 97 255 
10.8608 4.36875 2.58242 62 73 137 255 
23.6948 9.52602 5.36773 72 32 113 255 
11.123 4.46514 2.40152 54 92 141 255 
23.9152 9.59014 4.9152 72 23 105 255 
23.8276 9.5846 4.68592 72 29 111 255 
23.7766 9.55408 4.42149 72 35 116 255 
24.6808 9.89765 4.32592 71 13 96 255 
23.7072 9.48278 3.91628 72 28 110 255 
24.0531 9.67043 3.76346 72 33 115 255 
24.2186 9.7268 3.53335 72 20 103 255 
24.3553 9.75233 3.30033 72 20 103 255 
23.3302 9.32254 2.92915 72 37 118 255 
23.028 9.25831 2.69187 72 33 115 255 
23.3293 9.35546 2.48668 72 26 108 255 
27.4077 10.969 2.63989 71 13 96 255 
25.6271 10.2248 2.21028 72 28 110 255 
25.2387 10.142 1.96405 72 31 112 255 
26.3883 10.5768 1.78363 72 20 103 255 
0 0 0 68 2 86 255 
46.3704 18.4824 2.1882 70 7 90 255 
0 0 0 69 4 87 255 
0 0 0 68 2 86 255 
0 0 0 68 2 86 255 
74.8975 29.8225 0.633174 69 4 87 255 
14.5607 5.84226 -0.00273825 72 31 112 255 
14.5374 5.81502 -0.150304 71 46 124 255 
14.4123 5.75057 -0.292528 72 38 119 255 
19.2442 7.65482 -0.585738 72 23 105 255 
14.2313 5.70147 -0.5568 72 31 112 255 
15.128 6.04513 -0.742623 70 48 126 255 
13.2617 5.28877 -0.785733 72 37 118 255 
11.9996 4.7707 -0.832794 72 35 116 255 
10.9609 4.38903 -0.856691 68 59 132 255 
10.2052 4.07385 -0.899536 62 76 138 255 
9.45278 3.76404 -0.929545 64 69 136 255 
8.65389 3.44054 -0.939386 66 64 134 255 
8.09161 3.2352 -0.949764 59 81 139 255 
7.5835 3.02576 -0.967818 58 83 139 255 
7.19484 2.86348 -0.991993 55 91 141 255 
6.75053 2.6811 -1.00014 60 80 139 255 
6.40251 2.55598 -1.00693 55 91 141 255 
6.05902 2.41505 -1.01441 62 74 137 255 
5.79684 2.30592 -1.02944 52 96 141 255 
5.49658 2.18307 -1.03433 55 91 141 255 
5.24752 2.09065 -1.03672 52 97 141 255 
5.04775 2.00891 -1.04816 51 98 141 255 
4.8327 1.9224 -1.05532 59 81 139 255 
4.63634 1.84234 -1.06317 64 70 136 255 
4.46847 1.77756 -1.06702 57 85 140 255 
4.29378 1.70711 -1.07017 60 80 139 255 
4.13076 1.6415 -1.07453 64 70 136 255 
3.98223 1.58402 -1.08127 62 74 137 255 
3.83904 1.5233 -1.07969 65 66 135 255 
3.72466 1.47783 -1.08721 67 62 133 255 
3.62731 1.44071 -1.10001 64 69 136 255 
3.46914 1.38133 -1.09403 67 61 132 255 
14.6482 5.77623 4.72999 72 35 116 255 
12.1676 4.81012 3.78388 72 33 115 255 
11.1767 4.42305 3.34929 72 40 120 255 
11.2353 4.44597 3.24441 64 69 136 255 
14.3709 5.67558 4.0103 72 35 116 255 
14.5327 5.74219 3.89021 70 51 127 255 
24.6646 9.74081 6.33226 72 20 103 255 
24.5966 9.70847 6.05633 72 26 108 255 
10.9165 4.31351 2.58931 66 63 133 255 
10.9343 4.31819 2.47098 70 48 126 255 
23.6732 9.33493 5.09872 72 38 119 255 
23.98 9.44574 4.91651 71 19 101 255 
24.0223 9.49208 4.71266 72 26 108 255 
25.3435 10.0035 4.70137 71 17 100 255 
23.662 9.32097 4.13725 72 28 110 255 
23.649 9.29159 3.89718 72 31 112 255 
23.8616 9.42379 3.72438 72 36 117 255 
24.2106 9.55147 3.52356 72 28 110 255 
24.0462 9.4578 3.25052 72 20 103 255 
23.6384 9.27792 2.96064 72 32 113 255 
23.6549 9.34216 2.7584 71 14 97 255 
26.0501 10.2614 2.76993 71 14 97 255 
23.6081 9.28071 2.26839 72 27 109 255 
25.6912 10.0681 2.21043 72 28 110 255 
24.8458 9.8075 1.92876 72 28 110 255 
0 0 0 68 2 86 255 
46.3925 18.2096 2.65553 69 4 87 255 
57.452 22.4918 2.70457 69 4 87 255 
0 0 0 68 2 86 255 
0 0 0 68 2 86 255 
0 0 0 68 2 86 255 
0 0 0 69 4 87 255 
14.612 5.75904 -0.00274121 71 42 122 255 
14.4509 5.67781 -0.149046 72 29 111 255 
25.5082 9.99683 -0.516485 70 11 94 255 
19.2805 7.53259 -0.585427 72 31 112 255 
17.451 6.86742 -0.68111 72 38 119 255 
14.8709 5.83686 -0.728233 72 33 115 255 
13.2707 5.1982 -0.784359 72 36 117 255 
12.0658 4.7115 -0.835369 72 40 120 255 
10.9876 4.32169 -0.856691 69 55 129 255 
10.2263 4.0097 -0.89921 60 79 138 255 
9.48219 3.70851 -0.930182 64 70 136 255 
8.69152 3.39389 -0.941192 68 58 131 255 
8.09096 3.17749 -0.947381 62 76 138 255 
7.64815 2.99729 -0.973703 57 86 140 255 
7.20396 2.81603 -0.99085 58 83 139 255 
6.77516 2.64287 -1.00137 61 78 138 255 
6.41439 2.5152 -1.00635 55 90 140 255 
6.0866 2.38287 -1.01656 60 80 139 255 
5.82098 2.27426 -1.03123 53 95 141 255 
5.51079 2.14966 -1.0345 59 82 139 255 
5.27124 2.06271 -1.03889 51 98 141 255 
5.05266 1.97504 -1.04665 51 99 141 255 
4.83618 1.8895 -1.05353 61 78 138 255 
4.64209 1.81173 -1.06192 65 68 135 255 
4.4802 1.75047 -1.06724 62 76 138 255 
4.33775 1.69384 -1.07852 57 85 140 255 
4.148 1.61895 -1.07641 64 69 136 255 
3.99729 1.56168 -1.08273 64 69 136 255 
3.87986 1.51201 -1.08854 65 68 135 255 
3.75344 1.46266 -1.09297 68 59 132 255 
3.63967 1.41982 -1.10109 62 73 137 255 
3.48291 1.36212 -1.09572 66 65 134 255 
9.65969 3.7408 3.11171 58 84 140 255 
14.4643 5.61569 4.48731 72 35 116 255 
9.64047 3.74684 2.88198 57 85 140 255 
11.2939 4.38919 3.25349 72 35 116 255 
11.2767 4.37379 3.1393 62 74 137 255 
11.2883 4.38037 3.01447 70 50 126 255 
14.6427 5.67922 3.75026 72 26 108 255 
24.5767 9.52671 6.03691 72 22 104 255 
24.5802 9.5386 5.81626 72 24 106 255 
10.9661 4.25314 2.47221 72 31 112 255 
23.6861 9.1725 5.08928 72 24 106 255 
25.1304 9.72121 5.14006 71 14 97 255 
24.5203 9.51534 4.79882 71 16 99 255 
23.9058 9.26693 4.42404 72 36 117 255 
23.1425 8.95268 4.03674 72 40 120 255 
23.5516 9.08689 3.87186 72 32 113 255 
23.9457 9.28758 3.72855 72 36 117 255 
24.6901 9.56599 3.58473 72 24 106 255 
24.2806 9.37836 3.27436 72 24 106 255 
23.6893 9.13056 2.95995 72 37 118 255 
23.442 9.09223 2.72702 72 40 120 255 
23.8164 9.21316 2.52636 71 19 101 255 
23.6404 9.12635 2.26607 71 17 100 255 
