ply
format ascii 1.0
comment VTK generated PLY File
obj_info vtkPolyData points and polygons: vtk4.0
element vertex 1251
property float x
property float y
property float z
property uchar red
property uchar green
property uchar blue
property uchar alpha
element face 0
property list uchar int vertex_indices
end_header
10.7072 2.08381 2.71564 72 40 120 255 
10.6791 2.07652 2.5978 59 81 139 255 
11.1007 2.15628 2.58992 59 81 139 255 
12.0823 2.35162 2.71533 69 55 129 255 
12.077 2.34822 2.58596 65 66 135 255 
12.0236 2.33142 2.45398 59 81 139 255 
12.0405 2.33011 2.33946 69 53 129 255 
12.1043 2.35589 2.2499 72 38 119 255 
36.2884 7.04926 6.37862 70 7 90 255 
15.9456 3.08613 2.64218 72 40 120 255 
34.1447 6.57694 5.33334 71 16 99 255 
11.2103 2.17987 1.6579 65 68 135 255 
11.7661 2.28352 1.62265 71 46 124 255 
12.0343 2.3226 1.54182 71 46 124 255 
13.2002 2.53785 1.56718 72 38 119 255 
12.8691 2.50242 1.4219 69 53 129 255 
12.8643 2.48966 1.29631 72 27 109 255 
28.6753 5.52909 2.61148 70 8 92 255 
35.3587 6.77883 2.88406 70 11 94 255 
34.0462 6.61419 2.50434 72 20 103 255 
34.2158 6.61566 2.18644 71 17 100 255 
35.374 6.80151 1.91935 70 7 90 255 
35.038 6.70469 1.56379 71 13 96 255 
42.365 8.21496 1.55222 70 10 93 255 
47.8764 9.23963 1.29385 69 5 89 255 
0 0 0 68 2 86 255 
0 0 0 68 2 86 255 
0 0 -0 68 2 86 255 
66.6064 12.8302 -0.65115 69 4 87 255 
0 0 -0 68 2 86 255 
31.385 5.983 -0.903612 69 5 89 255 
20.56 3.97192 -0.760523 72 26 108 255 
16.6769 3.20639 -0.774135 72 41 121 255 
13.7744 2.63849 -0.77183 72 35 116 255 
13.2243 2.51859 -0.868191 70 51 127 255 
11.9397 2.30442 -0.882309 71 45 123 255 
10.853 2.08273 -0.904677 68 59 132 255 
10.0859 1.92649 -0.938097 65 68 135 255 
9.33303 1.77749 -0.958354 69 53 129 255 
8.70182 1.67478 -0.9658 65 68 135 255 
8.18069 1.56842 -0.987357 61 77 138 255 
7.68343 1.46621 -1.00203 63 72 137 255 
7.22231 1.37289 -1.01228 62 74 137 255 
6.81985 1.30887 -1.0143 62 73 137 255 
6.47622 1.23929 -1.02548 55 90 140 255 
6.14571 1.17166 -1.03237 57 86 140 255 
5.87697 1.11715 -1.04621 58 84 140 255 
5.65249 1.08075 -1.05622 54 93 141 255 
5.38861 1.02824 -1.05839 53 94 141 255 
5.14847 0.981536 -1.06348 57 86 140 255 
4.9856 0.948614 -1.08151 59 82 139 255 
4.77862 0.911075 -1.07937 62 76 138 255 
4.61183 0.878353 -1.08732 59 82 139 255 
4.40958 0.839076 -1.0851 61 77 138 255 
4.2499 0.810167 -1.09154 62 73 137 255 
4.11769 0.781347 -1.09562 57 85 140 255 
3.98904 0.756854 -1.10161 60 79 138 255 
3.86075 0.733944 -1.10761 64 69 136 255 
3.71863 0.710235 -1.10921 66 63 133 255 
12.3048 2.30777 3.76075 72 41 121 255 
10.5456 1.98721 3.1035 67 62 133 255 
11.6656 2.20258 3.30795 64 70 136 255 
11.6113 2.19209 3.17284 72 28 110 255 
11.7803 2.21577 3.11117 67 62 133 255 
11.9089 2.24195 3.01689 72 41 121 255 
10.7089 2.01419 2.60198 66 65 134 255 
10.8014 2.02944 2.51715 63 72 137 255 
10.9142 2.05484 2.44994 70 50 126 255 
12.9779 2.44085 2.77561 67 61 132 255 
12.9638 2.43129 2.64277 71 46 124 255 
16.0837 3.0103 3.1214 72 24 106 255 
16.238 3.05715 3.0147 72 31 112 255 
11.5599 2.17206 2.02957 72 23 105 255 
15.6994 2.93866 2.59835 70 50 126 255 
12.1719 2.26717 1.89901 71 46 124 255 
12.2058 2.2958 1.803 61 77 138 255 
12.264 2.30214 1.68933 66 63 133 255 
13.6918 2.55545 1.75214 67 61 132 255 
12.8376 2.38655 1.52236 72 23 105 255 
12.8871 2.42396 1.42222 69 53 129 255 
36.5938 6.8494 3.68316 70 7 90 255 
13.291 2.47825 1.20901 70 48 126 255 
0 0 0 69 4 87 255 
34.6223 6.50592 2.54374 71 13 96 255 
34.4088 6.43421 2.19621 71 17 100 255 
35.096 6.52501 1.90206 72 20 103 255 
35.5294 6.57299 1.58389 70 10 93 255 
47.3925 8.88847 1.7344 69 5 89 255 
0 0 0 68 2 86 255 
0 0 0 68 1 84 255 
0 0 0 68 2 86 255 
0 0 -0 68 2 86 255 
0 0 -0 68 2 86 255 
53.1223 9.84769 -1.01851 69 4 87 255 
32.5802 6.00389 -0.936943 71 13 96 255 
20.8836 3.90166 -0.771593 72 23 105 255 
16.9418 3.14965 -0.785519 71 42 122 255 
14.3381 2.65538 -0.802492 72 29 111 255 
13.2523 2.43975 -0.869028 72 38 119 255 
11.9654 2.23332 -0.883177 71 45 123 255 
10.896 2.02173 -0.907206 70 51 127 255 
10.0711 1.85968 -0.93564 68 59 132 255 
9.37997 1.72686 -0.962067 70 50 126 255 
8.71096 1.62117 -0.965691 64 70 136 255 
8.19504 1.5191 -0.987946 60 79 138 255 
7.69229 1.41904 -1.00203 68 58 131 255 
7.22377 1.3273 -1.01132 61 77 138 255 
6.83651 1.26863 -1.0156 59 82 139 255 
6.47982 1.19882 -1.02486 54 92 141 255 
6.14114 1.13178 -1.03042 59 81 139 255 
5.90309 1.08463 -1.04966 57 85 140 255 
5.6387 1.04229 -1.05243 54 92 141 255 
5.39482 0.995161 -1.05839 50 102 142 255 
5.1756 0.953835 -1.06785 54 93 141 255 
4.99036 0.917829 -1.0813 58 84 140 255 
4.78316 0.88156 -1.07915 63 72 137 255 
4.62001 0.850568 -1.08799 60 79 138 255 
4.42612 0.814114 -1.08792 60 80 139 255 
4.25955 0.784953 -1.09276 64 70 136 255 
4.1186 0.755368 -1.09461 60 79 138 255 
4.00026 0.733582 -1.10345 62 76 138 255 
3.86803 0.710763 -1.10842 66 65 134 255 
3.71349 0.685662 -1.1064 68 58 131 255 
11.4706 2.07854 3.50182 72 35 116 255 
10.6247 1.93468 3.12323 66 65 134 255 
11.6297 2.12197 3.29399 65 68 135 255 
11.6949 2.13363 3.19203 72 33 115 255 
16.7762 3.04901 4.42558 72 23 105 255 
10.4722 1.90502 2.64993 62 73 137 255 
10.6866 1.94219 2.59362 69 56 130 255 
12.9697 2.35454 3.01901 68 58 131 255 
10.9113 1.98504 2.44649 70 52 128 255 
11.0304 2.00457 2.35641 62 76 138 255 
11.1 2.01133 2.26027 61 78 138 255 
11.2494 2.03414 2.18074 65 68 135 255 
11.3938 2.07283 2.11295 62 73 137 255 
11.5837 2.10303 2.03144 66 63 133 255 
11.8689 2.14637 1.96217 66 63 133 255 
12.1155 2.17984 1.8881 63 72 137 255 
12.2226 2.2214 1.80343 72 40 120 255 
13.7122 2.48699 1.88668 72 28 110 255 
34.5395 6.22743 4.41504 71 16 99 255 
35.193 6.31932 4.16871 71 13 96 255 
12.9595 2.35533 1.42858 70 50 126 255 
13.2533 2.3966 1.33244 66 63 133 255 
13.35 2.40459 1.21302 62 73 137 255 
13.1698 2.35768 1.07176 68 58 131 255 
36.3623 6.60214 2.66855 69 5 89 255 
35.9149 6.48804 2.28975 71 13 96 255 
35.4813 6.37167 1.92079 70 10 93 255 
0 0 0 69 4 87 255 
46.9515 8.50788 1.71632 70 11 94 255 
48.0029 8.65444 1.2943 69 4 87 255 
0 0 0 68 2 86 255 
0 0 0 68 2 86 255 
131.883 23.8741 -0.0233919 69 4 87 255 
0 0 -0 68 2 86 255 
0 0 -0 68 2 86 255 
32.6971 5.81823 -0.939261 70 7 90 255 
20.5994 3.71789 -0.760232 72 20 103 255 
17.01 3.05447 -0.787796 72 37 118 255 
15.1434 2.70852 -0.846617 70 50 126 255 
13.2788 2.36049 -0.8698 72 35 116 255 
11.9867 2.16127 -0.883756 71 47 125 255 
10.9121 1.95554 -0.907532 68 57 131 255 
10.0803 1.7975 -0.935458 66 63 133 255 
9.41782 1.67414 -0.964878 68 59 132 255 
8.74716 1.57244 -0.968617 64 69 136 255 
8.22865 1.47317 -0.990889 64 70 136 255 
7.69206 1.37024 -1.00089 65 66 135 255 
7.22398 1.28156 -1.01023 63 71 136 255 
6.84709 1.22718 -1.01604 58 84 140 255 
6.5104 1.1632 -1.02855 54 92 141 255 
6.16739 1.09753 -1.03368 58 84 140 255 
5.92127 1.05046 -1.05173 56 88 140 255 
5.65758 1.00992 -1.05477 53 94 141 255 
5.40469 0.962729 -1.05915 50 100 142 255 
5.19679 0.924808 -1.07103 54 92 141 255 
4.9959 0.887191 -1.0813 58 84 140 255 
4.81058 0.856129 -1.08413 66 65 134 255 
4.61651 0.82067 -1.08596 62 73 137 255 
4.43199 0.78711 -1.08816 60 80 139 255 
4.27193 0.760161 -1.09472 62 73 137 255 
4.1203 0.729577 -1.09385 61 77 138 255 
3.98568 0.705658 -1.09821 62 73 137 255 
3.86663 0.686007 -1.10679 67 61 132 255 
3.72801 0.664716 -1.10949 69 53 129 255 
12.6379 2.21005 3.85396 72 31 112 255 
11.2173 1.97156 3.29381 71 44 122 255 
15.0435 2.6496 4.25626 72 33 115 255 
13.0603 2.30002 3.56079 70 7 90 255 
13.0021 2.28075 3.4262 72 41 121 255 
10.4254 1.8305 2.63519 62 74 137 255 
12.9497 2.27149 3.13942 67 61 132 255 
12.9676 2.27205 3.01522 72 24 106 255 
16.015 2.81214 3.58691 72 41 121 255 
12.362 2.1683 2.638 72 37 118 255 
12.1379 2.12255 2.46891 64 69 136 255 
17.1151 2.98645 3.31421 72 29 111 255 
13.7434 2.41325 2.54587 72 28 110 255 
11.5468 2.02324 2.02277 68 58 131 255 
11.9178 2.07978 1.96811 66 64 134 255 
13.8524 2.4047 2.15644 72 41 121 255 
13.8326 2.42643 2.03875 71 19 101 255 
35.4029 6.19693 4.86582 71 16 99 255 
35.2877 6.13901 4.50578 71 16 99 255 
12.9902 2.25036 1.53707 72 35 116 255 
13.0079 2.28178 1.43236 69 53 129 255 
13.0276 2.27332 1.30832 72 40 120 255 
36.1556 6.28351 3.28163 71 14 97 255 
13.1801 2.27615 1.07144 65 68 135 255 
36.0504 6.31727 2.64276 71 13 96 255 
35.6345 6.21184 2.2694 72 23 105 255 
35.5581 6.16049 1.92286 72 20 103 255 
34.9054 6.01552 1.55266 71 13 96 255 
47.4636 8.3002 1.73314 70 8 92 255 
46.9915 8.1747 1.26566 70 7 90 255 
67.6719 11.7121 1.1748 70 8 92 255 
0 0 0 68 2 86 255 
131.01 22.8869 -0.0232118 69 4 87 255 
0 0 -0 68 2 86 255 
54.6412 9.4372 -1.04533 69 4 87 255 
41.9615 7.20143 -1.2041 69 5 89 255 
20.8039 3.62315 -0.766947 72 20 103 255 
17.0963 2.96181 -0.790938 70 48 126 255 
15.1981 2.62217 -0.84876 71 46 124 255 
13.296 2.27947 -0.869993 72 36 117 255 
11.9919 2.08631 -0.883177 67 61 132 255 
10.9494 1.89296 -0.909654 69 53 129 255 
10.0804 1.73376 -0.934458 62 74 137 255 
9.45243 1.62053 -0.967387 68 59 132 255 
8.77917 1.52265 -0.971109 63 72 137 255 
8.23655 1.42248 -0.990771 64 69 136 255 
7.70521 1.32386 -1.00152 64 69 136 255 
7.22096 1.23538 -1.00873 62 73 137 255 
6.85449 1.18514 -1.01604 57 86 140 255 
6.52423 1.12441 -1.02963 54 93 141 255 
6.17596 1.06 -1.034 57 85 140 255 
5.93052 1.0146 -1.05224 57 85 140 255 
5.66754 0.975852 -1.0555 53 95 141 255 
5.41533 0.930379 -1.0601 52 96 141 255 
5.19657 0.891909 -1.06984 54 93 141 255 
5.008 0.857676 -1.08276 58 83 139 255 
4.81479 0.826431 -1.08392 61 77 138 255 
4.61762 0.791669 -1.08506 60 79 138 255 
4.43482 0.759573 -1.08769 63 71 136 255 
4.27842 0.734263 -1.09521 66 65 134 255 
4.12183 0.703793 -1.09309 61 78 138 255 
3.98898 0.681027 -1.09795 65 68 135 255 
3.84325 0.657562 -1.09892 66 64 134 255 
3.71973 0.639715 -1.10584 69 56 130 255 
11.5604 1.9486 3.52167 69 53 129 255 
13.0818 2.2166 3.83722 72 28 110 255 
13.0765 2.22051 3.69581 72 37 118 255 
13.0494 2.21564 3.55405 72 37 118 255 
10.0582 1.70081 2.64766 57 85 140 255 
10.3484 1.75159 2.61296 65 66 135 255 
10.3289 1.74652 2.50141 55 90 140 255 
14.8853 2.51402 3.45747 72 27 109 255 
16.5019 2.79336 3.69203 71 45 123 255 
12.8161 2.16697 2.732 71 45 123 255 
12.1391 2.04608 2.46655 72 35 116 255 
11.2629 1.89415 2.17868 72 28 110 255 
12.0353 2.03728 2.2271 72 23 105 255 
11.8 1.99305 2.06494 63 72 137 255 
11.9985 2.01808 1.97935 70 50 126 255 
35.4657 5.9327 5.51527 70 11 94 255 
38.9519 6.58662 5.73498 70 7 90 255 
35.6845 6.0208 4.89936 71 19 101 255 
35.3374 5.92451 4.5074 71 17 100 255 
35.6098 5.94404 4.20913 71 16 99 255 
13.0374 2.20457 1.43408 71 45 123 255 
13.1806 2.21678 1.3223 70 48 126 255 
12.6654 2.12115 1.14836 68 59 132 255 
13.2774 2.20914 1.07823 72 24 106 255 
41.4563 7.00266 3.03585 69 4 87 255 
36.3038 6.09923 2.3096 71 14 97 255 
35.35 5.90125 1.90961 71 19 101 255 
34.8668 5.7888 1.54934 71 16 99 255 
35.0299 5.90458 1.27777 70 7 90 255 
47.1896 7.91117 1.26966 69 5 89 255 
71.2101 11.8749 1.23493 69 5 89 255 
0 0 0 68 2 86 255 
0 0 -0 68 1 84 255 
0 0 -0 68 2 86 255 
54.633 9.09092 -1.04409 69 5 89 255 
42.0049 6.94383 -1.2041 70 7 90 255 
21.013 3.52686 -0.773843 72 27 109 255 
17.2472 2.87905 -0.797086 71 47 125 255 
15.3036 2.54376 -0.853761 71 44 122 255 
13.3206 2.19964 -0.870701 72 32 113 255 
12.0251 2.01616 -0.884697 72 38 119 255 
10.9687 1.82705 -0.910306 70 48 126 255 
10.0958 1.67269 -0.934913 66 65 134 255 
9.49655 1.56817 -0.970899 62 73 137 255 
8.806 1.4717 -0.973059 63 71 136 255 
8.23925 1.37094 -0.990065 62 74 137 255 
7.7083 1.27575 -1.00089 66 64 134 255 
7.30758 1.20409 -1.01978 61 78 138 255 
6.86553 1.14371 -1.01662 56 89 140 255 
6.54563 1.08678 -1.03193 54 93 141 255 
6.2096 1.0266 -1.03856 55 90 140 255 
5.93663 0.978195 -1.05224 56 88 140 255 
5.68022 0.942185 -1.05676 52 97 141 255 
5.41609 0.896333 -1.05915 54 93 141 255 
5.21065 0.861445 -1.07163 53 94 141 255 
5.01413 0.82709 -1.08297 63 72 137 255 
4.82073 0.797031 -1.08413 60 80 139 255 
4.64065 0.766337 -1.08935 58 84 140 255 
4.45378 0.73472 -1.09121 59 81 139 255 
4.27519 0.706732 -1.09325 64 69 136 255 
4.14612 0.681785 -1.0984 61 77 138 255 
4.00166 0.657947 -1.1003 64 69 136 255 
3.85481 0.63522 -1.10109 68 57 131 255 
3.72642 0.617349 -1.10668 70 52 128 255 
11.4956 1.86521 3.49837 63 72 137 255 
13.0781 2.1335 3.83222 70 52 128 255 
13.0909 2.14039 3.69608 70 51 127 255 
9.84686 1.60979 2.67908 70 50 126 255 
10.1353 1.64994 2.66524 47 107 142 255 
10.1569 1.65513 2.56199 56 88 140 255 
10.3308 1.6817 2.49932 61 78 138 255 
10.5901 1.72183 2.45731 65 66 135 255 
16.6777 2.71797 3.72758 70 51 127 255 
15.5887 2.53749 3.31966 72 33 115 255 
15.8728 2.57535 3.22194 72 29 111 255 
11.6583 1.88716 2.25289 72 41 121 255 
12.0116 1.95754 2.22046 63 71 136 255 
11.6301 1.89104 2.03314 66 63 133 255 
11.9415 1.93322 1.96795 61 77 138 255 
36.8735 5.93585 5.72843 70 7 90 255 
38.4505 6.2594 5.65539 70 7 90 255 
36.876 5.98935 5.0578 71 13 96 255 
35.6826 5.75751 4.54684 71 14 97 255 
12.3441 1.98272 1.45762 72 32 113 255 
13.0507 2.12453 1.43408 72 37 118 255 
13.3364 2.15892 1.33658 69 55 129 255 
12.7696 2.05813 1.15664 68 59 132 255 
13.4619 2.15505 1.09212 70 50 126 255 
36.1134 5.87248 2.6419 70 8 92 255 
36.0539 5.83 2.29138 69 5 89 255 
35.215 5.65684 1.90041 72 23 105 255 
35.3357 5.64408 1.5686 71 17 100 255 
35.0941 5.69417 1.27882 71 14 97 255 
47.3971 7.64726 1.27396 70 8 92 255 
72.4959 11.6326 1.25597 69 4 87 255 
0 0 0 68 2 86 255 
0 0 -0 68 2 86 255 
0 0 -0 68 2 86 255 
54.7795 8.77022 -1.04584 69 4 87 255 
42.0438 6.68549 -1.20402 70 7 90 255 
21.2059 3.42559 -0.780158 72 22 104 255 
17.303 2.77935 -0.798862 71 45 123 255 
15.313 2.44887 -0.853431 71 46 124 255 
13.3308 2.11739 -0.870508 72 32 113 255 
12.0451 1.94361 -0.885276 72 36 117 255 
10.9885 1.76114 -0.911041 70 51 127 255 
10.0753 1.60585 -0.932092 58 84 140 255 
9.53154 1.51393 -0.973509 63 72 137 255 
8.8286 1.41985 -0.974576 66 63 133 255 
8.25633 1.32177 -0.991124 62 73 137 255 
7.72773 1.2303 -1.00241 66 64 134 255 
7.32658 1.16109 -1.02142 59 82 139 255 
6.88415 1.10344 -1.01835 56 88 140 255 
6.54534 1.04551 -1.03086 53 94 141 255 
6.22748 0.990335 -1.04051 56 88 140 255 
5.9396 0.941288 -1.05173 60 80 139 255 
5.67715 0.905919 -1.05513 52 96 141 255 
5.42149 0.863083 -1.05915 55 91 141 255 
5.2168 0.829611 -1.07183 54 92 141 255 
5.02008 0.796462 -1.08318 64 70 136 255 
4.83903 0.769584 -1.08717 57 85 140 255 
4.64142 0.737237 -1.08845 55 91 141 255 
4.44381 0.705094 -1.08769 61 77 138 255 
4.25072 0.675919 -1.08591 64 70 136 255 
4.14449 0.655426 -1.09689 59 81 139 255 
3.98941 0.630819 -1.09585 66 63 133 255 
3.81966 0.605378 -1.08997 68 59 132 255 
3.71308 0.591754 -1.10162 71 46 124 255 
11.4614 1.78755 3.48456 71 45 123 255 
8.1873 1.28412 2.39673 52 96 141 255 
8.15249 1.28164 2.29952 62 74 137 255 
8.13922 1.27939 2.2123 68 59 132 255 
10.1453 1.58772 2.66524 57 85 140 255 
10.1132 1.58437 2.54846 53 94 141 255 
10.3687 1.62264 2.50606 55 90 140 255 
10.7507 1.6803 2.49214 55 91 141 255 
10.7985 1.69188 2.41116 67 62 133 255 
10.8606 1.69952 2.31054 68 59 132 255 
11.9598 1.86523 2.42529 71 44 122 255 
11.9929 1.86588 2.31528 68 59 132 255 
11.9981 1.87984 2.21579 71 14 97 255 
11.6727 1.82451 2.03858 65 66 135 255 
36.6552 5.70356 6.03487 70 11 94 255 
36.2685 5.61036 5.62897 71 17 100 255 
38.4588 6.01877 5.65108 70 11 94 255 
36.8621 5.75518 5.05096 70 10 93 255 
35.9349 5.57221 4.57455 71 16 99 255 
12.4316 1.91861 1.46654 70 48 126 255 
12.9898 2.03289 1.426 68 58 131 255 
13.3376 2.07522 1.33539 66 64 134 255 
13.5428 2.09759 1.22549 67 61 132 255 
13.4601 2.07014 1.09092 72 40 120 255 
13.4207 2.09792 0.980836 62 74 137 255 
36.231 5.63074 2.3004 71 16 99 255 
35.4957 5.47874 1.91371 72 20 103 255 
35.7054 5.47868 1.58349 71 13 96 255 
35.2834 5.50291 1.28446 70 10 93 255 
47.8709 7.42262 1.28544 70 8 92 255 
72.5402 11.1836 1.25553 69 4 87 255 
0 0 0 68 2 86 255 
0 0 -0 68 2 86 255 
0 0 -0 68 1 84 255 
0 0 -0 68 1 84 255 
42.6423 6.51265 -1.21999 70 8 92 255 
21.1979 3.29096 -0.779106 72 28 110 255 
17.3266 2.6742 -0.79918 72 33 115 255 
15.2576 2.3441 -0.84953 71 44 122 255 
13.3081 2.03014 -0.868191 72 37 118 255 
12.0716 1.87195 -0.886361 71 42 122 255 
11.0238 1.69747 -0.913081 70 51 127 255 
10.1411 1.55259 -0.937278 62 76 138 255 
9.54852 1.45662 -0.974312 64 69 136 255 
8.79982 1.35988 -0.970458 65 68 135 255 
8.27705 1.27304 -0.992655 62 74 137 255 
7.7469 1.18466 -1.00394 63 71 136 255 
7.31789 1.11373 -1.01923 60 80 139 255 
6.88981 1.06103 -1.01821 57 86 140 255 
6.54968 1.00503 -1.03055 55 91 141 255 
6.24514 0.953893 -1.04247 55 90 140 255 
5.94137 0.904233 -1.05104 58 83 139 255 
5.6826 0.871068 -1.05513 56 88 140 255 
5.43348 0.83084 -1.06047 54 93 141 255 
5.23148 0.799065 -1.07382 55 91 141 255 
5.06451 0.771684 -1.09172 62 76 138 255 
4.84269 0.73973 -1.08695 56 88 140 255 
4.63911 0.707715 -1.08687 60 79 138 255 
4.44228 0.676935 -1.08628 62 73 137 255 
4.26342 0.651141 -1.08812 66 65 134 255 
4.13122 0.627369 -1.09233 62 76 138 255 
3.99798 0.607053 -1.09716 66 63 133 255 
3.84519 0.58526 -1.09621 66 64 134 255 
3.7138 0.568524 -1.10078 70 50 126 255 
8.19965 1.22736 2.49057 67 62 133 255 
8.19407 1.23371 2.39646 53 95 141 255 
8.16211 1.23189 2.30005 51 99 141 255 
8.145 1.22914 2.21178 68 59 132 255 
10.1175 1.51984 2.65545 57 86 140 255 
10.2628 1.54335 2.58373 48 106 142 255 
10.3631 1.55668 2.50234 72 33 115 255 
10.6837 1.60273 2.47428 60 79 138 255 
14.341 2.15685 3.19916 70 50 126 255 
11.0344 1.65742 2.3453 51 99 141 255 
11.9371 1.78673 2.41842 68 59 132 255 
12.7939 1.91018 2.46762 70 10 93 255 
11.6398 1.75059 2.14759 72 24 106 255 
11.6837 1.75285 2.03858 56 89 140 255 
36.6485 5.47242 6.02813 72 22 104 255 
36.3658 5.39715 5.63883 71 16 99 255 
36.8402 5.53408 5.40814 70 11 94 255 
37.5788 5.6311 5.14433 70 8 92 255 
35.624 5.30036 4.53074 71 16 99 255 
12.6102 1.86703 1.48623 70 48 126 255 
13.0286 1.95713 1.42891 69 56 130 255 
12.7468 1.90325 1.27504 70 8 92 255 
12.7161 1.88971 1.1496 69 55 129 255 
12.5555 1.85221 1.01666 71 44 122 255 
13.38 2.00754 0.976947 70 10 93 255 
35.9332 5.35886 2.27936 71 14 97 255 
35.3844 5.23948 1.90594 71 16 99 255 
14.0955 2.07438 0.624543 72 35 116 255 
35.7474 5.35081 1.30013 69 5 89 255 
47.9393 7.13228 1.28608 69 5 89 255 
72.4908 10.721 1.25351 69 4 87 255 
0 0 0 68 2 86 255 
0 0 -0 68 1 84 255 
0 0 -0 68 1 84 255 
58.9325 8.69478 -1.12301 69 4 87 255 
42.7744 6.2645 -1.22265 70 7 90 255 
21.2296 3.1626 -0.779541 72 26 108 255 
16.8921 2.50111 -0.778415 72 28 110 255 
15.25 2.24723 -0.848321 70 48 126 255 
13.2946 1.94469 -0.866518 72 38 119 255 
12.0779 1.79711 -0.886 71 42 122 255 
11.0261 1.62863 -0.912428 71 47 125 255 
10.1771 1.49424 -0.939735 71 46 124 255 
9.57795 1.40103 -0.976419 65 68 135 255 
8.81291 1.30659 -0.971 66 64 134 255 
8.27684 1.22107 -0.991713 67 62 133 255 
7.7609 1.13811 -1.00483 63 71 136 255 
7.304 1.0658 -1.01637 62 76 138 255 
6.90109 1.01946 -1.01893 57 86 140 255 
6.56159 0.965685 -1.03147 57 86 140 255 
6.24795 0.915126 -1.04198 58 83 139 255 
5.94681 0.86776 -1.05104 60 80 139 255 
5.69562 0.837328 -1.05658 53 94 141 255 
5.43653 0.7972 -1.0601 53 94 141 255 
5.2392 0.767377 -1.07441 54 92 141 255 
5.00915 0.731829 -1.0788 64 70 136 255 
4.8539 0.710992 -1.08847 58 83 139 255 
4.65301 0.680647 -1.08912 60 79 138 255 
4.42039 0.645871 -1.07993 63 72 137 255 
4.27501 0.626093 -1.09007 67 61 132 255 
4.13212 0.60159 -1.09158 62 76 138 255 
4.01022 0.583761 -1.09952 66 65 134 255 
3.8468 0.561378 -1.09567 66 64 134 255 
3.72861 0.547399 -1.10415 71 42 122 255 
8.21082 1.17757 2.49172 53 94 141 255 
8.095 1.16805 2.36534 51 99 141 255 
8.12566 1.17544 2.28771 63 72 137 255 
8.15908 1.18011 2.2136 66 65 134 255 
10.255 1.47621 2.68911 50 101 142 255 
10.2654 1.47938 2.58204 60 79 138 255 
11.5143 1.65742 2.7778 69 56 130 255 
10.7628 1.54714 2.49036 55 90 140 255 
11.003 1.58584 2.45231 60 79 138 255 
11.3272 1.63039 2.40536 63 72 137 255 
12.9544 1.85779 2.62215 71 14 97 255 
37.5722 5.3742 7.24023 70 8 92 255 
11.6688 1.6818 2.151 65 66 135 255 
11.3928 1.6378 1.98604 65 66 135 255 
37.1573 5.31551 6.10633 70 8 92 255 
36.4872 5.18657 5.65262 72 20 103 255 
37.8735 5.45189 5.55482 70 7 90 255 
38.6387 5.54773 5.28466 70 11 94 255 
12.5758 1.79231 1.59799 68 59 132 255 
12.8092 1.81625 1.50835 64 69 136 255 
13.1751 1.89656 1.44368 70 52 128 255 
12.7769 1.82768 1.27691 69 56 130 255 
13.1495 1.87172 1.18772 72 35 116 255 
12.5666 1.77514 1.01666 71 42 122 255 
13.3506 1.91944 0.973922 62 74 137 255 
36.2223 5.17498 2.29564 69 5 89 255 
14.0849 1.99735 0.757993 72 40 120 255 
35.9797 5.06966 1.59278 70 11 94 255 
47.6592 6.83511 1.73181 69 4 87 255 
0 0 0 68 2 86 255 
70.1139 9.93024 1.21133 69 5 89 255 
0 0 0 68 1 84 255 
0 0 -0 68 1 84 255 
0 0 -0 68 2 86 255 
59.9589 8.47064 -1.14156 69 4 87 255 
43.1308 6.04661 -1.23175 70 7 90 255 
21.4039 3.05444 -0.78524 72 29 111 255 
17.2177 2.44146 -0.792714 72 40 120 255 
15.3475 2.16548 -0.852992 72 41 121 255 
13.1403 1.83983 -0.855706 70 48 126 255 
12.0947 1.72382 -0.886434 71 42 122 255 
11.0211 1.55885 -0.911204 71 46 124 255 
10.1821 1.43122 -0.939371 69 53 129 255 
9.59031 1.34278 -0.976821 63 71 136 255 
8.83257 1.25417 -0.9723 66 64 134 255 
8.26255 1.16721 -0.989123 65 66 135 255 
7.77755 1.09185 -1.0061 62 73 137 255 
7.30354 1.02001 -1.01542 62 74 137 255 
6.92975 0.980285 -1.02225 59 82 139 255 
6.56543 0.92513 -1.03116 59 82 139 255 
6.25149 0.876498 -1.04165 57 85 140 255 
5.94421 0.830165 -1.04966 59 81 139 255 
5.69286 0.801268 -1.05513 53 95 141 255 
5.43257 0.762599 -1.05839 53 95 141 255 
5.25739 0.73712 -1.0772 56 89 140 255 
5.03195 0.703653 -1.08276 63 71 136 255 
4.86107 0.681603 -1.08912 57 85 140 255 
4.66964 0.65384 -1.09206 60 79 138 255 
4.43678 0.620486 -1.08299 66 64 134 255 
4.28549 0.600793 -1.09179 66 64 134 255 
4.14148 0.577025 -1.09309 64 69 136 255 
4.0166 0.559544 -1.1003 67 62 133 255 
3.84255 0.536699 -1.0935 70 52 128 255 
3.7471 0.526647 -1.10865 71 42 122 255 
14.4869 1.98701 4.39252 72 32 113 255 
8.10582 1.11888 2.36645 66 65 134 255 
8.1623 1.12965 2.29603 64 70 136 255 
9.95324 1.37731 2.69801 49 104 142 255 
10.2629 1.41312 2.68886 63 72 137 255 
15.1009 2.08175 3.79503 72 33 115 255 
11.5657 1.59244 2.78778 60 79 138 255 
10.8938 1.4978 2.51848 65 68 135 255 
11.0793 1.5275 2.46717 56 89 140 255 
11.1053 1.52896 2.3562 71 16 99 255 
13.4036 1.83836 2.71075 72 26 108 255 
11.3527 1.55283 2.1858 64 70 136 255 
11.5191 1.58813 2.12156 55 90 140 255 
11.3675 1.56303 1.97992 67 61 132 255 
37.2342 5.09357 6.11371 71 13 96 255 
37.249 5.06189 5.76572 70 11 94 255 
37.5739 5.17364 5.50612 70 8 92 255 
41.4906 5.6976 5.66983 70 7 90 255 
12.6937 1.72971 1.6116 71 47 125 255 
13.0515 1.76897 1.53556 69 53 129 255 
13.1619 1.81229 1.44098 66 64 134 255 
12.8264 1.75451 1.28075 72 38 119 255 
12.6287 1.71861 1.13972 70 10 93 255 
12.5871 1.69933 1.01746 70 11 94 255 
13.3661 1.83803 0.97421 71 46 124 255 
13.8736 1.8953 0.878507 72 24 106 255 
14.0128 1.89949 0.75347 72 31 112 255 
35.7804 4.81786 1.58262 71 17 100 255 
36.14 4.95695 1.3121 69 4 87 255 
0 0 0 69 4 87 255 
56.4557 7.64277 0.974534 70 8 92 255 
0 0 0 68 2 86 255 
0 0 -0 68 2 86 255 
0 0 -0 68 1 84 255 
60.735 8.20051 -1.15535 69 4 87 255 
43.5832 5.83759 -1.24362 70 7 90 255 
20.9836 2.8632 -0.769161 72 22 104 255 
16.8879 2.28907 -0.776867 72 33 115 255 
15.5198 2.09275 -0.861839 72 41 121 255 
13.3343 1.78364 -0.867612 72 37 118 255 
12.1109 1.65038 -0.886868 72 38 119 255 
11.0225 1.49013 -0.910551 71 46 124 255 
10.1976 1.36964 -0.940007 69 55 129 255 
9.5678 1.27982 -0.973709 62 73 137 255 
8.87064 1.2041 -0.975659 65 66 135 255 
8.26758 1.11622 -0.988888 65 66 135 255 
7.77723 1.04318 -1.00521 64 69 136 255 
7.31751 0.976222 -1.01651 62 76 138 255 
6.9268 0.936553 -1.02095 60 79 138 255 
6.56022 0.883377 -1.02947 58 83 139 255 
6.25088 0.837338 -1.04068 58 84 140 255 
5.95896 0.794979 -1.05138 59 81 139 255 
5.72692 0.770255 -1.06055 56 89 140 255 
5.4605 0.732384 -1.06294 57 86 140 255 
5.26279 0.704978 -1.0774 54 92 141 255 
5.05459 0.675225 -1.08672 64 70 136 255 
4.86807 0.652152 -1.08976 57 85 140 255 
4.65811 0.623109 -1.08845 62 73 137 255 
4.46844 0.596983 -1.0898 65 66 135 255 
4.29486 0.575259 -1.09325 67 61 132 255 
4.13919 0.550837 -1.09158 67 62 133 255 
4.01421 0.534124 -1.09873 67 61 132 255 
3.82096 0.509802 -1.08645 70 48 126 255 
3.71602 0.499047 -1.09853 72 40 120 255 
9.47055 1.23982 2.86918 70 52 128 255 
8.1173 1.06975 2.36784 55 91 141 255 
8.18913 1.0822 2.30166 57 85 140 255 
10.063 1.32963 2.7255 54 93 141 255 
10.0747 1.32427 2.63736 60 79 138 255 
10.4348 1.37331 2.62021 58 83 139 255 
11.7334 1.54224 2.82587 71 45 123 255 
11.4672 1.505 2.64886 64 70 136 255 
10.5666 1.39081 2.35106 72 20 103 255 
0 0 0 68 1 84 255 
13.4594 1.76194 2.71979 72 26 108 255 
11.363 1.48326 2.18599 64 69 136 255 
12.462 1.64028 2.29333 71 13 96 255 
12.5083 1.64176 2.17682 72 27 109 255 
37.1796 4.8539 6.09974 71 14 97 255 
37.6715 4.88407 5.82636 70 8 92 255 
13.246 1.74113 1.93948 70 7 90 255 
13.4001 1.75643 1.82966 70 8 92 255 
13.3525 1.7361 1.69385 69 53 129 255 
13.133 1.69802 1.5439 69 55 129 255 
13.2467 1.74122 1.44907 70 52 128 255 
12.8171 1.6732 1.27878 63 72 137 255 
13.0529 1.69483 1.17704 72 26 108 255 
13.7985 1.77674 1.11448 72 24 106 255 
12.9074 1.69433 0.940001 72 31 112 255 
48.058 6.26515 3.04065 71 13 96 255 
13.9687 1.8063 0.75049 72 20 103 255 
35.7043 4.58474 1.57798 72 20 103 255 
0 0 0 69 4 87 255 
56.3963 7.33217 1.50908 69 5 89 255 
0 0 0 69 4 87 255 
39.3028 5.03291 0.311211 69 4 87 255 
0 0 -0 68 1 84 255 
0 0 -0 68 2 86 255 
0 0 -0 69 4 87 255 
43.6499 5.57411 -1.24453 69 4 87 255 
21.2376 2.76523 -0.777835 72 22 104 255 
17.5842 2.27367 -0.808242 72 41 121 255 
15.6899 2.01773 -0.870576 71 46 124 255 
13.3875 1.70722 -0.870379 72 38 119 255 
12.0536 1.56729 -0.881947 72 32 113 255 
11.0611 1.4263 -0.912999 70 48 126 255 
10.2216 1.30907 -0.941463 64 70 136 255 
9.58534 1.22235 -0.974713 65 66 135 255 
8.87786 1.14964 -0.975659 65 66 135 255 
8.27428 1.06547 -0.988888 66 65 134 255 
7.78545 0.995693 -1.00546 63 71 136 255 
7.32337 0.931304 -1.01651 66 65 134 255 
6.93733 0.894666 -1.02167 60 80 139 255 
6.56061 0.842479 -1.02871 58 84 140 255 
6.24318 0.797342 -1.03856 59 81 139 255 
5.97448 0.759767 -1.05328 57 85 140 255 
5.72666 0.734475 -1.05965 53 95 141 255 
5.47756 0.700484 -1.0654 56 88 140 255 
5.26118 0.671928 -1.0762 58 83 139 255 
5.05185 0.643333 -1.08526 63 71 136 255 
4.86423 0.62128 -1.08803 58 83 139 255 
4.64638 0.592544 -1.08483 62 74 137 255 
4.47877 0.570414 -1.09145 65 68 135 255 
4.3137 0.55086 -1.09717 65 66 135 255 
4.14057 0.525186 -1.09107 65 68 135 255 
3.99061 0.506083 -1.0914 70 51 127 255 
3.81734 0.485497 -1.08455 71 46 124 255 
3.7352 0.478309 -1.10331 72 32 113 255 
9.49509 1.18382 2.87436 72 36 117 255 
8.15326 1.02363 2.37645 58 83 139 255 
8.08761 1.01833 2.27133 64 69 136 255 
8.07593 1.0167 2.18559 71 42 122 255 
10.267 1.28551 2.68559 65 68 135 255 
10.443 1.30925 2.62021 70 51 127 255 
10.8779 1.36194 2.61777 70 51 127 255 
11.0419 1.38032 2.54862 72 38 119 255 
10.5507 1.32291 2.34568 64 69 136 255 
11.3873 1.42563 2.41215 72 32 113 255 
11.4743 1.43053 2.31685 63 71 136 255 
11.3816 1.41473 2.18786 58 84 140 255 
11.1883 1.40284 2.0573 72 24 106 255 
13.1527 1.64432 2.28717 69 4 87 255 
37.5427 4.6672 6.1545 70 8 92 255 
13.3946 1.65309 2.07003 72 28 110 255 
13.4656 1.68601 1.97008 68 59 132 255 
13.0291 1.62655 1.77761 72 24 106 255 
12.7938 1.58368 1.62171 71 47 125 255 
13.2555 1.63124 1.5571 72 38 119 255 
13.3548 1.67213 1.45975 66 65 134 255 
12.7729 1.58777 1.27337 71 42 122 255 
13.0601 1.61434 1.17677 60 79 138 255 
13.7913 1.68986 1.11304 72 22 104 255 
12.6216 1.5781 0.918467 64 69 136 255 
13.7245 1.70363 0.867674 72 38 119 255 
47.5929 5.85759 2.55502 70 8 92 255 
36.3208 4.43755 1.60399 71 14 97 255 
36.7634 4.58356 1.33259 70 7 90 255 
39.3021 4.86469 1.05085 70 7 90 255 
39.2946 4.8293 0.677226 69 4 87 255 
0 0 0 68 2 86 255 
39.3145 4.89466 -0.00691465 70 10 93 255 
39.3665 4.8587 -0.38077 69 5 89 255 
62.4864 7.65743 -1.18679 69 5 89 255 
44.0505 5.35077 -1.25499 70 8 92 255 
21.2472 2.63401 -0.777581 71 17 100 255 
17.7773 2.18781 -0.816485 72 29 111 255 
15.8179 1.93561 -0.877005 71 45 123 255 
13.4562 1.63213 -0.874177 72 38 119 255 
12.0937 1.4971 -0.88419 71 42 122 255 
11.0944 1.36143 -0.915039 69 55 129 255 
10.2344 1.24693 -0.941918 67 61 132 255 
9.61538 1.16627 -0.977021 64 70 136 255 
8.86008 1.09211 -0.97295 67 61 132 255 
8.28756 1.01553 -0.989712 64 69 136 255 
7.79437 0.948263 -1.00584 66 64 134 255 
7.32894 0.886351 -1.01651 63 71 136 255 
6.9584 0.854011 -1.02399 61 78 138 255 
6.55683 0.801129 -1.02732 62 74 137 255 
6.27636 0.76247 -1.04328 60 79 138 255 
5.99663 0.725223 -1.05638 58 83 139 255 
5.73008 0.699204 -1.05947 54 93 141 255 
5.46031 0.664253 -1.06123 57 85 140 255 
5.27591 0.640933 -1.07839 55 90 140 255 
5.04502 0.611029 -1.08297 63 72 137 255 
4.87861 0.592717 -1.09041 61 77 138 255 
4.66251 0.565548 -1.08777 65 68 135 255 
4.48798 0.543623 -1.09286 64 70 136 255 
4.31796 0.524498 -1.09741 67 61 132 255 
4.14372 0.49977 -1.09107 66 65 134 255 
4.01088 0.483668 -1.09611 70 52 128 255 
3.85751 0.466572 -1.09513 71 45 123 255 
3.72949 0.454337 -1.10078 72 24 106 255 
14.7378 1.74571 4.45812 72 20 103 255 
8.16415 0.974154 2.37784 57 85 140 255 
8.12049 0.971891 2.27885 62 74 137 255 
8.1549 0.975847 2.2053 70 50 126 255 
11.2945 1.34383 2.95214 72 35 116 255 
11.4703 1.36661 2.87581 72 41 121 255 
11.1014 1.3208 2.66956 60 79 138 255 
10.7192 1.27322 2.47227 70 52 128 255 
10.6033 1.26346 2.35559 66 65 134 255 
10.6982 1.27273 2.26446 69 56 130 255 
13.4926 1.59814 2.72234 72 41 121 255 
11.3988 1.3459 2.18955 72 37 118 255 
12.9999 1.54904 2.38864 72 26 108 255 
12.3533 1.46745 2.14655 70 7 90 255 
34.774 4.10651 5.69639 71 13 96 255 
13.4368 1.57466 2.07503 63 71 136 255 
13.4698 1.60265 1.96922 66 64 134 255 
13.2317 1.56945 1.8039 69 55 129 255 
12.9116 1.51789 1.63543 66 64 134 255 
13.1597 1.53754 1.54471 72 23 105 255 
13.2611 1.57782 1.44842 71 13 96 255 
34.6766 4.09469 3.45446 71 17 100 255 
12.8531 1.50874 1.15726 71 42 122 255 
0 0 0 69 4 87 255 
12.738 1.51333 0.926245 72 23 105 255 
47.385 5.58694 2.9935 70 10 93 255 
47.1151 5.50553 2.52751 69 5 89 255 
48.4138 5.61375 2.13648 69 5 89 255 
41.8631 4.95871 1.51631 70 7 90 255 
0 0 0 68 2 86 255 
57.418 6.6993 0.98885 69 5 89 255 
0 0 0 68 1 84 255 
0 0 -0 68 2 86 255 
0 0 -0 68 1 84 255 
0 0 -0 69 4 87 255 
44.2811 5.10327 -1.26064 70 8 92 255 
21.8386 2.57137 -0.798632 71 16 99 255 
17.7467 2.07359 -0.814481 72 31 112 255 
15.8791 1.84428 -0.879752 72 41 121 255 
13.5235 1.55615 -0.877909 72 33 115 255 
12.1155 1.42438 -0.885131 72 35 116 255 
11.1144 1.29472 -0.916018 68 57 131 255 
10.2488 1.18491 -0.942555 71 45 123 255 
9.61642 1.10657 -0.976419 65 66 135 255 
8.87155 1.0383 -0.973492 70 52 128 255 
8.2887 0.964085 -0.989123 66 63 133 255 
7.80004 0.90042 -1.00584 66 63 133 255 
7.32342 0.840123 -1.01501 64 70 136 255 
6.96548 0.811528 -1.02428 61 77 138 255 
6.59696 0.76498 -1.03285 61 77 138 255 
6.27798 0.723606 -1.04279 58 84 140 255 
6.00096 0.688415 -1.05638 60 80 139 255 
5.72449 0.662901 -1.05766 57 86 140 255 
5.48281 0.632875 -1.06483 55 90 140 255 
5.29435 0.610232 -1.08137 59 82 139 255 
5.06714 0.582183 -1.08693 63 72 137 255 
4.88797 0.563442 -1.09171 60 80 139 255 
4.67557 0.538042 -1.09002 66 64 134 255 
4.50764 0.517962 -1.09685 67 62 133 255 
4.30954 0.496662 -1.09448 67 61 132 255 
4.14863 0.474555 -1.09158 66 63 133 255 
4.02049 0.459816 -1.09795 71 47 125 255 
3.89281 0.446624 -1.10435 72 38 119 255 
3.73125 0.431334 -1.1005 71 19 101 255 
15.4792 1.73728 4.67907 72 31 112 255 
8.18334 0.925553 2.38173 57 85 140 255 
8.14162 0.923784 2.28314 54 93 141 255 
8.21447 0.931887 2.21982 63 71 136 255 
10.3176 1.16344 2.69489 70 50 126 255 
11.3483 1.28151 2.84319 69 53 129 255 
11.119 1.25375 2.67189 67 61 132 255 
10.8905 1.22585 2.51 59 81 139 255 
10.6729 1.20539 2.36937 54 92 141 255 
10.699 1.20629 2.26302 72 20 103 255 
11.4189 1.28152 2.30231 62 76 138 255 
16.0848 1.79919 3.08748 71 19 101 255 
16.236 1.83368 2.98113 72 20 103 255 
0 0 0 68 1 84 255 
34.7211 3.88439 5.68371 71 14 97 255 
13.4394 1.49142 2.07397 72 37 118 255 
13.2424 1.49325 1.9346 62 76 138 255 
12.7585 1.434 1.73817 71 19 101 255 
12.9779 1.44501 1.64267 64 70 136 255 
13.2449 1.46517 1.55363 70 52 128 255 
35.1883 3.96793 3.84065 70 11 94 255 
34.9137 3.90563 3.47563 70 10 93 255 
12.8443 1.42787 1.15566 71 13 96 255 
37.78 4.15928 3.04472 70 7 90 255 
47.5044 5.34833 3.45183 70 7 90 255 
37.1555 4.14984 2.34561 69 4 87 255 
36.0297 3.98624 1.93148 69 4 87 255 
41.6805 4.574 1.83807 70 7 90 255 
0 0 0 68 2 86 255 
53.3475 5.93945 1.42433 69 4 87 255 
52.981 5.85232 0.911799 70 7 90 255 
52.9346 5.79034 0.418236 69 4 87 255 
52.9029 5.92812 -0.00929109 69 4 87 255 
52.9982 5.88183 -0.511885 70 7 90 255 
53.0062 5.83638 -1.0053 70 7 90 255 
37.0833 4.04334 -1.055 70 7 90 255 
20.8052 2.32035 -0.760305 71 17 100 255 
17.8663 1.97653 -0.819399 72 37 118 255 
15.9675 1.75532 -0.884039 70 48 126 255 
13.5665 1.47682 -0.880098 72 29 111 255 
12.128 1.35046 -0.885421 71 45 123 255 
11.1301 1.22737 -0.916671 68 57 131 255 
10.2855 1.12525 -0.945284 69 53 129 255 
9.59929 1.04496 -0.97401 68 59 132 255 
8.8827 0.984395 -0.974034 69 53 129 255 
8.30433 0.914295 -0.9903 67 62 133 255 
7.81035 0.853081 -1.00648 65 66 135 255 
7.3304 0.795385 -1.01528 63 72 137 255 
6.96442 0.768123 -1.02341 64 70 136 255 
6.6143 0.725888 -1.03485 57 85 140 255 
6.2823 0.685072 -1.04279 59 82 139 255 
6.01487 0.652643 -1.0581 57 86 140 255 
5.73041 0.627978 -1.05802 57 85 140 255 
5.50026 0.600714 -1.06748 57 86 140 255 
5.29507 0.577416 -1.08078 56 89 140 255 
5.04144 0.547911 -1.08068 62 74 137 255 
4.89231 0.533545 -1.09193 57 85 140 255 
4.67975 0.509449 -1.09025 62 73 137 255 
4.48851 0.487878 -1.09145 66 63 133 255 
4.29323 0.468108 -1.08958 68 59 132 255 
4.15531 0.449507 -1.09259 68 58 131 255 
4.01076 0.433789 -1.09454 72 41 121 255 
3.86677 0.419615 -1.09621 72 29 111 255 
3.73478 0.408536 -1.10078 71 16 99 255 
9.99337 1.05954 3.01878 63 71 136 255 
8.16976 0.873282 2.37617 66 65 134 255 
10.1375 1.08728 2.84091 62 76 138 255 
10.059 1.07866 2.71643 59 82 139 255 
10.0425 1.07006 2.62128 71 42 122 255 
14.8527 1.58502 3.71869 71 13 96 255 
11.11 1.18375 2.66794 67 61 132 255 
10.9404 1.16354 2.51982 62 73 137 255 
10.7122 1.1433 2.37648 57 86 140 255 
10.6847 1.13834 2.2585 72 22 104 255 
10.9478 1.16067 2.20585 63 71 136 255 
15.8826 1.67796 3.04663 71 14 97 255 
0 0 0 68 2 86 255 
16.1166 1.7142 2.79661 70 8 92 255 
16.1987 1.71164 2.64989 71 44 122 255 
34.8515 3.65128 5.37473 71 17 100 255 
13.1224 1.39823 1.91578 72 32 113 255 
34.7873 3.69392 4.73609 72 20 103 255 
13.2736 1.39554 1.67899 59 82 139 255 
13.2003 1.37831 1.54737 71 45 123 255 
13.1194 1.39791 1.43096 71 17 100 255 
13.465 1.42266 1.33953 68 57 131 255 
38.1335 4.00249 3.42877 69 5 89 255 
37.436 3.88908 3.01501 69 4 87 255 
0 0 0 68 2 86 255 
40.6461 4.28736 2.56426 70 7 90 255 
36.1558 3.77577 1.93696 71 13 96 255 
36.6398 3.79345 1.61472 70 8 92 255 
41.8562 4.43776 1.51398 70 7 90 255 
52.0319 5.46997 1.38829 70 7 90 255 
52.5316 5.47663 0.90347 70 8 92 255 
53.0656 5.47539 0.418998 69 5 89 255 
52.9781 5.60761 -0.00929807 70 8 92 255 
52.9477 5.54757 -0.511059 69 5 89 255 
0 0 -0 69 4 87 255 
37.003 3.80499 -1.05203 70 11 94 255 
20.9622 2.20772 -0.765531 71 19 101 255 
17.9993 1.87952 -0.824954 72 29 111 255 
15.9849 1.65804 -0.884423 71 42 122 255 
13.5674 1.39273 -0.879583 72 36 117 255 
12.1588 1.27842 -0.887085 72 40 120 255 
11.1582 1.16122 -0.918384 69 56 130 255 
10.324 1.06539 -0.948196 70 52 128 255 
9.63422 0.988983 -0.976921 66 63 133 255 
8.8945 0.930493 -0.974684 68 58 131 255 
8.31868 0.864247 -0.99136 64 69 136 255 
7.82826 0.806463 -1.00813 66 63 133 255 
7.35486 0.752408 -1.01801 62 76 138 255 
6.97294 0.725785 -1.02399 61 77 138 255 
6.61961 0.685392 -1.03501 59 81 139 255 
6.28835 0.646713 -1.04312 57 85 140 255 
5.99916 0.613719 -1.05466 62 76 138 255 
5.741 0.593513 -1.05929 57 85 140 255 
5.50091 0.566652 -1.06692 58 84 140 255 
5.30144 0.545216 -1.08137 56 89 140 255 
5.05347 0.517864 -1.08255 62 74 137 255 
4.87024 0.50092 -1.0863 62 74 137 255 
4.70023 0.482516 -1.09431 65 68 135 255 
4.49432 0.460625 -1.09215 66 65 134 255 
4.32303 0.444533 -1.09643 68 59 132 255 
4.14644 0.422824 -1.08955 69 55 129 255 
4.05175 0.413087 -1.10502 72 41 121 255 
3.88459 0.397449 -1.10055 72 23 105 255 
3.73436 0.385316 -1.09993 70 7 90 255 
10.3275 1.03092 3.11775 70 50 126 255 
10.1344 1.02043 2.9457 69 56 130 255 
10.0721 1.01779 2.82078 53 94 141 255 
10.1 1.02042 2.72576 55 91 141 255 
10.0942 1.01296 2.63309 50 100 142 255 
14.4151 1.44892 3.60684 68 59 132 255 
15.8602 1.59151 3.80623 70 11 94 255 
10.7029 1.07191 2.46357 63 71 136 255 
10.8258 1.08829 2.40018 65 68 135 255 
10.6906 1.07266 2.25829 66 65 134 255 
11.424 1.14032 2.30034 67 62 133 255 
15.9386 1.58505 3.05544 65 66 135 255 
16.041 1.61256 2.94147 72 22 104 255 
16.2209 1.62471 2.81293 65 68 135 255 
16.1922 1.61056 2.64716 71 16 99 255 
35.1437 3.46403 5.41642 71 13 96 255 
13.2321 1.32786 1.93057 72 32 113 255 
12.9043 1.29024 1.75574 71 44 122 255 
13.2751 1.31339 1.67812 71 45 123 255 
12.9802 1.27486 1.52062 68 57 131 255 
13.0347 1.30805 1.42082 68 58 131 255 
13.3467 1.32741 1.32693 72 37 118 255 
38.1504 3.76774 3.42814 69 4 87 255 
37.6069 3.67374 3.02691 70 11 94 255 
0 0 0 69 4 87 255 
36.6047 3.63411 2.30785 71 14 97 255 
36.5728 3.59261 1.95809 70 7 90 255 
41.7554 4.0643 1.83903 70 7 90 255 
42.0825 4.20081 1.5212 69 4 87 255 
48.5558 4.8035 1.29473 70 7 90 255 
53.4398 5.24007 0.918521 70 8 92 255 
0 0 0 68 1 84 255 
85.0687 8.47685 -0.0149208 69 5 89 255 
0 0 -0 69 4 87 255 
0 0 -0 68 2 86 255 
36.4735 3.52451 -1.03634 70 7 90 255 
20.5905 2.04091 -0.751485 71 13 96 255 
18.3058 1.79805 -0.838479 72 37 118 255 
16.1061 1.57078 -0.890578 71 45 123 255 
13.5925 1.31109 -0.880677 72 37 118 255 
12.1526 1.20241 -0.886072 72 38 119 255 
11.1989 1.09604 -0.921158 66 63 133 255 
10.3214 1.00116 -0.947377 71 47 125 255 
9.64011 0.92985 -0.976921 66 65 134 255 
8.91983 0.877848 -0.976851 69 56 130 255 
8.33074 0.813864 -0.992184 65 66 135 255 
7.838 0.758892 -1.00877 67 61 132 255 
7.36624 0.707929 -1.01896 62 74 137 255 
6.99204 0.684432 -1.02616 59 81 139 255 
6.63254 0.645624 -1.03639 59 82 139 255 
6.30693 0.60954 -1.04556 58 84 140 255 
5.99203 0.575861 -1.05276 62 76 138 255 
5.75726 0.559512 -1.06163 55 90 140 255 
5.49451 0.531942 -1.06502 56 88 140 255 
5.31736 0.513902 -1.08396 54 92 141 255 
5.07115 0.488253 -1.08568 60 79 138 255 
4.88294 0.471966 -1.08847 64 70 136 255 
4.69341 0.452731 -1.09206 63 71 136 255 
4.48642 0.432015 -1.08957 67 62 133 255 
4.32857 0.418279 -1.09717 69 53 129 255 
4.15762 0.398204 -1.09183 70 50 126 255 
4.01963 0.384906 -1.09559 72 32 113 255 
3.89079 0.373974 -1.10164 72 23 105 255 
3.67074 0.356004 -1.08053 70 10 93 255 
10.2793 0.962447 3.10135 60 79 138 255 
11.4306 1.08014 3.32048 67 61 132 255 
10.0417 0.952518 2.81058 60 79 138 255 
10.0051 0.948852 2.69853 70 10 93 255 
10.0665 0.94783 2.62429 52 97 141 255 
14.6865 1.38523 3.67255 71 13 96 255 
10.6075 0.998724 2.54415 71 42 122 255 
10.721 1.00732 2.46624 69 56 130 255 
10.8041 1.01919 2.39393 54 92 141 255 
11.2133 1.05566 2.36731 61 78 138 255 
10.7055 1.00229 2.15438 72 29 111 255 
15.9705 1.48932 3.05975 71 46 124 255 
16.0908 1.51789 2.94883 70 8 92 255 
16.2551 1.52745 2.81718 69 56 130 255 
16.3236 1.52254 2.66707 69 56 130 255 
16.3208 1.50765 2.51393 71 46 124 255 
13.1415 1.23737 1.91621 72 23 105 255 
12.9337 1.21307 1.75869 71 47 125 255 
13.1011 1.21505 1.65516 69 53 129 255 
12.9848 1.19492 1.52027 66 63 133 255 
13.0039 1.22441 1.41662 70 8 92 255 
13.4883 1.25797 1.34022 62 74 137 255 
0 0 0 69 4 87 255 
38.0318 3.47979 3.05933 69 5 89 255 
35.6229 3.34789 2.58356 70 7 90 255 
37.5813 3.49834 2.36802 70 10 93 255 
41.586 3.82758 2.22519 69 4 87 255 
0 0 0 68 2 86 255 
42.0707 3.93907 1.51987 70 7 90 255 
47.9682 4.44834 1.27831 70 7 90 255 
0 0 0 68 2 86 255 
61.6047 5.59334 0.485842 69 5 89 255 
0 0 -0 69 4 87 255 
0 0 -0 68 2 86 255 
0 0 -0 68 2 86 255 
36.4048 3.29255 -1.0338 69 5 89 255 
20.724 1.92581 -0.755913 71 17 100 255 
18.3463 1.68844 -0.839845 72 38 119 255 
16.1373 1.47392 -0.891786 72 36 117 255 
13.6639 1.2334 -0.884796 72 35 116 255 
12.1269 1.12478 -0.883684 71 42 122 255 
11.2411 1.03058 -0.924095 68 59 132 255 
10.3382 0.938798 -0.948378 69 53 129 255 
9.64068 0.870235 -0.976419 67 62 133 255 
8.92505 0.8231 -0.976851 68 59 132 255 
8.32173 0.761466 -0.990536 65 68 135 255 
7.8346 0.710069 -1.00775 67 61 132 255 
7.39116 0.66458 -1.02183 64 69 136 255 
6.98428 0.640433 -1.02442 62 74 137 255 
6.63441 0.604736 -1.03608 59 82 139 255 
6.30957 0.570741 -1.0454 59 82 139 255 
6.03273 0.542436 -1.05931 57 85 140 255 
5.75471 0.523641 -1.06055 57 86 140 255 
5.5143 0.499725 -1.06824 57 86 140 255 
5.31358 0.480648 -1.08257 55 91 141 255 
5.08964 0.458532 -1.08901 64 69 136 255 
4.86824 0.440413 -1.08457 65 66 135 255 
4.69027 0.423399 -1.0907 62 74 137 255 
4.49189 0.40474 -1.09027 68 59 132 255 
4.31753 0.390489 -1.09374 70 48 126 255 
4.17926 0.374412 -1.09689 72 40 120 255 
4.02191 0.360235 -1.09559 72 31 112 255 
3.89493 0.350266 -1.10218 71 16 99 255 
3.66808 0.33304 -1.07913 70 8 92 255 
14.2797 1.24867 4.30593 72 38 119 255 
14.7326 1.30101 4.27728 72 40 120 255 
10.0262 0.889013 2.80467 66 64 134 255 
9.9463 0.88173 2.68116 63 72 137 255 
10.0152 0.881041 2.60947 51 99 141 255 
14.4173 1.27064 3.60321 70 8 92 255 
10.6338 0.935409 2.54902 69 56 130 255 
10.5619 0.927026 2.42829 61 78 138 255 
11.0456 0.973624 2.44606 70 48 126 255 
11.435 1.00579 2.41277 64 70 136 255 
15.906 1.39078 3.19915 71 19 101 255 
10.7429 0.93537 2.05707 62 74 137 255 
16.09 1.41827 2.94703 72 33 115 255 
16.219 1.42372 2.80936 67 62 133 255 
16.3307 1.42218 2.66675 70 48 126 255 
12.9234 1.11388 1.98952 72 37 118 255 
35.4895 3.12203 5.17195 71 16 99 255 
13.2509 1.16084 1.80082 63 72 137 255 
12.9244 1.11872 1.63194 59 81 139 255 
13.0345 1.11887 1.52525 59 81 139 255 
13.436 1.18197 1.46287 71 42 122 255 
13.5166 1.17699 1.34229 66 64 134 255 
13.6614 1.18011 1.2262 71 45 123 255 
36.1803 3.08665 2.90881 69 4 87 255 
35.7958 3.14268 2.59465 71 14 97 255 
37.608 3.2682 2.3684 71 17 100 255 
0 0 0 68 2 86 255 
37.1225 3.154 1.63316 70 10 93 255 
36.6235 3.20249 1.32235 71 13 96 255 
47.8851 4.14445 1.27539 70 10 93 255 
0 0 0 69 4 87 255 
0 0 0 68 1 84 255 
84.447 7.36952 -0.0147948 69 5 89 255 
0 0 -0 68 2 86 255 
0 0 -0 68 2 86 255 
56.3487 4.74794 -1.59929 69 5 89 255 
21.0968 1.82996 -0.769088 71 17 100 255 
18.2329 1.56524 -0.834199 72 38 119 255 
10.2553 0.873265 -0.566426 72 33 115 255 
10.2833 0.864662 -0.665528 68 58 131 255 
10.2864 0.890447 -0.749152 72 40 120 255 
10.3525 0.885086 -0.850582 70 48 126 255 
10.3488 0.875766 -0.948833 66 65 134 255 
9.65278 0.811648 -0.977122 67 61 132 255 
8.93092 0.768407 -0.976959 69 53 129 255 
8.32823 0.710559 -0.990771 67 62 133 255 
7.81015 0.659563 -1.00406 67 61 132 255 
7.38326 0.618224 -1.02019 65 66 135 255 
6.99005 0.597735 -1.02471 61 78 138 255 
6.638 0.564016 -1.03608 57 85 140 255 
6.32573 0.533093 -1.04752 56 89 140 255 
6.01926 0.504012 -1.05638 62 76 138 255 
5.75291 0.487905 -1.05965 58 84 140 255 
5.54563 0.468276 -1.07374 57 85 140 255 
5.30862 0.447377 -1.08097 57 85 140 255 
5.1177 0.42942 -1.09443 62 73 137 255 
4.86794 0.410288 -1.08392 64 69 136 255 
4.71608 0.396571 -1.09612 64 69 136 255 
4.51851 0.379203 -1.09615 69 56 130 255 
4.32275 0.364234 -1.09448 71 45 123 255 
4.1622 0.347154 -1.09183 72 38 119 255 
4.05578 0.338197 -1.10423 72 33 115 255 
3.96798 0.332305 -1.12225 72 22 104 255 
3.66623 0.310203 -1.078 70 8 92 255 
8.2523 0.670615 2.48712 53 95 141 255 
14.1218 1.15979 4.09781 66 64 134 255 
10.0094 0.825656 2.7985 49 104 142 255 
9.90532 0.816874 2.66871 72 40 120 255 
10.0098 0.818705 2.60671 47 108 142 255 
14.392 1.17945 3.595 66 63 133 255 
14.7439 1.20583 3.5324 70 8 92 255 
10.5635 0.861885 2.4274 57 85 140 255 
11.0776 0.907986 2.45188 71 47 125 255 
10.4393 0.853688 2.20152 72 38 119 255 
10.7336 0.872193 2.15772 64 70 136 255 
10.6701 0.8631 2.04208 52 97 141 255 
16.1278 1.32193 2.95242 72 20 103 255 
16.2834 1.32874 2.81905 72 36 117 255 
16.2781 1.31701 2.6568 71 14 97 255 
16.282 1.30276 2.50529 72 37 118 255 
12.9239 1.05705 1.88245 72 40 120 255 
35.5855 2.89756 4.83362 71 16 99 255 
12.8529 1.03312 1.62208 70 51 127 255 
13.3193 1.06104 1.5578 70 50 126 255 
13.1824 1.07819 1.43451 69 55 129 255 
13.0108 1.05255 1.29139 68 59 132 255 
13.6763 1.0969 1.22691 69 53 129 255 
46.7894 3.70271 3.75986 69 5 89 255 
35.8114 2.92274 2.59444 72 20 103 255 
37.122 2.99658 2.33659 70 11 94 255 
53.0643 4.22804 2.83638 69 4 87 255 
37.1232 2.92475 1.63237 69 5 89 255 
47.5454 3.86373 1.71581 70 7 90 255 
47.6196 3.82725 1.26767 70 7 90 255 
0 0 0 68 2 86 255 
0 0 0 68 2 86 255 
84.2186 6.82916 -0.0147472 69 4 87 255 
84.185 6.73648 -0.810726 70 7 90 255 
0 0 -0 68 2 86 255 
56.9628 4.44785 -1.61592 69 5 89 255 
21.1256 1.70193 -0.769742 71 14 97 255 
18.2492 1.45389 -0.834517 72 33 115 255 
10.2844 0.81221 -0.567745 69 53 129 255 
10.2904 0.801704 -0.665656 64 69 136 255 
10.3096 0.828753 -0.750455 64 70 136 255 
10.3349 0.819736 -0.848706 62 73 137 255 
10.3351 0.810771 -0.947104 67 62 133 255 
9.65063 0.751863 -0.976419 68 59 132 255 
8.94736 0.714543 -0.978259 68 57 131 255 
8.33936 0.659993 -0.991595 66 64 134 255 
7.85657 0.614956 -1.00953 66 64 134 255 
7.41259 0.574902 -1.02374 62 73 137 255 
7.00049 0.555381 -1.02572 58 84 140 255 
6.64724 0.523741 -1.037 57 86 140 255 
6.32692 0.494115 -1.04719 56 88 140 255 
6.02518 0.467298 -1.05689 62 74 137 255 
5.77051 0.453754 -1.06236 56 89 140 255 
5.55232 0.434547 -1.07449 58 84 140 255 
5.3142 0.415024 -1.08157 59 81 139 255 
5.12023 0.39801 -1.09443 61 77 138 255 
4.86647 0.380107 -1.08305 65 66 135 255 
4.68929 0.365356 -1.08935 66 63 133 255 
4.49652 0.349587 -1.09027 68 57 131 255 
4.3191 0.33725 -1.09301 72 41 121 255 
4.18547 0.323247 -1.09739 70 50 126 255 
4.05971 0.313453 -1.10475 72 33 115 255 
3.98242 0.308919 -1.12578 71 19 101 255 
3.67572 0.288302 -1.08025 70 11 94 255 
8.23048 0.618031 2.47935 71 46 124 255 
14.0482 1.06701 4.07447 70 48 126 255 
14.2607 1.08828 3.98516 69 53 129 255 
14.3698 1.09632 3.86964 70 50 126 255 
9.96059 0.753183 2.59264 65 68 135 255 
15.5098 1.1753 3.87234 72 35 116 255 
15.458 1.1688 3.70172 71 42 122 255 
10.5822 0.798079 2.43052 50 101 142 255 
11.1005 0.841326 2.45576 63 71 136 255 
10.4941 0.79338 2.21201 57 86 140 255 
10.6801 0.801912 2.14593 70 52 128 255 
10.6233 0.793734 2.03215 56 89 140 255 
16.1748 1.22592 2.95959 70 11 94 255 
16.3483 1.2331 2.82891 71 42 122 255 
16.2721 1.21608 2.65455 71 46 124 255 
12.9844 0.958771 1.99695 72 36 117 255 
13.1473 0.994147 1.91405 55 91 141 255 
12.8906 0.970039 1.75011 66 64 134 255 
12.8254 0.951739 1.61784 69 55 129 255 
13.3464 0.980822 1.56023 66 64 134 255 
13.1392 0.993539 1.42912 72 40 120 255 
13.3643 0.998649 1.32584 68 59 132 255 
13.2309 0.979507 1.18639 71 46 124 255 
13.3168 0.971652 1.0696 72 26 108 255 
35.8605 2.70535 2.59674 71 17 100 255 
35.6727 2.65938 2.24429 71 14 97 255 
41.8914 3.07926 2.23812 70 7 90 255 
34.1243 2.4779 1.4998 69 5 89 255 
0 0 0 69 4 87 255 
0 0 0 68 2 86 255 
0 0 0 69 4 87 255 
68.1332 4.92354 0.536524 69 4 87 255 
83.864 6.28269 -0.014678 69 4 87 255 
84.1151 6.21171 -0.80967 69 4 87 255 
0 0 -0 69 4 87 255 
38.2409 2.75002 -1.08432 69 5 89 255 
21.5701 1.60459 -0.785566 71 14 97 255 
18.2976 1.34482 -0.836339 72 28 110 255 
10.3111 0.750686 -0.568954 71 42 122 255 
10.2871 0.737977 -0.665141 62 74 137 255 
