ply
format ascii 1.0
comment VTK generated PLY File
obj_info vtkPolyData points and polygons: vtk4.0
element vertex 1157
property float x
property float y
property float z
property uchar red
property uchar green
property uchar blue
property uchar alpha
element face 0
property list uchar int vertex_indices
end_header
9.44261 -1.36094 -0.615264 35 137 142 255 
9.43876 -1.33666 -0.691692 33 142 141 255 
9.45527 -1.34925 -0.781883 33 142 141 255 
9.49764 -1.36367 -0.876594 41 123 142 255 
9.4568 -1.36299 -0.963774 55 91 141 255 
9.14045 -1.29929 -1.00621 68 57 131 255 
8.5389 -1.22001 -1.02244 64 69 136 255 
8.04586 -1.15666 -1.04129 67 61 132 255 
7.5663 -1.09321 -1.05265 66 65 134 255 
7.18424 -1.02505 -1.05998 63 71 136 255 
6.77361 -0.970201 -1.0642 65 68 135 255 
6.42794 -0.925211 -1.07161 64 70 136 255 
6.16251 -0.890382 -1.08894 63 71 136 255 
5.87283 -0.842119 -1.08889 62 74 137 255 
5.65549 -0.813071 -1.10234 58 83 139 255 
5.38368 -0.774905 -1.10364 61 77 138 255 
5.1837 -0.748038 -1.11611 60 79 138 255 
5.00931 -0.720968 -1.12291 60 79 138 255 
4.79811 -0.691518 -1.12274 60 79 138 255 
4.60624 -0.664645 -1.12505 64 70 136 255 
4.40225 -0.633704 -1.12212 66 63 133 255 
4.2762 -0.619259 -1.12951 62 73 137 255 
4.13385 -0.598729 -1.1333 65 68 135 255 
3.95429 -0.571278 -1.12605 69 56 130 255 
3.84146 -0.551611 -1.13705 70 48 126 255 
10.3206 -1.51701 3.13357 55 90 140 255 
10.6879 -1.56163 3.12378 56 88 140 255 
11.067 -1.61298 3.1163 62 76 138 255 
10.7496 -1.56693 2.91688 71 16 99 255 
11.9321 -1.74751 3.13001 72 35 116 255 
16.0856 -2.35316 4.04724 72 24 106 255 
15.2644 -2.23562 3.68383 72 20 103 255 
15.326 -2.24766 3.54767 72 20 103 255 
11.9099 -1.74213 2.65523 70 50 126 255 
12.2459 -1.79364 2.60138 72 36 117 255 
9.26239 -1.36152 1.8758 72 37 118 255 
9.28061 -1.36767 1.78949 66 65 134 255 
9.26678 -1.35551 1.70874 72 40 120 255 
9.28306 -1.36133 1.61893 72 33 115 255 
9.28047 -1.36748 1.52606 72 32 113 255 
9.31506 -1.38104 1.44435 72 35 116 255 
9.31397 -1.36407 1.36654 72 33 115 255 
9.27504 -1.36181 1.26915 72 31 112 255 
9.29584 -1.37472 1.18211 72 36 117 255 
9.3208 -1.38521 1.09863 72 33 115 255 
9.33115 -1.36659 1.02284 72 33 115 255 
9.32331 -1.37388 0.932334 72 35 116 255 
9.30699 -1.37803 0.841338 72 35 116 255 
9.30789 -1.38827 0.753873 72 38 119 255 
9.32179 -1.36688 0.680298 72 29 111 255 
9.3186 -1.37485 0.590973 72 35 116 255 
9.38845 -1.39511 0.505736 41 122 142 255 
9.39941 -1.40527 0.41661 31 152 139 255 
9.42952 -1.38603 0.342817 31 161 136 255 
9.4182 -1.3929 0.252633 31 156 137 255 
9.41102 -1.40015 0.162756 31 153 138 255 
9.40864 -1.41 0.074722 31 149 139 255 
9.42548 -1.38711 -0.00166278 31 151 139 255 
9.4295 -1.39794 -0.0915088 31 152 139 255 
9.42804 -1.40604 -0.179701 32 147 140 255 
9.42544 -1.41588 -0.26956 34 141 141 255 
9.43634 -1.39375 -0.346435 42 120 142 255 
9.42461 -1.40057 -0.434335 33 143 141 255 
9.43201 -1.40832 -0.524829 33 142 141 255 
9.43902 -1.4196 -0.615586 37 132 142 255 
9.43532 -1.39528 -0.692054 33 143 141 255 
9.44977 -1.40768 -0.782128 33 143 141 255 
9.49993 -1.42354 -0.877595 38 130 142 255 
9.44826 -1.42099 -0.963774 60 80 139 255 
9.14017 -1.35652 -1.00708 65 68 135 255 
8.52929 -1.27208 -1.0222 71 47 125 255 
8.04254 -1.20659 -1.0418 69 56 130 255 
7.56631 -1.14065 -1.05361 66 65 134 255 
7.16998 -1.06795 -1.05882 65 68 135 255 
6.77339 -1.01262 -1.06513 66 64 134 255 
6.44653 -0.968299 -1.07568 62 74 137 255 
6.14524 -0.926415 -1.08687 62 73 137 255 
5.88409 -0.880613 -1.09196 62 76 138 255 
5.63388 -0.845281 -1.09912 59 81 139 255 
5.37882 -0.807924 -1.10364 62 76 138 255 
5.15097 -0.775607 -1.11007 61 78 138 255 
5.00479 -0.751691 -1.12291 62 74 137 255 
4.80437 -0.722539 -1.12522 61 78 138 255 
4.61073 -0.694198 -1.12716 64 70 136 255 
4.43664 -0.666466 -1.13191 66 63 133 255 
4.26945 -0.645052 -1.12875 65 68 135 255 
4.13106 -0.624227 -1.13356 62 73 137 255 
3.98022 -0.599978 -1.13446 68 59 132 255 
3.84085 -0.575598 -1.13789 69 53 129 255 
10.3745 -1.59003 3.15285 49 104 142 255 
11.2593 -1.71574 3.29381 71 46 124 255 
10.6084 -1.61267 2.98988 53 94 141 255 
10.6309 -1.61631 2.88732 69 53 129 255 
11.9269 -1.82157 3.13152 69 56 130 255 
19.1098 -2.91545 4.81258 71 16 99 255 
14.4418 -2.20573 3.4885 72 32 113 255 
17.7671 -2.71712 4.11651 71 13 96 255 
11.8478 -1.80737 2.64381 66 65 134 255 
17.5505 -2.6807 3.73166 72 28 110 255 
9.31396 -1.42754 1.88798 35 137 142 255 
9.33709 -1.43458 1.80205 31 149 139 255 
9.34192 -1.4251 1.72417 33 143 141 255 
9.34857 -1.42959 1.63185 31 152 139 255 
9.33629 -1.43429 1.53666 33 144 141 255 
9.32595 -1.44119 1.44738 45 113 142 255 
9.29173 -1.4191 1.36453 72 33 115 255 
9.2812 -1.42094 1.27116 72 35 116 255 
9.30292 -1.43415 1.18411 72 35 116 255 
9.31409 -1.44268 1.09886 72 40 120 255 
9.29999 -1.42037 1.02036 72 35 116 255 
9.31765 -1.43151 0.93263 72 37 118 255 
9.29935 -1.43526 0.841427 72 36 117 255 
9.28541 -1.44321 0.752755 72 36 117 255 
9.29351 -1.42103 0.678858 72 37 118 255 
9.32084 -1.43367 0.591662 72 40 120 255 
9.3728 -1.45162 0.505364 45 112 142 255 
9.3985 -1.46414 0.41696 31 148 140 255 
9.41985 -1.44371 0.342781 31 160 136 255 
9.40553 -1.45006 0.252526 30 155 138 255 
9.41115 -1.45924 0.16291 31 152 139 255 
9.39586 -1.46709 0.0746906 31 150 139 255 
9.399 -1.44219 -0.00165963 30 155 138 255 
9.41185 -1.45439 -0.0914224 32 146 140 255 
9.41825 -1.46371 -0.179682 32 147 140 255 
9.42447 -1.47492 -0.269786 33 144 141 255 
9.4118 -1.44919 -0.345854 47 108 142 255 
9.41485 -1.45822 -0.43429 34 141 141 255 
9.42418 -1.46632 -0.524884 34 140 141 255 
9.43801 -1.47872 -0.6161 34 140 141 255 
9.43348 -1.45421 -0.69256 33 144 141 255 
9.44292 -1.46594 -0.782291 34 141 141 255 
9.50184 -1.4835 -0.878596 38 129 142 255 
9.46 -1.48217 -0.965881 60 79 138 255 
9.13266 -1.41273 -1.00719 66 63 133 255 
8.52427 -1.32485 -1.02255 69 53 129 255 
8.04674 -1.25775 -1.04333 68 58 131 255 
7.59929 -1.19335 -1.0592 67 62 133 255 
7.1457 -1.10919 -1.05622 62 73 137 255 
6.82368 -1.06298 -1.07404 66 63 133 255 
6.44437 -1.00845 -1.07633 64 70 136 255 
6.14041 -0.964257 -1.08704 65 68 135 255 
5.88538 -0.917761 -1.09322 62 73 137 255 
5.59755 -0.874981 -1.09306 60 79 138 255 
5.37183 -0.84061 -1.10325 62 74 137 255 
5.15287 -0.808259 -1.11152 61 77 138 255 
4.99912 -0.782235 -1.12269 60 79 138 255 
4.79888 -0.751854 -1.125 60 80 139 255 
4.63999 -0.727747 -1.13539 64 70 136 255 
4.41618 -0.691127 -1.12775 65 66 135 255 
4.28452 -0.674244 -1.13381 65 68 135 255 
4.12619 -0.649413 -1.1333 65 68 135 255 
3.97456 -0.624091 -1.13392 66 63 133 255 
3.84862 -0.600931 -1.14127 69 55 129 255 
10.4251 -1.66331 3.17126 56 89 140 255 
10.703 -1.69824 3.13406 66 63 133 255 
10.6287 -1.68255 2.99847 50 101 142 255 
10.6981 -1.69375 2.90833 56 88 140 255 
13.9 -2.21028 3.65306 72 27 109 255 
14.1426 -2.24652 3.56504 72 22 104 255 
18.863 -2.99955 4.56083 71 46 124 255 
12.1129 -1.92855 2.80916 72 41 121 255 
11.8326 -1.87942 2.64295 59 81 139 255 
12.2916 -1.95469 2.61599 72 26 108 255 
9.31567 -1.48636 1.89014 35 136 142 255 
9.34751 -1.49495 1.80579 33 142 141 255 
9.34758 -1.48471 1.72686 32 146 140 255 
9.34935 -1.48847 1.63355 34 141 141 255 
9.34194 -1.49389 1.53907 32 146 140 255 
9.33157 -1.50074 1.44966 32 147 140 255 
9.33758 -1.48479 1.37258 31 149 139 255 
9.32809 -1.48675 1.2788 35 136 142 255 
9.31647 -1.49482 1.18698 44 114 142 255 
9.33448 -1.50455 1.10234 47 107 142 255 
9.35885 -1.48817 1.0278 49 103 142 255 
9.32147 -1.4907 0.93391 72 31 112 255 
9.29921 -1.49372 0.842228 72 29 111 255 
9.31476 -1.50636 0.755869 72 31 112 255 
9.31318 -1.48258 0.680946 72 33 115 255 
9.31778 -1.49178 0.592037 72 31 112 255 
9.39724 -1.51451 0.507173 47 108 142 255 
9.40118 -1.5237 0.417486 33 144 141 255 
9.42068 -1.50306 0.343141 31 161 136 255 
9.41323 -1.51043 0.252977 31 151 139 255 
9.4188 -1.51967 0.163201 31 148 140 255 
9.41037 -1.52856 0.0748791 33 145 140 255 
9.41663 -1.50409 -0.00166435 32 146 140 255 
9.41953 -1.51482 -0.0915856 33 143 141 255 
9.42389 -1.52387 -0.179965 34 139 141 255 
9.43103 -1.53529 -0.270238 38 130 142 255 
9.41655 -1.50913 -0.346362 32 146 140 255 
9.41953 -1.51819 -0.434927 52 96 141 255 
9.4426 -1.52858 -0.526423 36 135 142 255 
9.44551 -1.53934 -0.617195 40 124 142 255 
9.44801 -1.51586 -0.694297 35 137 142 255 
9.4426 -1.52529 -0.783025 38 129 142 255 
9.525 -1.54704 -0.881598 38 130 142 255 
9.52438 -1.55219 -0.973408 55 91 141 255 
9.12578 -1.46906 -1.0074 63 71 136 255 
8.53852 -1.38078 -1.02526 68 59 132 255 
8.04377 -1.3079 -1.04396 67 61 132 255 
7.60454 -1.24203 -1.06098 66 64 134 255 
7.15438 -1.15554 -1.05853 66 64 134 255 
6.81605 -1.10468 -1.07389 63 71 136 255 
6.43416 -1.04733 -1.07568 60 79 138 255 
6.13924 -1.00271 -1.0879 66 65 134 255 
5.8777 -0.953541 -1.09286 62 76 138 255 
5.6037 -0.911201 -1.09533 58 83 139 255 
5.38785 -0.877019 -1.10762 59 81 139 255 
5.17871 -0.844901 -1.11819 62 76 138 255 
4.99519 -0.813051 -1.12291 61 78 138 255 
4.8038 -0.782852 -1.12725 62 76 138 255 
4.63927 -0.75683 -1.13633 61 77 138 255 
4.43482 -0.72195 -1.13362 64 70 136 255 
4.29272 -0.702552 -1.1371 66 65 134 255 
4.14213 -0.677992 -1.1388 62 73 137 255 
3.98586 -0.650948 -1.13826 66 63 133 255 
3.84486 -0.624534 -1.14127 66 63 133 255 
10.6386 -1.76439 3.23944 65 68 135 255 
10.5047 -1.73292 3.07905 72 37 118 255 
10.7047 -1.76197 3.0229 63 71 136 255 
10.7914 -1.77646 2.93659 67 62 133 255 
13.9034 -2.29837 3.65758 72 35 116 255 
10.5957 -1.74982 2.6736 72 31 112 255 
18.8375 -3.11413 4.55921 71 46 124 255 
12.7153 -2.10455 2.95181 70 50 126 255 
18.5748 -3.06728 4.15303 72 38 119 255 
17.9334 -2.96482 3.82052 71 19 101 255 
9.31508 -1.54493 1.89191 38 129 142 255 
9.34495 -1.55341 1.80711 35 136 142 255 
9.34509 -1.54316 1.72812 35 136 142 255 
9.35852 -1.54887 1.63678 33 144 141 255 
9.35986 -1.55572 1.54356 35 136 142 255 
9.34266 -1.56139 1.45284 37 133 142 255 
9.36734 -1.54852 1.37833 31 149 139 255 
9.35203 -1.54947 1.28337 34 141 141 255 
9.37172 -1.56273 1.19522 45 113 142 255 
9.37797 -1.57065 1.10859 37 132 142 255 
9.37602 -1.54995 1.03071 50 101 142 255 
9.30135 -1.54608 0.932827 65 66 135 255 
9.31738 -1.55534 0.844722 72 31 112 255 
9.31615 -1.56531 0.756748 71 17 100 255 
9.26455 -1.53318 0.678065 72 20 103 255 
9.31535 -1.55007 0.592476 72 26 108 255 
9.40746 -1.57544 0.508237 49 104 142 255 
9.42613 -1.58716 0.419019 34 140 141 255 
9.43297 -1.56443 0.343932 33 142 141 255 
9.43929 -1.57408 0.253932 34 139 141 255 
9.43789 -1.58223 0.163697 34 140 141 255 
9.4373 -1.59243 0.0751697 34 139 141 255 
9.43781 -1.56692 -0.00166976 36 135 142 255 
9.44853 -1.57901 -0.09196 35 138 141 255 
9.46169 -1.58961 -0.18087 34 139 141 255 
9.45691 -1.59913 -0.271256 37 133 142 255 
9.44063 -1.57246 -0.347596 35 137 142 255 
9.44255 -1.5814 -0.43643 42 118 142 255 
9.45274 -1.58981 -0.527522 41 121 142 255 
9.45753 -1.60093 -0.61861 37 132 142 255 
9.46411 -1.57807 -0.696179 38 129 142 255 
9.46944 -1.5893 -0.786044 36 134 142 255 
9.52514 -1.60711 -0.882508 38 130 142 255 
9.601 -1.62521 -0.98224 61 78 138 255 
9.06953 -1.51715 -1.0022 67 61 132 255 
8.56711 -1.4394 -1.02973 66 63 133 255 
8.03559 -1.35723 -1.04396 66 64 134 255 
7.59384 -1.28817 -1.06057 65 68 135 255 
7.15985 -1.20155 -1.06041 66 65 134 255 
6.79453 -1.14402 -1.07158 62 76 138 255 
6.43248 -1.08762 -1.0765 60 79 138 255 
6.14365 -1.04217 -1.0898 62 73 137 255 
5.8698 -0.989261 -1.0925 64 70 136 255 
5.61253 -0.948021 -1.09817 62 76 138 255 
5.39396 -0.912022 -1.11001 62 76 138 255 
5.16764 -0.875681 -1.11694 61 77 138 255 
4.99877 -0.845151 -1.12486 59 81 139 255 
4.7989 -0.812313 -1.12725 60 80 139 255 
4.62304 -0.783333 -1.13351 61 78 138 255 
4.437 -0.75028 -1.13533 65 66 135 255 
4.26734 -0.725312 -1.13154 64 69 136 255 
4.13314 -0.702586 -1.13749 64 69 136 255 
3.97989 -0.675071 -1.13772 67 62 133 255 
3.84379 -0.648593 -1.14211 66 64 134 255 
10.4709 -1.80266 3.19169 61 78 138 255 
10.5346 -1.80431 3.091 60 80 139 255 
10.9643 -1.87387 3.09939 63 72 137 255 
10.7222 -1.83271 2.92077 60 80 139 255 
10.656 -1.82878 2.80618 71 44 122 255 
10.5943 -1.81644 2.67602 61 77 138 255 
18.5535 -3.18424 4.49511 72 27 109 255 
12.7079 -2.18352 2.95315 72 37 118 255 
12.0406 -2.06425 2.69487 72 35 116 255 
12.3111 -2.113 2.62545 72 22 104 255 
9.33925 -1.60788 1.89878 38 130 142 255 
9.37493 -1.61756 1.81479 33 143 141 255 
9.38974 -1.60978 1.73817 33 143 141 255 
9.38769 -1.61293 1.64358 31 152 139 255 
9.37834 -1.61798 1.54822 31 148 140 255 
9.38062 -1.62696 1.46027 31 150 139 255 
9.41326 -1.6155 1.38651 31 151 139 255 
9.38336 -1.61388 1.289 42 120 142 255 
9.38542 -1.62426 1.19821 31 148 140 255 
9.40339 -1.63429 1.11276 32 146 140 255 
9.40357 -1.61384 1.0348 46 110 142 255 
9.40839 -1.62325 0.944542 31 151 139 255 
9.40482 -1.62931 0.85354 32 146 140 255 
9.34565 -1.62929 0.759942 50 102 142 255 
9.311 -1.59962 0.682171 72 26 108 255 
9.35287 -1.61535 0.595481 72 35 116 255 
9.41238 -1.6357 0.509035 44 114 142 255 
9.43787 -1.64875 0.419982 32 146 140 255 
9.43796 -1.62482 0.344471 30 155 138 255 
9.44718 -1.63504 0.25441 32 146 140 255 
9.44377 -1.64285 0.16397 32 147 140 255 
9.44114 -1.65272 0.0752796 32 146 140 255 
9.45857 -1.63007 -0.00167517 31 152 139 255 
9.45344 -1.63952 -0.092104 32 146 140 255 
9.45866 -1.64884 -0.181002 33 144 141 255 
9.45776 -1.65902 -0.271567 32 146 140 255 
9.47216 -1.63751 -0.34912 31 150 139 255 
9.46613 -1.64513 -0.437978 32 147 140 255 
9.46248 -1.65121 -0.528621 47 108 142 255 
9.46817 -1.66255 -0.619962 35 137 142 255 
9.47292 -1.63934 -0.697554 33 143 141 255 
9.46147 -1.64772 -0.786207 35 138 141 255 
9.53472 -1.66896 -0.884328 34 139 141 255 
9.63887 -1.69253 -0.987158 57 85 140 255 
9.05319 -1.57158 -1.00145 69 55 129 255 
8.55322 -1.49108 -1.02914 64 70 136 255 
8.03395 -1.40771 -1.04485 68 59 132 255 
7.59067 -1.3356 -1.06125 68 57 131 255 
7.17378 -1.24919 -1.06359 61 78 138 255 
6.78738 -1.18569 -1.07158 61 77 138 255 
6.43443 -1.1286 -1.07796 62 74 137 255 
6.14685 -1.08156 -1.09152 63 71 136 255 
5.87427 -1.02712 -1.09449 62 74 137 255 
5.60467 -0.982102 -1.09779 62 74 137 255 
5.40757 -0.948488 -1.11398 58 83 139 255 
5.16506 -0.90788 -1.11757 58 84 140 255 
4.99829 -0.87665 -1.12594 57 85 140 255 
4.79671 -0.842248 -1.12793 60 80 139 255 
4.60666 -0.809666 -1.13069 62 73 137 255 
4.45619 -0.781679 -1.14145 64 70 136 255 
4.29044 -0.756354 -1.13887 65 66 135 255 
4.11925 -0.726258 -1.13487 63 71 136 255 
4.00221 -0.704148 -1.14531 64 70 136 255 
3.83691 -0.671669 -1.14127 67 61 132 255 
10.4474 -1.86468 3.18795 61 78 138 255 
10.5271 -1.86959 3.09211 60 80 139 255 
11.0446 -1.95742 3.12543 59 82 139 255 
12.6193 -2.23676 3.44124 72 31 112 255 
10.6951 -1.90312 2.8195 56 89 140 255 
10.6174 -1.88753 2.68471 62 76 138 255 
18.1984 -3.23838 4.41382 72 22 104 255 
13.8833 -2.47327 3.22976 72 26 108 255 
12.0537 -2.14271 2.70068 72 26 108 255 
17.4746 -3.10974 3.73063 72 32 113 255 
9.34176 -1.6674 1.90134 41 122 142 255 
9.37256 -1.67644 1.81629 32 147 140 255 
9.3855 -1.6684 1.73925 32 146 140 255 
9.38925 -1.67258 1.64562 31 154 138 255 
9.39156 -1.67967 1.55207 31 158 137 255 
9.39186 -1.68834 1.4636 31 152 139 255 
9.40804 -1.6741 1.38723 31 158 137 255 
9.39377 -1.67508 1.29182 35 137 142 255 
9.39285 -1.68497 1.20046 31 154 138 255 
9.41567 -1.69601 1.11542 31 150 139 255 
9.40524 -1.6736 1.0361 40 124 142 255 
9.40217 -1.68165 0.944936 31 159 136 255 
9.41131 -1.68998 0.855054 31 148 140 255 
9.39041 -1.69653 0.764413 32 146 140 255 
9.37465 -1.66984 0.687572 52 96 141 255 
9.3752 -1.67852 0.597548 72 38 119 255 
9.41592 -1.6959 0.50978 41 121 142 255 
9.42167 -1.70557 0.419719 32 147 140 255 
9.4347 -1.68393 0.344723 30 157 137 255 
9.44976 -1.69527 0.254755 31 156 137 255 
9.4404 -1.70201 0.16409 31 150 139 255 
9.44263 -1.71276 0.0753739 31 151 139 255 
9.45232 -1.68878 -0.00167587 31 149 139 255 
9.44419 -1.69767 -0.0921136 31 150 139 255 
9.45033 -1.7072 -0.181039 33 145 140 255 
9.45035 -1.71756 -0.271652 33 145 140 255 
9.46292 -1.69578 -0.349157 31 150 139 255 
9.46176 -1.70424 -0.438251 33 145 140 255 
9.46494 -1.71155 -0.529335 48 106 142 255 
9.46859 -1.72258 -0.62067 35 138 141 255 
9.47152 -1.69902 -0.698205 31 149 139 255 
9.47178 -1.70946 -0.787921 32 146 140 255 
9.5292 -1.72832 -0.884782 35 137 142 255 
9.66746 -1.75876 -0.991172 59 82 139 255 
9.09915 -1.63713 -1.00762 71 42 122 255 
8.55955 -1.54636 -1.03103 63 71 136 255 
8.04761 -1.46105 -1.04777 67 61 132 255 
7.61255 -1.38766 -1.06548 69 56 130 255 
7.17475 -1.29477 -1.06489 62 73 137 255 
6.79554 -1.23013 -1.07404 61 78 138 255 
6.44874 -1.17194 -1.08154 61 77 138 255 
6.12556 -1.1166 -1.08894 66 64 134 255 
5.87173 -1.06385 -1.09521 59 81 139 255 
5.60337 -1.01735 -1.09874 58 84 140 255 
5.39876 -0.981124 -1.11339 59 82 139 255 
5.15939 -0.939555 -1.11757 60 80 139 255 
4.97745 -0.904509 -1.12247 59 82 139 255 
4.78666 -0.870793 -1.1268 61 77 138 255 
4.61786 -0.840877 -1.13468 63 72 137 255 
4.45894 -0.810394 -1.1434 65 68 135 255 
4.26764 -0.779363 -1.13407 64 69 136 255 
4.11186 -0.750999 -1.13408 63 72 137 255 
3.99214 -0.727657 -1.14368 63 72 137 255 
3.83932 -0.696398 -1.14323 66 64 134 255 
10.4508 -1.93154 3.19255 63 72 137 255 
16.9835 -3.12383 4.99405 72 36 117 255 
11.7477 -2.15646 3.32808 71 42 122 255 
11.7106 -2.14988 3.19696 72 36 117 255 
10.6775 -1.96765 2.81799 69 56 130 255 
10.5092 -1.93489 2.66031 54 92 141 255 
10.7191 -1.97537 2.60267 70 48 126 255 
10.6921 -1.97253 2.49013 72 35 116 255 
19.0703 -3.51085 4.27754 71 47 125 255 
17.2839 -3.18533 3.69402 72 26 108 255 
9.30435 -1.7197 1.89583 62 73 137 255 
9.35823 -1.7332 1.81554 33 143 141 255 
9.36347 -1.72382 1.73709 32 147 140 255 
9.37688 -1.7298 1.64528 30 155 138 255 
9.37913 -1.7369 1.55175 30 155 138 255 
9.38813 -1.7472 1.46466 31 156 137 255 
9.38592 -1.72964 1.38551 31 149 139 255 
9.38429 -1.73286 1.29195 31 151 139 255 
9.38624 -1.7433 1.20096 31 148 140 255 
9.40118 -1.75302 1.11496 32 146 140 255 
9.40457 -1.73308 1.03718 42 119 142 255 
9.39461 -1.73985 0.945232 31 149 139 255 
9.40958 -1.74934 0.855856 32 146 140 255 
9.37982 -1.75411 0.764413 33 142 141 255 
9.40052 -1.73403 0.690237 33 145 140 255 
9.4079 -1.74401 0.600303 31 150 139 255 
9.41221 -1.75492 0.510153 41 123 142 255 
9.41987 -1.765 0.420113 31 149 139 255 
9.42911 -1.7427 0.344902 30 155 138 255 
9.44213 -1.75377 0.254834 31 154 138 255 
9.42584 -1.75917 0.164022 31 151 139 255 
9.43587 -1.7714 0.0754053 31 149 139 255 
9.44867 -1.74802 -0.00167709 31 152 139 255 
9.43457 -1.75577 -0.0921232 33 144 141 255 
9.44262 -1.76571 -0.181096 33 142 141 255 
9.44749 -1.77699 -0.271878 33 142 141 255 
9.45135 -1.75363 -0.34912 31 148 140 255 
9.46684 -1.76519 -0.43898 31 148 140 255 
9.48468 -1.77529 -0.531039 34 139 141 255 
9.46667 -1.78231 -0.621249 40 125 142 255 
9.47269 -1.75929 -0.699073 33 144 141 255 
9.47581 -1.77029 -0.789144 34 141 141 255 
9.53897 -1.79062 -0.886693 36 134 142 255 
9.70244 -1.8267 -0.995889 63 72 137 255 
9.20621 -1.71478 -1.02062 70 52 128 255 
8.5538 -1.59958 -1.0315 67 61 132 255 
8.01705 -1.50638 -1.04498 65 66 135 255 
7.60194 -1.43398 -1.0652 70 52 128 255 
7.17153 -1.33967 -1.06561 59 81 139 255 
6.80146 -1.27435 -1.07619 65 66 135 255 
6.44531 -1.21222 -1.08219 62 74 137 255 
6.11956 -1.15435 -1.08911 65 66 135 255 
5.86606 -1.10004 -1.09539 59 82 139 255 
5.62308 -1.05661 -1.10386 56 88 140 255 
5.40323 -1.01622 -1.11558 58 83 139 255 
5.15065 -0.970652 -1.11694 60 80 139 255 
4.98332 -0.937199 -1.12507 58 83 139 255 
4.78314 -0.900507 -1.12725 60 79 138 255 
4.6088 -0.868476 -1.13374 62 74 137 255 
4.43578 -0.834333 -1.13876 65 68 135 255 
4.28369 -0.809486 -1.13963 62 73 137 255 
4.11192 -0.777111 -1.13539 61 77 138 255 
3.96679 -0.748213 -1.13772 64 70 136 255 
3.84535 -0.721891 -1.14633 65 68 135 255 
10.5432 -2.01559 3.22448 59 82 139 255 
11.2338 -2.13762 3.30714 68 58 131 255 
11.9481 -2.26912 3.38875 72 28 110 255 
11.2474 -2.13627 3.07404 63 72 137 255 
10.8135 -2.0614 2.85718 70 50 126 255 
10.6658 -2.03148 2.70307 62 73 137 255 
17.6529 -3.36529 4.29118 71 44 122 255 
10.697 -2.04138 2.49415 72 35 116 255 
19.1261 -3.6426 4.29499 72 29 111 255 
17.4794 -3.33238 3.74009 71 17 100 255 
9.26858 -1.77197 1.89073 72 31 112 255 
9.34935 -1.79096 1.81591 34 139 141 255 
9.36915 -1.78437 1.74015 31 150 139 255 
9.3748 -1.78897 1.64681 31 150 139 255 
9.37024 -1.79479 1.55207 31 150 139 255 
9.39373 -1.80795 1.46724 31 150 139 255 
9.38485 -1.78905 1.38695 36 135 142 255 
9.37543 -1.79078 1.29222 31 148 140 255 
9.38121 -1.80198 1.20171 32 146 140 255 
9.39512 -1.81161 1.11554 33 144 141 255 
9.39961 -1.79187 1.03782 44 115 142 255 
9.39646 -1.7999 0.946511 31 148 140 255 
9.41236 -1.80967 0.857103 33 143 141 255 
9.41097 -1.81977 0.767847 36 135 142 255 
9.42497 -1.79841 0.692829 32 146 140 255 
9.42153 -1.80641 0.601868 31 148 140 255 
9.4199 -1.81623 0.511164 48 106 142 255 
9.42946 -1.82676 0.421033 35 137 142 255 
9.45652 -1.80784 0.346304 31 156 137 255 
9.45181 -1.81563 0.255391 33 142 141 255 
9.43942 -1.82171 0.164449 34 139 141 255 
9.45035 -1.83422 0.0756095 38 130 142 255 
9.45446 -1.80916 -0.00168005 34 141 141 255 
9.45014 -1.81873 -0.0923823 36 134 142 255 
9.45812 -1.82874 -0.181605 38 130 142 255 
9.45505 -1.83855 -0.272415 40 124 142 255 
9.46397 -1.8161 -0.349991 37 133 142 255 
9.4725 -1.82646 -0.439754 38 129 142 255 
9.47851 -1.8344 -0.531313 42 118 142 255 
9.47025 -1.84322 -0.622214 59 82 139 255 
9.4911 -1.82303 -0.701244 39 128 142 255 
9.48434 -1.83218 -0.790776 42 118 142 255 
9.54051 -1.85158 -0.887876 38 130 142 255 
9.70081 -1.8881 -0.996893 65 66 135 255 
9.2287 -1.77763 -1.02431 68 57 131 255 
8.54383 -1.65204 -1.0315 68 57 131 255 
8.00668 -1.55535 -1.04485 68 58 131 255 
7.53174 -1.46865 -1.05661 69 53 129 255 
7.15929 -1.3829 -1.06503 60 80 139 255 
6.8003 -1.31737 -1.07727 63 71 136 255 
6.43678 -1.25155 -1.08203 62 73 137 255 
6.11719 -1.19282 -1.08997 63 72 137 255 
5.86113 -1.13639 -1.09575 59 82 139 255 
5.60589 -1.08903 -1.10177 58 84 140 255 
5.37765 -1.04562 -1.1116 59 81 139 255 
5.16187 -1.0056 -1.12069 62 74 137 255 
4.96694 -0.965709 -1.12269 57 85 140 255 
4.79473 -0.933189 -1.13131 59 82 139 255 
4.59384 -0.89488 -1.13139 61 78 138 255 
4.43534 -0.86246 -1.13998 65 66 135 255 
4.29194 -0.838352 -1.14317 61 77 138 255 
4.12412 -0.805657 -1.14011 62 74 137 255 
3.97629 -0.775302 -1.14179 64 70 136 255 
3.8465 -0.746569 -1.14801 64 70 136 255 
10.6847 -2.11068 3.27167 50 100 142 255 
18.1447 -3.56816 5.34799 71 19 101 255 
10.3261 -2.02679 2.93217 56 88 140 255 
10.8228 -2.1245 2.96149 72 33 115 255 
10.6383 -2.09573 2.81422 70 51 127 255 
10.4628 -2.0594 2.65476 62 74 137 255 
13.2229 -2.60497 3.21816 72 35 116 255 
10.7139 -2.11283 2.50107 63 72 137 255 
13.9419 -2.74401 3.13453 72 27 109 255 
30.0434 -5.91894 6.4361 71 17 100 255 
12.4271 -2.45494 2.53806 70 50 126 255 
9.38348 -1.85726 1.82472 39 128 142 255 
9.38795 -1.84771 1.74571 37 133 142 255 
9.38878 -1.85141 1.65123 34 139 141 255 
9.39003 -1.85838 1.55721 34 141 141 255 
9.40573 -1.87018 1.47088 33 143 141 255 
9.39408 -1.85062 1.38996 42 118 142 255 
9.39732 -1.8548 1.29678 34 141 141 255 
9.3982 -1.86511 1.20533 35 138 141 255 
9.41695 -1.87582 1.11948 37 133 142 255 
9.42258 -1.85624 1.0416 45 112 142 255 
9.42136 -1.86467 0.950154 33 142 141 255 
9.43918 -1.87496 0.860576 33 142 141 255 
9.45534 -1.88861 0.772399 32 146 140 255 
9.45095 -1.86353 0.695566 34 141 141 255 
9.46215 -1.87446 0.605187 31 151 139 255 
9.44383 -1.88102 0.513079 47 107 142 255 
9.46216 -1.8934 0.423004 31 150 139 255 
9.46878 -1.87048 0.347167 32 146 140 255 
9.46794 -1.87904 0.256134 31 150 139 255 
9.46728 -1.88741 0.165133 32 146 140 255 
9.47813 -1.90003 0.0759237 31 148 140 255 
9.47654 -1.87373 -0.00168599 33 143 141 255 
9.48686 -1.88624 -0.0928527 32 147 140 255 
9.48005 -1.8934 -0.182246 33 145 140 255 
9.48573 -1.905 -0.273631 34 139 141 255 
9.47323 -1.87822 -0.350754 33 144 141 255 
9.48953 -1.89021 -0.441075 34 141 141 255 
9.49058 -1.89722 -0.532632 37 133 142 255 
9.49105 -1.90778 -0.624338 50 101 142 255 
9.50908 -1.88705 -0.703416 34 141 141 255 
9.51495 -1.89873 -0.794285 34 139 141 255 
9.56217 -1.91674 -0.890969 37 133 142 255 
9.72124 -1.95405 -1.0002 64 70 136 255 
9.23322 -1.83733 -1.02604 67 62 133 255 
8.55008 -1.70774 -1.0335 69 55 129 255 
8.01838 -1.60874 -1.04765 68 59 132 255 
7.51676 -1.51366 -1.05579 70 48 126 255 
7.15746 -1.42816 -1.06605 62 76 138 255 
6.795 -1.35965 -1.07773 62 73 137 255 
6.44446 -1.29413 -1.08464 65 68 135 255 
6.11266 -1.23092 -1.09049 60 79 138 255 
5.86562 -1.17464 -1.09792 58 83 139 255 
5.60295 -1.12418 -1.10253 60 80 139 255 
5.38266 -1.08091 -1.11398 57 86 140 255 
5.17862 -1.04189 -1.1257 59 82 139 255 
4.98963 -1.00193 -1.12919 58 83 139 255 
4.79465 -0.963743 -1.13267 58 84 140 255 
4.5835 -0.922092 -1.13022 61 77 138 255 
4.4195 -0.887558 -1.13729 66 63 133 255 
4.26775 -0.860845 -1.13811 64 70 136 255 
4.12856 -0.832856 -1.14272 59 81 139 255 
3.9658 -0.798546 -1.14016 65 68 135 255 
3.85314 -0.77242 -1.15139 66 65 134 255 
10.7551 -2.19323 3.29727 52 97 141 255 
18.145 -3.68401 5.35466 71 45 123 255 
10.3097 -2.08935 2.9311 72 40 120 255 
12.1631 -2.46521 3.33232 72 32 113 255 
10.1927 -2.07299 2.69966 57 86 140 255 
10.2959 -2.09225 2.61562 71 44 122 255 
10.3158 -2.09809 2.51372 64 69 136 255 
10.4572 -2.12894 2.44414 62 73 137 255 
12.3047 -2.50029 2.76983 70 10 93 255 
30.0027 -6.10239 6.43527 71 14 97 255 
12.357 -2.51998 2.52686 72 33 115 255 
9.40848 -1.92227 1.83184 33 142 141 255 
9.4256 -1.91527 1.75486 32 147 140 255 
9.41587 -1.91685 1.65804 32 147 140 255 
9.40456 -1.9213 1.56155 31 150 139 255 
9.41732 -1.93262 1.47452 31 148 140 255 
9.42328 -1.91651 1.396 31 150 139 255 
9.41683 -1.91876 1.30108 31 150 139 255 
9.40991 -1.92752 1.20832 31 148 140 255 
9.42959 -1.93857 1.12237 38 129 142 255 
9.43635 -1.91917 1.0444 38 130 142 255 
9.42827 -1.92623 0.952025 31 154 138 255 
9.43628 -1.93464 0.861378 31 148 140 255 
9.45627 -1.94921 0.773437 31 149 139 255 
9.46865 -1.92746 0.697727 31 154 138 255 
9.46025 -1.93448 0.605813 31 161 136 255 
9.45265 -1.94315 0.514196 42 118 142 255 
9.46406 -1.95425 0.423617 31 150 139 255 
9.47768 -1.93274 0.347922 31 156 137 255 
9.46799 -1.93951 0.256452 31 152 139 255 
9.46923 -1.94829 0.165373 31 150 139 255 
9.47805 -1.96059 0.0760179 31 151 139 255 
9.48936 -1.93684 -0.00169035 31 154 138 255 
9.49176 -1.94783 -0.0930159 31 153 138 255 
9.48197 -1.95435 -0.182509 32 147 140 255 
9.48855 -1.96621 -0.274055 33 143 141 255 
9.48601 -1.94132 -0.351661 31 149 139 255 
9.49634 -1.95222 -0.44194 33 143 141 255 
9.49343 -1.95844 -0.533456 34 141 141 255 
9.49186 -1.96862 -0.625175 52 97 141 255 
9.5071 -1.94736 -0.704139 33 145 140 255 
9.51288 -1.95908 -0.795101 35 138 141 255 
9.56291 -1.978 -0.892152 35 137 142 255 
9.70517 -2.01286 -0.999803 62 73 137 255 
9.22956 -1.89555 -1.02691 64 69 136 255 
8.54625 -1.76157 -1.03432 70 51 127 255 
8.01516 -1.65932 -1.04854 68 58 131 255 
7.52188 -1.56278 -1.05784 68 57 131 255 
7.18055 -1.47864 -1.07081 62 73 137 255 
6.80588 -1.40532 -1.0808 63 71 136 255 
6.45475 -1.33745 -1.08773 63 72 137 255 
6.10113 -1.2676 -1.0898 61 77 138 255 
5.87275 -1.2136 -1.10063 57 86 140 255 
5.58345 -1.15595 -1.10007 60 79 138 255 
5.36921 -1.11253 -1.11259 57 86 140 255 
5.18362 -1.07603 -1.1282 61 78 138 255 
4.99677 -1.0353 -1.13222 56 88 140 255 
4.76766 -0.988792 -1.1277 60 80 139 255 
4.57585 -0.949803 -1.12975 60 79 138 255 
4.41113 -0.914069 -1.13655 65 68 135 255 
4.2567 -0.885832 -1.13659 62 76 138 255 
4.12337 -0.858173 -1.14272 61 78 138 255 
3.98062 -0.826976 -1.14585 62 74 137 255 
3.84645 -0.795659 -1.15083 64 69 136 255 
10.7696 -2.2651 3.3059 59 82 139 255 
10.4507 -2.18868 3.08794 60 79 138 255 
10.2703 -2.14705 2.92358 49 103 142 255 
10.3497 -2.16386 2.83909 57 86 140 255 
10.1447 -2.12814 2.69037 55 91 141 255 
10.2202 -2.14225 2.59968 58 84 140 255 
10.2333 -2.14677 2.49677 55 91 141 255 
11.1565 -2.3427 2.61091 71 44 122 255 
30.284 -6.34742 6.82571 71 14 97 255 
30.3641 -6.37016 6.52105 71 14 97 255 
12.9314 -2.71987 2.64769 71 19 101 255 
9.41092 -1.983 1.83465 33 144 141 255 
9.42041 -1.97448 1.75612 31 151 139 255 
9.41743 -1.97742 1.66042 31 151 139 255 
9.41095 -1.98283 1.5646 31 149 139 255 
9.41979 -1.99344 1.47679 30 155 138 255 
9.42297 -1.97673 1.39772 31 161 136 255 
9.41555 -1.97874 1.30255 35 137 142 255 
9.40955 -1.98769 1.20982 31 150 139 255 
9.43015 -1.99907 1.12388 33 143 141 255 
9.44385 -1.98111 1.04656 36 134 142 255 
9.42795 -1.9865 0.953206 30 157 137 255 
9.433 -1.99436 0.86218 31 154 138 255 
9.449 -2.00823 0.773836 31 153 138 255 
9.47129 -1.98859 0.698807 31 156 137 255 
9.44235 -1.99126 0.605437 31 161 136 255 
9.4259 -1.99801 0.513398 44 113 142 255 
9.44993 -2.01187 0.423529 31 148 140 255 
9.46565 -1.99085 0.347922 30 155 138 255 
9.46667 -1.99984 0.256744 31 153 138 255 
9.46004 -2.00697 0.165424 31 149 139 255 
9.45997 -2.01745 0.0759708 31 148 140 255 
9.47631 -1.99482 -0.00169018 31 153 138 255 
9.4718 -2.00438 -0.0929391 32 146 140 255 
9.47371 -2.01333 -0.182585 32 146 140 255 
9.47924 -2.02502 -0.27414 33 142 141 255 
9.48467 -2.00176 -0.35206 31 152 139 255 
9.48419 -2.01046 -0.44194 33 142 141 255 
9.47635 -2.01562 -0.533182 35 137 142 255 
9.49327 -2.02974 -0.626076 37 131 142 255 
9.49985 -2.00669 -0.704501 32 147 140 255 
9.51433 -2.02031 -0.796243 34 141 141 255 
9.57689 -2.04225 -0.894608 36 135 142 255 
9.79187 -2.09359 -1.01004 62 76 138 255 
9.17497 -1.94308 -1.02214 69 56 130 255 
8.55665 -1.81852 -1.03691 71 45 123 255 
8.0087 -1.7093 -1.04905 68 57 131 255 
7.57996 -1.62343 -1.06739 68 57 131 255 
7.1694 -1.52226 -1.07053 62 73 137 255 
6.80583 -1.4489 -1.08218 62 76 138 255 
6.44835 -1.37745 -1.08806 61 78 138 255 
6.0942 -1.30522 -1.08997 60 79 138 255 
5.86135 -1.24879 -1.0999 55 90 140 255 
5.57241 -1.18937 -1.09931 60 80 139 255 
5.34408 -1.14156 -1.10881 59 81 139 255 
5.15014 -1.10208 -1.12236 61 77 138 255 
4.98937 -1.06574 -1.132 55 90 140 255 
4.75864 -1.01742 -1.12703 58 84 140 255 
4.58229 -0.980506 -1.1328 60 80 139 255 
4.40828 -0.941726 -1.13729 64 69 136 255 
4.25118 -0.911934 -1.13659 61 78 138 255 
4.12841 -0.885684 -1.1456 60 79 138 255 
3.97829 -0.851989 -1.14667 62 74 137 255 
3.84337 -0.819646 -1.15139 62 73 137 255 
10.2968 -2.23173 3.16493 52 96 141 255 
10.2728 -2.21729 3.03933 54 92 141 255 
10.1307 -2.18284 2.88761 48 105 142 255 
10.2201 -2.2023 2.80719 58 83 139 255 
10.0927 -2.18197 2.68007 67 62 133 255 
10.2002 -2.20349 2.59799 64 70 136 255 
10.1743 -2.19966 2.48562 56 89 140 255 
10.1063 -2.18701 2.36824 71 17 100 255 
13.2591 -2.86409 2.99236 72 24 106 255 
12.0731 -2.6103 2.59624 71 16 99 255 
12.9049 -2.79708 2.64572 72 27 109 255 
9.38994 -2.03883 1.83296 39 128 142 255 
9.41004 -2.03266 1.75648 31 148 140 255 
9.4109 -2.03642 1.66144 31 151 139 255 
9.40921 -2.04285 1.56636 31 151 139 255 
9.41993 -2.05394 1.47876 31 151 139 255 
9.42227 -2.03702 1.39944 31 156 137 255 
9.41679 -2.03942 1.30443 40 125 142 255 
9.40494 -2.04707 1.21082 32 147 140 255 
9.42547 -2.05859 1.1248 37 131 142 255 
9.44318 -2.04154 1.04785 36 134 142 255 
9.41851 -2.04495 0.953501 31 152 139 255 
9.42643 -2.05347 0.862714 32 147 140 255 
9.43456 -2.06574 0.773676 31 149 139 255 
9.45696 -2.04625 0.698663 31 156 137 255 
9.428 -2.04873 0.605312 30 155 138 255 
9.41249 -2.0556 0.513345 46 111 142 255 
9.44619 -2.07174 0.423924 33 145 140 255 
9.45716 -2.04974 0.348065 31 152 139 255 
9.45715 -2.05852 0.256824 33 145 140 255 
9.45633 -2.0669 0.165578 33 142 141 255 
9.45816 -2.07782 0.0760572 34 140 141 255 
9.47074 -2.05441 -0.0016914 30 155 138 255 
9.47691 -2.06629 -0.0931119 33 145 140 255 
9.47583 -2.07463 -0.182868 36 135 142 255 
9.48421 -2.08701 -0.274649 39 127 142 255 
9.49272 -2.06438 -0.352822 31 150 139 255 
9.48338 -2.07117 -0.442486 33 142 141 255 
9.47161 -2.07544 -0.533621 39 126 142 255 
9.49818 -2.09182 -0.627234 42 120 142 255 
9.48736 -2.06494 -0.704501 39 128 142 255 
9.53096 -2.08505 -0.79869 39 127 142 255 
9.5846 -2.10546 -0.896519 35 138 141 255 
9.80702 -2.15984 -1.01295 63 71 136 255 
9.20658 -2.00888 -1.02702 69 56 130 255 
8.55406 -1.8729 -1.03797 70 51 127 255 
8.00969 -1.76096 -1.05057 69 55 129 255 
7.56405 -1.66862 -1.06657 67 61 132 255 
7.19183 -1.5732 -1.0753 62 74 137 255 
6.8055 -1.49254 -1.08357 61 78 138 255 
6.43593 -1.41614 -1.0874 59 82 139 255 
6.09666 -1.34492 -1.09187 61 78 138 255 
5.84877 -1.28368 -1.099 57 85 140 255 
5.58418 -1.22775 -1.1031 57 85 140 255 
5.35037 -1.17728 -1.1116 60 79 138 255 
5.14137 -1.13324 -1.12195 61 78 138 255 
4.96462 -1.09235 -1.12789 57 86 140 255 
4.76183 -1.04869 -1.12928 57 86 140 255 
4.57619 -1.0086 -1.1328 57 85 140 255 
4.41568 -0.971674 -1.14071 63 71 136 255 
4.24456 -0.937793 -1.13634 62 76 138 255 
4.12007 -0.910374 -1.14482 61 78 138 255 
3.96829 -0.875347 -1.14531 61 78 138 255 
3.84483 -0.844654 -1.15336 64 70 136 255 
10.2699 -2.29195 3.1609 60 79 138 255 
10.2533 -2.27903 3.03766 59 81 139 255 
10.1143 -2.24433 2.88681 52 97 141 255 
10.1357 -2.24928 2.78774 52 96 141 255 
10.0744 -2.2428 2.67881 59 82 139 255 
10.1154 -2.25023 2.57987 53 94 141 255 
10.1653 -2.2631 2.48678 58 83 139 255 
17.5091 -3.90158 4.10847 71 19 101 255 
18.0731 -4.0202 4.08431 72 36 117 255 
17.9698 -4.00076 3.86947 72 20 103 255 
14.9804 -3.3433 3.07538 72 26 108 255 
9.37438 -2.09577 1.8324 41 121 142 255 
9.40315 -2.09165 1.75756 34 141 141 255 
9.41362 -2.09756 1.66416 33 143 141 255 
9.42444 -2.10679 1.57102 33 143 141 255 
9.4303 -2.1169 1.4824 35 138 141 255 
9.43181 -2.09975 1.40275 31 150 139 255 
9.41861 -2.10039 1.30644 35 137 142 255 
9.41447 -2.10973 1.21369 46 110 142 255 
9.43204 -2.12074 1.12712 50 102 142 255 
9.44018 -2.10161 1.04893 42 120 142 255 
9.44366 -2.11117 0.957341 36 135 142 255 
9.44864 -2.11912 0.86592 37 131 142 255 
9.4499 -2.12995 0.775992 39 127 142 255 
9.4491 -2.10532 0.699023 35 136 142 255 
9.44934 -2.11417 0.607504 33 142 141 255 
9.45815 -2.12646 0.516537 55 91 141 255 
9.46839 -2.13758 0.4255 39 127 142 255 
9.46586 -2.11252 0.348856 36 135 142 255 
9.46677 -2.12154 0.257434 38 129 142 255 
9.49517 -2.13652 0.166484 39 128 142 255 
9.48814 -2.14552 0.0764027 41 122 142 255 
9.49406 -2.12055 -0.00169786 37 131 142 255 
9.48649 -2.12944 -0.0933327 38 130 142 255 
9.4951 -2.13999 -0.18349 37 132 142 255 
9.49755 -2.15113 -0.275412 43 116 142 255 
9.48865 -2.12455 -0.353149 37 133 142 255 
9.50071 -2.13611 -0.443898 39 126 142 255 
9.51129 -2.14538 -0.536588 43 116 142 255 
9.52799 -2.15977 -0.630066 44 113 142 255 
9.50662 -2.13032 -0.706889 41 121 142 255 
9.54716 -2.15006 -0.801138 45 113 142 255 
9.58025 -2.1662 -0.897338 35 136 142 255 
9.82172 -2.22635 -1.01586 65 68 135 255 
9.1999 -2.06664 -1.02767 70 48 126 255 
8.54047 -1.92491 -1.03774 70 50 126 255 
8.00164 -1.81073 -1.05095 66 63 133 255 
7.5643 -1.71742 -1.06807 68 58 131 255 
7.1608 -1.61251 -1.07212 66 65 134 255 
6.80971 -1.53732 -1.08572 62 73 137 255 
6.43193 -1.45669 -1.08822 62 76 138 255 
6.1027 -1.38557 -1.09445 59 82 139 255 
5.8523 -1.32214 -1.10117 59 82 139 255 
5.58708 -1.26438 -1.10518 59 81 139 255 
5.34591 -1.21073 -1.1122 59 82 139 255 
5.15626 -1.16974 -1.12674 60 79 138 255 
4.94259 -1.11934 -1.12442 57 86 140 255 
4.74485 -1.07552 -1.1268 57 86 140 255 
4.55949 -1.0343 -1.13022 59 82 139 255 
4.40207 -0.997036 -1.13876 65 68 135 255 
4.24345 -0.964892 -1.13761 59 81 139 255 
4.11535 -0.935851 -1.14508 63 71 136 255 
3.96472 -0.900106 -1.14585 61 77 138 255 
3.81805 -0.863361 -1.14689 66 65 134 255 
10.2183 -2.34635 3.1494 47 107 142 255 
10.1474 -2.32091 3.01043 43 116 142 255 
10.2149 -2.33251 2.91956 62 76 138 255 
10.0991 -2.30627 2.78152 54 92 141 255 
10.152 -2.32554 2.70318 58 83 139 255 
10.1487 -2.32308 2.59195 57 86 140 255 
10.1579 -2.32695 2.4884 70 52 128 255 
17.8896 -4.10174 4.20358 72 37 118 255 
18.0424 -4.12971 4.08302 72 24 106 255 
14.879 -3.40859 3.20838 70 51 127 255 
13.6179 -3.12706 2.79955 71 42 122 255 
9.38719 -2.15919 1.83746 41 122 142 255 
9.44384 -2.16159 1.76761 34 139 141 255 
9.45532 -2.16783 1.67385 34 141 141 255 
9.45269 -2.17409 1.57792 33 142 141 255 
9.44602 -2.18139 1.48695 33 143 141 255 
9.45155 -2.16509 1.40763 32 146 140 255 
9.44901 -2.16812 1.31248 33 145 140 255 
9.45645 -2.18016 1.2208 33 144 141 255 
9.45078 -2.18596 1.13094 39 127 142 255 
9.44939 -2.1646 1.05141 42 120 142 255 
9.46447 -2.17688 0.960787 31 149 139 255 
9.47331 -2.18579 0.869394 32 146 140 255 
9.46482 -2.19442 0.778307 33 144 141 255 
9.48267 -2.17396 0.70248 31 154 138 255 
9.4712 -2.18017 0.609758 31 153 138 255 
9.47509 -2.19143 0.518187 46 110 142 255 
9.51056 -2.20852 0.427996 42 119 142 255 
9.48779 -2.17862 0.35015 45 112 142 255 
9.48962 -2.1879 0.258415 42 119 142 255 
9.50624 -2.20038 0.166912 45 113 142 255 
9.49136 -2.20755 0.0765363 44 115 142 255 
9.51011 -2.18549 -0.00170309 47 107 142 255 
9.50248 -2.19436 -0.0936206 45 112 142 255 
9.49543 -2.20137 -0.183753 44 114 142 255 
9.49974 -2.21299 -0.275864 42 119 142 255 
9.48128 -2.18408 -0.353367 45 112 142 255 
9.51468 -2.20067 -0.445173 43 117 142 255 
9.50184 -2.2046 -0.536808 41 122 142 255 
9.52719 -2.22113 -0.630903 40 125 142 255 
9.52156 -2.19511 -0.708988 44 114 142 255 
9.54252 -2.21062 -0.801873 41 122 142 255 
9.58617 -2.22946 -0.899157 35 136 142 255 
9.8602 -2.29877 -1.02128 66 63 133 255 
9.23063 -2.13312 -1.03254 69 56 130 255 
8.56042 -1.98468 -1.04162 70 50 126 255 
8.0097 -1.86429 -1.05349 67 61 132 255 
7.55844 -1.76493 -1.06875 68 58 131 255 
7.16427 -1.65955 -1.07414 65 66 135 255 
6.81266 -1.58198 -1.08772 62 76 138 255 
6.43152 -1.49815 -1.08968 60 79 138 255 
6.096 -1.42344 -1.09479 61 78 138 255 
5.84982 -1.35936 -1.10225 57 85 140 255 
5.59356 -1.30198 -1.10802 57 85 140 255 
5.35079 -1.2464 -1.11478 55 91 141 255 
5.14994 -1.20158 -1.12695 62 76 138 255 
4.94609 -1.15208 -1.12681 54 93 141 255 
4.76473 -1.11081 -1.13312 58 84 140 255 
4.56536 -1.06513 -1.13327 59 81 139 255 
4.38548 -1.02161 -1.13606 62 76 138 255 
4.24687 -0.993114 -1.14014 62 73 137 255 
4.12081 -0.963722 -1.14822 60 79 138 255 
3.9535 -0.923103 -1.14423 60 79 138 255 
3.81455 -0.887207 -1.14745 66 64 134 255 
10.1841 -2.40438 3.14335 58 83 139 255 
10.1591 -2.38929 3.01821 55 90 140 255 
10.0851 -2.36806 2.88654 52 97 141 255 
10.1628 -2.38652 2.80304 51 98 141 255 
10.1987 -2.40221 2.71951 56 89 140 255 
10.2476 -2.41198 2.62094 72 27 109 255 
10.1538 -2.39169 2.49096 72 24 106 255 
14.7474 -3.47668 3.4702 72 40 120 255 
14.7288 -3.4665 3.33789 72 32 113 255 
13.6014 -3.20387 2.93707 72 28 110 255 
13.6166 -3.21484 2.80328 72 31 112 255 
9.40722 -2.22466 1.84402 35 136 142 255 
9.47254 -2.22942 1.77551 31 150 139 255 
9.45815 -2.22965 1.67674 31 153 138 255 
9.45743 -2.23636 1.58098 31 152 139 255 
9.444 -2.24205 1.48877 31 149 139 255 
9.46409 -2.22917 1.41151 31 158 137 255 
9.45192 -2.22992 1.31476 31 149 139 255 
9.46027 -2.24226 1.22305 31 153 138 255 
9.46038 -2.24942 1.13372 31 149 139 255 
9.46593 -2.2296 1.05475 32 146 140 255 
9.46933 -2.23926 0.962657 31 152 139 255 
9.47135 -2.24664 0.870463 31 153 138 255 
9.47445 -2.258 0.780224 31 151 139 255 
9.48565 -2.23599 0.703704 31 151 139 255 
9.47513 -2.24238 0.610885 31 159 136 255 
9.47701 -2.25322 0.519038 42 120 142 255 
9.49586 -2.2666 0.427953 31 151 139 255 
9.49856 -2.24253 0.351049 31 154 138 255 
9.48672 -2.24862 0.258707 31 149 139 255 
9.49839 -2.26005 0.167015 31 148 140 255 
9.49709 -2.2704 0.0766933 31 148 140 255 
9.50041 -2.24472 -0.00170379 31 149 139 255 
9.4937 -2.25377 -0.0936686 32 147 140 255 
9.49828 -2.26353 -0.184074 31 148 140 255 
9.50446 -2.27566 -0.276401 34 139 141 255 
9.5241 -2.25557 -0.355472 30 157 137 255 
9.51071 -2.26132 -0.445628 33 143 141 255 
9.5027 -2.26634 -0.537633 35 138 141 255 
9.53085 -2.28374 -0.632061 36 135 142 255 
9.54382 -2.262 -0.711665 33 145 140 255 
9.54332 -2.27259 -0.803096 34 141 141 255 
9.60428 -2.29588 -0.90216 37 133 142 255 
9.88074 -2.36758 -1.02489 66 63 133 255 
9.17675 -2.18007 -1.02799 68 57 131 255 
8.55581 -2.03901 -1.04256 69 53 129 255 
8.02319 -1.9194 -1.0568 67 62 133 255 
7.5388 -1.80919 -1.06752 68 59 132 255 
7.15684 -1.70416 -1.07457 66 63 133 255 
6.79994 -1.62306 -1.08726 63 72 137 255 
6.44811 -1.54378 -1.09408 59 82 139 255 
6.09865 -1.46358 -1.09686 62 76 138 255 
5.84902 -1.39706 -1.10369 58 84 140 255 
5.59215 -1.33787 -1.10935 56 89 140 255 
5.34495 -1.27967 -1.11518 56 88 140 255 
5.14247 -1.23316 -1.12695 58 83 139 255 
4.91045 -1.17559 -1.12031 57 86 140 255 
4.76445 -1.14161 -1.1347 53 94 141 255 
4.56347 -1.09425 -1.13445 60 80 139 255 
4.39987 -1.05346 -1.14145 63 72 137 255 
4.2294 -1.01644 -1.1371 62 73 137 255 
4.10637 -0.986959 -1.14587 62 76 138 255 
3.97209 -0.953183 -1.15128 61 78 138 255 
3.80343 -0.909257 -1.14576 64 69 136 255 
10.2064 -2.47585 3.15486 57 85 140 255 
10.1816 -2.4606 3.02932 47 108 142 255 
10.0938 -2.43555 2.89325 53 94 141 255 
10.5638 -2.54919 2.91792 68 58 131 255 
10.5733 -2.55901 2.82352 68 57 131 255 
10.2477 -2.47847 2.6248 57 85 140 255 
12.0675 -2.92071 2.96476 71 42 122 255 
14.7277 -3.56757 3.47065 72 29 111 255 
13.6499 -3.3011 3.09791 70 52 128 255 
13.2705 -3.21199 2.86981 70 48 126 255 
15.0326 -3.64668 3.09935 70 50 126 255 
9.41725 -2.28814 1.8487 33 144 141 255 
9.45868 -2.2875 1.77551 31 154 138 255 
9.44524 -2.28787 1.67691 31 159 136 255 
9.44545 -2.29481 1.5813 31 151 139 255 
9.44639 -2.30394 1.49135 31 153 138 255 
9.45889 -2.28929 1.4128 30 155 138 255 
9.4448 -2.28951 1.3157 31 148 140 255 
9.44055 -2.29886 1.2223 31 153 138 255 
9.45991 -2.31073 1.13534 31 151 139 255 
9.47043 -2.29209 1.0568 31 149 139 255 
9.46122 -2.29873 0.963248 31 156 137 255 
9.46706 -2.30707 0.871354 32 147 140 255 
9.47494 -2.31965 0.781422 31 148 140 255 
9.48048 -2.29627 0.704353 30 155 138 255 
9.46604 -2.30166 0.611198 30 155 138 255 
9.46591 -2.31204 0.519198 41 121 142 255 
9.48954 -2.32673 0.428303 31 149 139 255 
9.49627 -2.3036 0.35148 31 153 138 255 
9.48342 -2.30939 0.258999 32 146 140 255 
9.4892 -2.31948 0.1671 34 141 141 255 
9.49463 -2.33149 0.0767876 33 144 141 255 
9.48549 -2.30273 -0.00170362 33 143 141 255 
9.49038 -2.31459 -0.0937742 34 140 141 255 
9.50169 -2.32605 -0.184413 34 141 141 255 
9.51555 -2.34014 -0.277136 35 136 142 255 
9.51494 -2.31515 -0.355653 33 145 140 255 
9.50539 -2.32177 -0.446038 33 143 141 255 
9.51286 -2.33054 -0.539006 37 131 142 255 
9.53022 -2.34551 -0.632962 38 130 142 255 
9.53364 -2.32146 -0.711955 33 143 141 255 
9.54662 -2.33537 -0.804565 35 137 142 255 
9.62096 -2.36236 -0.905071 35 137 142 255 
9.88052 -2.43172 -1.0264 68 57 131 255 
9.15064 -2.23327 -1.02658 66 65 134 255 
8.56147 -2.09596 -1.0448 70 52 128 255 
7.99103 -1.96362 -1.05413 67 61 132 255 
7.56026 -1.86347 -1.07216 66 65 134 255 
7.14048 -1.74663 -1.07371 68 58 131 255 
6.79945 -1.66711 -1.08879 61 78 138 255 
6.45385 -1.58709 -1.09668 58 84 140 255 
6.09721 -1.50286 -1.09824 62 73 137 255 
5.84225 -1.43339 -1.10406 59 81 139 255 
5.59528 -1.37497 -1.11162 55 90 140 255 
5.33605 -1.31221 -1.11498 56 88 140 255 
5.11771 -1.26048 -1.1232 59 82 139 255 
4.93917 -1.21456 -1.12854 54 92 141 255 
4.7602 -1.17152 -1.13538 55 91 141 255 
4.5444 -1.11921 -1.13139 58 83 139 255 
4.40274 -1.08276 -1.14389 61 77 138 255 
4.25784 -1.05095 -1.14646 63 72 137 255 
4.10492 -1.01329 -1.14717 58 84 140 255 
3.96056 -0.976155 -1.14965 62 74 137 255 
3.80524 -0.934408 -1.14801 66 65 134 255 
10.7207 -2.67038 3.31885 66 65 134 255 
10.1589 -2.52118 3.0271 55 91 141 255 
10.1488 -2.51481 2.91338 52 96 141 255 
10.2096 -2.5301 2.82431 50 101 142 255 
10.5658 -2.62594 2.82578 58 83 139 255 
10.2323 -2.5413 2.6248 61 77 138 255 
11.9342 -2.96608 2.93643 72 38 119 255 
15.4897 -3.85292 3.65572 72 22 104 255 
13.1024 -3.25393 2.97814 69 56 130 255 
15.3133 -3.80605 3.31657 72 22 104 255 
15.0423 -3.7469 3.10603 70 52 128 255 
9.42019 -2.35016 1.85208 33 144 141 255 
9.43874 -2.34407 1.77443 32 147 140 255 
9.44537 -2.34935 1.67946 31 152 139 255 
9.44555 -2.35631 1.5837 33 145 140 255 
9.4503 -2.36642 1.49423 32 146 140 255 
9.45907 -2.35087 1.41496 30 155 138 255 
9.45173 -2.35269 1.31865 32 146 140 255 
9.44745 -2.36204 1.22505 33 142 141 255 
9.4629 -2.37308 1.13743 35 137 142 255 
9.47163 -2.35399 1.05853 33 145 140 255 
9.47397 -2.36349 0.966005 33 145 140 255 
9.47109 -2.3697 0.873046 35 138 141 255 
9.47019 -2.38017 0.78222 39 126 142 255 
9.4875 -2.35969 0.705937 31 148 140 255 
9.47789 -2.36622 0.612889 32 146 140 255 
9.47286 -2.37542 0.520368 50 102 142 255 
9.48864 -2.38833 0.428916 38 130 142 255 
9.50232 -2.36689 0.352235 34 141 141 255 
9.49332 -2.3736 0.259662 37 132 142 255 
9.49031 -2.38155 0.167374 42 120 142 255 
9.51408 -2.39826 0.0770625 41 121 142 255 
9.52164 -2.37347 -0.00171269 35 137 142 255 
9.51092 -2.38152 -0.0941198 38 130 142 255 
9.51827 -2.3921 -0.185016 42 118 142 255 
9.52331 -2.40411 -0.277787 41 121 142 255 
9.51897 -2.37809 -0.356343 39 127 142 255 
9.52876 -2.38952 -0.447814 38 130 142 255 
9.54874 -2.40153 -0.541864 41 122 142 255 
9.56113 -2.41543 -0.635987 39 128 142 255 
9.54437 -2.3862 -0.713836 38 129 142 255 
9.54951 -2.39827 -0.806034 41 121 142 255 
9.62559 -2.42622 -0.906891 34 140 141 255 
9.85095 -2.48865 -1.02489 68 59 132 255 
9.13002 -2.28768 -1.02582 69 56 130 255 
8.5783 -2.15595 -1.04845 69 55 129 255 
8.01346 -2.02135 -1.0587 68 57 131 255 
7.53812 -1.90715 -1.07066 68 58 131 255 
7.13443 -1.79162 -1.07443 69 53 129 255 
6.77951 -1.70639 -1.08726 62 73 137 255 
6.44112 -1.62593 -1.0962 61 77 138 255 
6.10028 -1.54338 -1.10048 64 69 136 255 
5.83526 -1.46969 -1.10442 55 91 141 255 
5.59912 -1.4124 -1.11409 55 90 140 255 
5.3431 -1.34876 -1.11816 61 78 138 255 
5.09755 -1.28874 -1.12049 58 84 140 255 
4.94298 -1.24771 -1.13114 58 84 140 255 
4.76614 -1.20405 -1.13854 51 99 141 255 
4.58645 -1.15946 -1.14361 57 85 140 255 
4.39037 -1.10833 -1.14242 62 73 137 255 
4.25319 -1.07753 -1.14696 60 80 139 255 
4.10892 -1.04107 -1.15006 59 82 139 255 
3.95637 -1.00091 -1.1502 62 74 137 255 
3.80502 -0.959147 -1.1497 64 70 136 255 
12.0069 -3.06911 3.72277 72 41 121 255 
10.1674 -2.58963 3.03432 64 70 136 255 
10.1163 -2.57276 2.90855 53 95 141 255 
10.236 -2.60341 2.83598 60 80 139 255 
10.2925 -2.62517 2.75694 55 90 140 255 
12.7065 -3.23869 3.26451 72 35 116 255 
12.8573 -3.2794 3.16845 71 44 122 255 
12.6239 -3.22245 2.98396 72 41 121 255 
12.9251 -3.29423 2.94238 72 23 105 255 
15.0393 -3.83609 3.26227 71 14 97 255 
15.0408 -3.84472 3.11054 71 45 123 255 
9.42463 -2.41279 1.85582 36 134 142 255 
9.44133 -2.40631 1.77766 40 125 142 255 
9.45561 -2.4136 1.68388 36 135 142 255 
9.48064 -2.42695 1.59205 36 134 142 255 
9.47868 -2.43543 1.50105 35 138 141 255 
9.47036 -2.41547 1.41884 34 139 141 255 
9.48513 -2.4229 1.32536 37 133 142 255 
9.47026 -2.42958 1.22991 35 136 142 255 
9.49048 -2.44199 1.14252 35 138 141 255 
9.50228 -2.42361 1.06359 38 130 142 255 
9.51038 -2.43466 0.971223 34 139 141 255 
9.50075 -2.43917 0.877143 34 141 141 255 
9.51332 -2.45317 0.787011 34 139 141 255 
9.5173 -2.42921 0.70925 34 140 141 255 
9.50766 -2.43573 0.615769 33 143 141 255 
9.51709 -2.44868 0.523614 42 118 142 255 
9.51154 -2.45624 0.430624 34 139 141 255 
9.53119 -2.43629 0.353853 33 142 141 255 
9.53764 -2.44696 0.26128 33 145 140 255 
9.5065 -2.44772 0.167921 34 139 141 255 
9.51855 -2.4616 0.0772196 34 140 141 255 
9.55727 -2.44473 -0.00172177 32 146 140 255 
9.55811 -2.45576 -0.0947341 33 144 141 255 
9.54214 -2.46045 -0.18577 33 143 141 255 
9.55192 -2.47378 -0.279059 34 140 141 255 
9.54292 -2.44638 -0.357795 34 141 141 255 
9.55455 -2.4584 -0.449727 32 146 140 255 
9.56476 -2.46806 -0.543622 35 138 141 255 
9.57704 -2.48206 -0.638047 34 140 141 255 
9.56143 -2.4529 -0.716225 35 138 141 255 
9.56454 -2.46453 -0.808563 41 123 142 255 
9.63174 -2.49072 -0.908892 36 134 142 255 
9.8143 -2.54356 -1.02269 66 65 134 255 
