ply
format ascii 1.0
comment VTK generated PLY File
obj_info vtkPolyData points and polygons: vtk4.0
element vertex 1248
property float x
property float y
property float z
property uchar red
property uchar green
property uchar blue
property uchar alpha
element face 0
property list uchar int vertex_indices
end_header
-10.914 -18.6772 0.948266 72 29 111 255 
-10.1052 -17.3913 0.723486 72 35 116 255 
-9.7967 -16.8259 0.516645 70 52 128 255 
-9.78554 -16.7734 0.332182 72 20 103 255 
-16.0162 -27.3865 0.249181 72 29 111 255 
-15.9449 -27.4304 -0.00553758 72 31 112 255 
-15.9879 -27.4372 -0.304841 72 31 112 255 
-16.0034 -27.4095 -0.598344 72 26 108 255 
-16.0526 -27.4269 -0.898778 72 26 108 255 
-15.9708 -27.442 -1.15316 71 17 100 255 
-10.163 -17.4271 -0.919627 71 16 99 255 
-16.005 -27.4012 -1.74637 71 14 97 255 
-16.0567 -27.423 -2.04942 71 17 100 255 
-13.0331 -22.3852 -1.87947 70 8 92 255 
-10.4221 -17.857 -1.6926 71 16 99 255 
-9.44765 -16.1553 -1.70979 72 24 106 255 
-8.33724 -14.239 -1.6644 72 26 108 255 
-7.41847 -12.7264 -1.60548 72 22 104 255 
-6.57038 -11.2531 -1.5446 72 20 103 255 
-6.04454 -10.3319 -1.53342 72 26 108 255 
-5.50889 -9.40101 -1.50034 72 26 108 255 
-5.11531 -8.76481 -1.48229 70 52 128 255 
-4.76693 -8.15775 -1.46945 68 57 131 255 
-4.42908 -7.5676 -1.44689 57 85 140 255 
-4.1535 -7.088 -1.43676 59 81 139 255 
-3.92427 -6.71328 -1.42718 58 84 140 255 
-3.68798 -6.30375 -1.40904 57 86 140 255 
-3.4959 -5.97315 -1.40431 57 86 140 255 
-3.34018 -5.70235 -1.40832 58 83 139 255 
-3.16235 -5.40337 -1.38912 55 91 141 255 
-3.00319 -5.12914 -1.37658 57 86 140 255 
-2.87637 -4.91068 -1.37576 59 82 139 255 
-2.74865 -4.69624 -1.37287 61 77 138 255 
-2.64088 -4.50335 -1.36472 53 95 141 255 
-2.54952 -4.34735 -1.36739 58 83 139 255 
-2.42527 -4.13888 -1.35202 59 81 139 255 
-2.35109 -4.02021 -1.36451 60 80 139 255 
-0 -0 0 68 2 86 255 
-0 -0 0 68 2 86 255 
-0 -0 0 68 2 86 255 
-0 -0 0 68 2 86 255 
-0 -0 0 68 2 86 255 
-0 -0 0 68 2 86 255 
-0 -0 0 68 2 86 255 
-0 -0 0 68 2 86 255 
-29.9515 -50.9075 13.0295 70 10 93 255 
-29.9121 -50.8188 12.3944 70 11 94 255 
-29.9485 -50.8207 11.8192 71 14 97 255 
-29.943 -50.7689 11.2436 70 11 94 255 
-29.8821 -50.7897 10.7516 71 13 96 255 
-29.9205 -50.8128 10.1749 69 5 89 255 
-13.1003 -22.2127 4.19522 70 52 128 255 
-26.4532 -44.7627 7.97492 69 5 89 255 
-12.9541 -22.009 3.70743 70 51 127 255 
-10.597 -17.9893 2.8266 72 37 118 255 
-10.7065 -18.132 2.64892 71 45 123 255 
-10.806 -18.2709 2.47485 72 32 113 255 
-10.4478 -17.7507 2.23394 72 28 110 255 
-10.2149 -17.3199 1.98931 66 63 133 255 
-10.2653 -17.378 1.80488 71 42 122 255 
-10.1664 -17.1689 1.59838 72 40 120 255 
-10.0385 -17.0486 1.42858 69 55 129 255 
-10.8735 -18.4293 1.34249 72 24 106 255 
-10.3928 -17.5728 1.08783 68 57 131 255 
-10.6429 -17.9592 0.915114 72 40 120 255 
-10.0702 -17.0887 0.713457 72 40 120 255 
-9.92416 -16.8068 0.517918 68 57 131 255 
-9.90507 -16.7414 0.332747 68 57 131 255 
-16.239 -27.3806 0.250029 72 31 112 255 
-16.1505 -27.3958 -0.0055505 72 33 115 255 
-16.1885 -27.3937 -0.305455 72 32 113 255 
-16.2171 -27.3882 -0.60004 72 27 109 255 
-16.2507 -27.3786 -0.900446 72 29 111 255 
-16.1811 -27.4149 -1.15617 72 26 108 255 
-16.2028 -27.3962 -1.45091 72 28 110 255 
-16.214 -27.372 -1.75082 72 27 109 255 
-16.2578 -27.3797 -2.0536 72 29 111 255 
-13.2843 -22.4981 -1.89575 70 8 92 255 
-11.1178 -18.7833 -1.78683 71 16 99 255 
-9.52019 -16.0525 -1.70506 72 22 104 255 
-8.4275 -14.1927 -1.665 72 20 103 255 
-7.50451 -12.6944 -1.60721 71 19 101 255 
-6.64538 -11.2228 -1.54601 71 19 101 255 
-6.11035 -10.2989 -1.53405 72 32 113 255 
-5.62316 -9.46242 -1.51562 72 40 120 255 
-5.19772 -8.7818 -1.49053 68 57 131 255 
-4.82597 -8.14365 -1.47221 68 58 131 255 
-4.47795 -7.54452 -1.4477 59 82 139 255 
-4.20194 -7.07085 -1.43848 60 79 138 255 
-3.9699 -6.69669 -1.42881 54 92 141 255 
-3.72509 -6.27847 -1.40847 53 94 141 255 
-3.53248 -5.95158 -1.40431 57 86 140 255 
-3.36562 -5.66578 -1.40436 58 83 139 255 
-3.19595 -5.38471 -1.38934 53 95 141 255 
-3.02963 -5.10224 -1.37432 56 88 140 255 
-2.90446 -4.8896 -1.37482 59 82 139 255 
-2.78137 -4.68596 -1.37482 62 73 137 255 
-2.66747 -4.48539 -1.36422 54 93 141 255 
-2.57614 -4.33163 -1.36739 57 85 140 255 
-2.44914 -4.12144 -1.35121 62 74 137 255 
-2.36691 -3.99085 -1.35945 61 78 138 255 
-0 -0 0 68 2 86 255 
-0 -0 0 68 2 86 255 
-0 -0 0 69 4 87 255 
-0 -0 0 68 1 84 255 
-0 -0 0 69 4 87 255 
-0 -0 0 68 2 86 255 
-0 -0 0 68 2 86 255 
-0 -0 0 68 2 86 255 
-30.1942 -50.6071 12.9998 70 10 93 255 
-30.2424 -50.6662 12.4022 71 13 96 255 
-30.2839 -50.6764 11.8286 70 11 94 255 
-30.2963 -50.655 11.2594 70 10 93 255 
-26.995 -45.245 9.61272 69 5 89 255 
-27.2216 -45.5873 9.16179 70 10 93 255 
-13.1695 -22.0201 4.17403 72 33 115 255 
-13.0794 -21.8254 3.90264 70 11 94 255 
-13.0372 -21.8424 3.69277 70 50 126 255 
-14.9466 -25.0207 3.94575 72 38 119 255 
-10.763 -17.9749 2.63557 71 47 125 255 
-10.826 -18.0509 2.454 71 46 124 255 
-10.5795 -17.7247 2.23879 72 41 121 255 
-10.3471 -17.3005 1.99433 71 46 124 255 
-10.64 -17.7624 1.85155 72 36 117 255 
-10.5086 -17.501 1.63527 72 37 118 255 
-10.1506 -16.9995 1.42966 68 58 131 255 
-10.5672 -17.6616 1.29127 71 46 124 255 
-10.8795 -18.1407 1.12709 72 38 119 255 
-10.6031 -17.6444 0.90237 71 44 122 255 
-10.0805 -16.8688 0.706843 70 50 126 255 
-10.1704 -16.9849 0.525319 72 40 120 255 
-10.0292 -16.7164 0.333465 70 48 126 255 
-10.0167 -16.6554 0.152648 72 40 120 255 
-16.3644 -27.3734 -0.0055662 72 33 115 255 
-16.3933 -27.3556 -0.306146 72 32 113 255 
-16.4307 -27.3644 -0.601718 72 24 106 255 
-16.438 -27.3109 -0.90152 71 17 100 255 
-16.3669 -27.3451 -1.15744 72 28 110 255 
-16.3711 -27.2971 -1.45096 72 29 111 255 
-16.4017 -27.3054 -1.75297 71 19 101 255 
-16.5084 -27.4171 -2.06397 71 13 96 255 
-13.4159 -22.4059 -1.89488 70 10 93 255 
-11.2287 -18.7079 -1.78618 71 16 99 255 
-9.6493 -16.045 -1.71052 72 24 106 255 
-8.56062 -14.2174 -1.67403 71 17 100 255 
-7.56897 -12.6259 -1.60439 72 20 103 255 
-6.72434 -11.1988 -1.54837 72 20 103 255 
-6.18161 -10.2748 -1.53608 71 45 123 255 
-5.68009 -9.42604 -1.51535 72 28 110 255 
-5.26424 -8.77095 -1.49414 65 68 135 255 
-4.86974 -8.10372 -1.47037 67 61 132 255 
-4.52619 -7.52029 -1.44835 56 88 140 255 
-4.23915 -7.03481 -1.43641 60 80 139 255 
-4.00737 -6.6663 -1.42755 54 92 141 255 
-3.77012 -6.26643 -1.41094 51 98 141 255 
-3.57702 -5.94323 -1.40749 55 90 140 255 
-3.39124 -5.62994 -1.40061 58 84 140 255 
-3.22339 -5.35579 -1.38695 56 88 140 255 
-3.06088 -5.08356 -1.37432 56 88 140 255 
-2.92588 -4.85753 -1.37083 58 84 140 255 
-2.81357 -4.67462 -1.37654 62 76 138 255 
-2.69744 -4.47308 -1.36548 57 85 140 255 
-2.60267 -4.31574 -1.36739 59 81 139 255 
-2.48432 -4.12283 -1.35663 59 82 139 255 
-2.38344 -3.96309 -1.35495 62 74 137 255 
-0 -0 0 68 2 86 255 
-0 -0 0 68 2 86 255 
-0 -0 0 68 2 86 255 
-0 -0 0 69 4 87 255 
-0 -0 0 68 2 86 255 
-0 -0 0 68 2 86 255 
-0 -0 0 68 2 86 255 
-0 -0 0 68 2 86 255 
-30.5881 -50.5595 13.0355 70 11 94 255 
-30.5406 -50.4596 12.3973 70 10 93 255 
-30.5876 -50.4787 11.8261 71 16 99 255 
-30.5918 -50.4438 11.2539 70 10 93 255 
-30.498 -50.4107 10.7498 70 8 92 255 
-26.2514 -43.3559 8.74554 69 5 89 255 
-13.2521 -21.8527 4.15765 70 8 92 255 
-13.113 -21.58 3.87308 72 35 116 255 
-13.0864 -21.6223 3.66907 72 23 105 255 
-15.1291 -24.9769 3.9534 72 22 104 255 
-10.869 -17.9017 2.63457 69 53 129 255 
-10.9758 -18.0486 2.4628 72 33 115 255 
-10.477 -17.3107 2.19458 70 48 126 255 
-10.3725 -17.1039 1.97897 69 56 130 255 
-10.3677 -17.0694 1.78591 71 45 123 255 
-10.5759 -17.3706 1.62912 72 31 112 255 
-10.2268 -16.8908 1.42577 71 45 123 255 
-10.9658 -18.0751 1.3264 72 32 113 255 
-10.9563 -18.0173 1.12358 72 31 112 255 
-10.7117 -17.5799 0.902414 69 53 129 255 
-10.2595 -16.9314 0.712091 70 51 127 255 
-10.4809 -17.2622 0.535876 69 55 129 255 
-10.3374 -16.9928 0.340238 72 26 108 255 
-22.589 -37.0436 0.340773 70 10 93 255 
-22.5157 -37.1435 -0.00758084 71 13 96 255 
-22.5058 -37.0384 -0.416047 71 13 96 255 
-22.4948 -36.9483 -0.815478 71 13 96 255 
-22.4535 -36.7925 -1.21903 70 10 93 255 
-22.5208 -37.1081 -1.5765 70 8 92 255 
-18.655 -30.6768 -1.63666 70 10 93 255 
-18.6584 -30.6349 -1.97403 70 7 90 255 
-17.0086 -27.8596 -2.10509 70 7 90 255 
-13.5547 -22.3257 -1.8951 70 10 93 255 
-11.3506 -18.6506 -1.78732 71 16 99 255 
-9.71024 -15.9243 -1.70397 72 23 105 255 
-8.67569 -14.2105 -1.67945 71 19 101 255 
-7.64217 -12.5724 -1.60353 72 23 105 255 
-6.79964 -11.1684 -1.5499 72 23 105 255 
-6.25332 -10.2511 -1.53824 72 38 119 255 
-5.71613 -9.3555 -1.50962 72 33 115 255 
-5.31899 -8.74018 -1.49443 71 45 123 255 
-4.91834 -8.072 -1.47006 66 65 134 255 
-4.57636 -7.49911 -1.44965 54 92 141 255 
-4.28737 -7.01708 -1.43813 58 84 140 255 
-4.05895 -6.65922 -1.43134 55 90 140 255 
-3.80441 -6.23647 -1.40942 57 86 140 255 
-3.61342 -5.92117 -1.40749 58 84 140 255 
-3.41705 -5.59483 -1.39706 56 88 140 255 
-3.2506 -5.32675 -1.38457 57 86 140 255 
-3.09201 -5.06468 -1.37432 56 88 140 255 
-2.96273 -4.8511 -1.37412 58 84 140 255 
-2.84321 -4.65892 -1.37703 61 78 138 255 
-2.73543 -4.47378 -1.37079 55 91 141 255 
-2.62759 -4.29722 -1.36661 59 82 139 255 
-2.50807 -4.10504 -1.35582 59 81 139 255 
-2.4127 -3.95659 -1.35777 60 80 139 255 
-0 -0 0 68 2 86 255 
-0 -0 0 68 2 86 255 
-0 -0 0 68 2 86 255 
-0 -0 0 68 2 86 255 
-0 -0 0 68 2 86 255 
-0 -0 0 68 2 86 255 
-0 -0 0 68 2 86 255 
-0 -0 0 69 4 87 255 
-30.9115 -50.3934 13.0414 70 11 94 255 
-30.8471 -50.2671 12.3962 71 13 96 255 
-30.9153 -50.3201 11.8332 71 14 97 255 
-30.8997 -50.2535 11.2536 71 16 99 255 
-30.8145 -50.2352 10.7525 70 10 93 255 
-0 -0 0 69 4 87 255 
-13.189 -21.4507 4.09647 72 27 109 255 
-13.2073 -21.4377 3.86201 72 38 119 255 
-13.1661 -21.4556 3.65442 72 35 116 255 
-10.8714 -17.7017 2.81238 72 23 105 255 
-13.1605 -21.3792 3.15816 72 28 110 255 
-11.1614 -18.1027 2.47948 72 37 118 255 
-10.9345 -17.8189 2.26747 71 47 125 255 
-10.4825 -17.0484 1.97996 67 61 132 255 
-10.4116 -16.9071 1.77557 67 62 133 255 
-10.6839 -17.3079 1.62936 72 32 113 255 
-10.3569 -16.8711 1.42945 64 69 136 255 
-10.6587 -17.3283 1.27637 72 40 120 255 
-10.8408 -17.5834 1.10065 69 53 129 255 
-10.8294 -17.53 0.903246 71 42 122 255 
-10.6912 -17.402 0.734629 70 48 126 255 
-10.6516 -17.3032 0.539165 72 40 120 255 
-16.855 -27.3274 0.549224 72 29 111 255 
-22.4478 -36.3089 0.335275 70 11 94 255 
-22.473 -36.5651 -0.00749078 70 11 94 255 
-22.4101 -36.376 -0.410143 71 13 96 255 
-22.4212 -36.3238 -0.804715 71 13 96 255 
-22.44 -36.2681 -1.20619 70 8 92 255 
-18.8637 -30.6565 -1.30731 71 19 101 255 
-18.5671 -30.1145 -1.6127 70 8 92 255 
-18.5853 -30.0976 -1.94672 70 7 90 255 
-17.205 -27.7962 -2.10824 70 8 92 255 
-13.6967 -22.2506 -1.89582 70 8 92 255 
-11.4486 -18.5543 -1.78479 72 22 104 255 
-9.78263 -15.8238 -1.6996 72 22 104 255 
-8.73706 -14.1156 -1.67454 71 17 100 255 
-7.7442 -12.5659 -1.60873 72 20 103 255 
-6.87378 -11.1357 -1.55119 72 27 109 255 
-6.32758 -10.2311 -1.54104 72 33 115 255 
-5.78281 -9.33541 -1.51207 72 27 109 255 
-5.33511 -8.64674 -1.48402 72 32 113 255 
-4.9657 -8.03831 -1.46945 67 61 132 255 
-4.62696 -7.47844 -1.45112 54 92 141 255 
-4.35576 -7.03167 -1.44658 57 85 140 255 
-4.0987 -6.63252 -1.43098 56 89 140 255 
-3.84932 -6.22387 -1.41188 56 89 140 255 
-3.64917 -5.89805 -1.4073 57 85 140 255 
-3.45029 -5.5721 -1.39665 59 81 139 255 
-3.28784 -5.31417 -1.38652 57 86 140 255 
-3.12765 -5.05307 -1.37635 58 84 140 255 
-2.99039 -4.82952 -1.37318 59 82 139 255 
-2.87328 -4.64386 -1.37776 60 79 138 255 
-2.75672 -4.44705 -1.36776 56 89 140 255 
-2.65035 -4.27527 -1.36477 61 77 138 255 
-2.53169 -4.08712 -1.35501 62 76 138 255 
-2.43744 -3.94252 -1.35805 63 72 137 255 
-0 -0 0 68 2 86 255 
-0 -0 0 68 2 86 255 
-0 -0 0 68 2 86 255 
-0 -0 0 69 4 87 255 
-0 -0 0 68 2 86 255 
-0 -0 0 68 2 86 255 
-0 -0 0 68 2 86 255 
-0 -0 0 68 2 86 255 
-31.1861 -50.148 13.0271 71 13 96 255 
-31.1761 -50.111 12.4047 70 11 94 255 
-31.2359 -50.1495 11.8379 71 16 99 255 
-31.221 -50.0846 11.2584 70 11 94 255 
-31.197 -50.1655 10.7783 70 11 94 255 
-27.0199 -43.4137 8.82342 69 5 89 255 
-13.287 -21.3157 4.08619 71 42 122 255 
-13.2784 -21.2599 3.84457 70 48 126 255 
-13.2394 -21.2811 3.63847 72 36 117 255 
-13.2467 -21.2755 3.39302 72 28 110 255 
-13.262 -21.2509 3.15117 70 50 126 255 
-11.3802 -18.2065 2.50322 72 38 119 255 
-10.6618 -17.1378 2.18908 72 41 121 255 
-10.6527 -17.0894 1.99226 70 48 126 255 
-10.3849 -16.6342 1.75357 69 56 130 255 
-10.5334 -16.8322 1.59063 70 52 128 255 
-10.6004 -17.0325 1.4486 72 33 115 255 
-10.5383 -16.8993 1.24951 71 47 125 255 
-11.1623 -17.8586 1.12214 68 58 131 255 
-11.2755 -18.0042 0.93123 70 51 127 255 
-10.8168 -17.3666 0.735923 70 51 127 255 
-10.783 -17.2782 0.540439 71 44 122 255 
-17.0356 -27.2447 0.549652 70 8 92 255 
-21.9952 -35.0936 0.325293 71 14 97 255 
-22.2353 -35.6855 -0.00733841 70 8 92 255 
-22.0518 -35.3074 -0.399613 70 10 93 255 
-21.9876 -35.1371 -0.7814 71 13 96 255 
-22.011 -35.0916 -1.17153 70 11 94 255 
-19.0668 -30.5648 -1.30836 71 16 99 255 
-18.4868 -29.5765 -1.58994 70 7 90 255 
-18.501 -29.554 -1.91886 70 7 90 255 
-17.4712 -27.8432 -2.11989 70 8 92 255 
-13.8324 -22.1653 -1.89575 70 10 93 255 
-11.5706 -18.4972 -1.7861 71 14 97 255 
-9.91497 -15.82 -1.7057 72 24 106 255 
-8.82033 -14.0566 -1.67393 72 20 103 255 
-7.82011 -12.5165 -1.60851 72 22 104 255 
-6.95989 -11.122 -1.55519 72 31 112 255 
-6.39972 -10.2072 -1.54333 72 32 113 255 
-5.85842 -9.32912 -1.51685 72 27 109 255 
-5.38334 -8.60629 -1.48272 72 35 116 255 
-5.01493 -8.00769 -1.46945 67 61 132 255 
-4.68429 -7.4683 -1.4547 53 95 141 255 
-4.41087 -7.024 -1.45054 57 86 140 255 
-4.1341 -6.59891 -1.42917 53 94 141 255 
-3.88952 -6.20346 -1.41264 56 88 140 255 
-3.68789 -5.8797 -1.40829 58 84 140 255 
-3.48805 -5.55662 -1.39811 57 86 140 255 
-3.32246 -5.29721 -1.38739 59 82 139 255 
-3.15859 -5.03378 -1.37635 59 81 139 255 
-3.0179 -4.80779 -1.37224 59 82 139 255 
-2.90481 -4.63108 -1.37923 57 85 140 255 
-2.77932 -4.42267 -1.36548 54 92 141 255 
-2.67705 -4.25975 -1.36504 62 76 138 255 
-2.56951 -4.09189 -1.36179 61 77 138 255 
-2.45802 -3.9218 -1.35608 62 73 137 255 
-0 -0 0 68 2 86 255 
-0 -0 0 68 2 86 255 
-0 -0 0 68 2 86 255 
-0 -0 0 68 2 86 255 
-0 -0 0 68 2 86 255 
-0 -0 0 68 2 86 255 
-0 -0 0 69 4 87 255 
-0 -0 0 68 2 86 255 
-31.501 -49.9681 13.0304 70 10 93 255 
-31.5211 -49.9792 12.4197 70 11 94 255 
-31.5079 -49.9013 11.8247 71 14 97 255 
-31.5251 -49.8879 11.2575 71 13 96 255 
-31.5068 -49.9773 10.7792 70 7 90 255 
-27.8442 -44.1321 9.004 70 8 92 255 
-13.3094 -21.0628 4.05328 72 33 115 255 
-13.3108 -21.0235 3.81653 71 19 101 255 
-27.0104 -42.8283 7.35064 70 8 92 255 
-0 -0 0 69 4 87 255 
-13.3407 -21.0878 3.13907 72 35 116 255 
-13.3332 -21.0427 2.90436 72 28 110 255 
-10.8209 -17.1578 2.20008 72 28 110 255 
-10.7393 -16.9951 1.98891 70 48 126 255 
-10.6545 -16.8353 1.78163 71 44 122 255 
-10.6391 -16.7715 1.59103 72 36 117 255 
-10.6542 -16.887 1.44176 72 36 117 255 
-10.6716 -16.8815 1.25302 70 51 127 255 
-11.338 -17.8944 1.12874 71 45 123 255 
-11.4517 -18.0385 0.936617 72 37 118 255 
-10.9418 -17.3295 0.737181 70 48 126 255 
-10.9112 -17.2472 0.541553 68 57 131 255 
-22.1404 -34.9302 0.707431 71 14 97 255 
-22.187 -34.9216 0.324955 71 19 101 255 
-22.1089 -35.0023 -0.00722566 72 20 103 255 
-22.1108 -34.9231 -0.396791 71 17 100 255 
-22.1551 -34.9264 -0.779722 72 20 103 255 
-22.1797 -34.8833 -1.1691 71 17 100 255 
-22.0843 -34.9229 -1.50068 71 13 96 255 
-18.4578 -29.1309 -1.57204 70 10 93 255 
-18.4878 -29.1338 -1.89891 70 10 93 255 
-17.5839 -27.6445 -2.11294 69 5 89 255 
-13.9794 -22.0977 -1.89727 70 10 93 255 
-11.7256 -18.4915 -1.79246 71 19 101 255 
-10.0252 -15.7798 -1.70797 72 23 105 255 
-8.90749 -14.0039 -1.67413 72 20 103 255 
-7.89197 -12.4607 -1.60754 72 20 103 255 
-7.03864 -11.0958 -1.55755 72 36 117 255 
-6.44308 -10.1376 -1.53875 72 24 106 255 
-5.93045 -9.3164 -1.52067 72 33 115 255 
-5.44081 -8.58062 -1.48402 72 38 119 255 
-5.07191 -7.98928 -1.47175 67 61 132 255 
-4.73109 -7.44108 -1.45503 53 95 141 255 
-4.44172 -6.97769 -1.44658 57 85 140 255 
-4.17187 -6.56927 -1.42827 54 92 141 255 
-3.93331 -6.18859 -1.41472 56 88 140 255 
-3.73021 -5.86689 -1.41068 52 96 141 255 
-3.52576 -5.54089 -1.39957 53 95 141 255 
-3.3549 -5.27672 -1.38739 59 82 139 255 
-3.18942 -5.01431 -1.37635 60 79 138 255 
-3.05517 -4.80148 -1.37576 57 85 140 255 
-2.92849 -4.6058 -1.37703 59 82 139 255 
-2.80848 -4.4088 -1.36649 58 84 140 255 
-2.70936 -4.25301 -1.36818 58 83 139 255 
-2.58889 -4.06711 -1.3588 59 82 139 255 
-2.47946 -3.9026 -1.35467 64 69 136 255 
-0 -0 0 69 4 87 255 
-0 -0 0 69 4 87 255 
-0 -0 0 68 2 86 255 
-0 -0 0 68 2 86 255 
-0 -0 0 68 2 86 255 
-0 -0 0 69 4 87 255 
-0 -0 0 68 2 86 255 
-0 -0 0 68 2 86 255 
-31.7928 -49.7517 13.0245 70 10 93 255 
-31.8224 -49.7774 12.4178 70 10 93 255 
-31.8511 -49.7657 11.8387 71 13 96 255 
-31.8332 -49.6977 11.2584 71 13 96 255 
-31.8187 -49.7922 10.7812 70 8 92 255 
-28.0678 -43.8874 8.98903 69 4 87 255 
-13.3788 -20.8876 4.03529 69 55 129 255 
-27.7065 -43.1723 7.86804 69 5 89 255 
-0 -0 0 68 2 86 255 
-13.44 -21.007 3.37625 70 7 90 255 
-13.3857 -20.8744 3.11947 72 28 110 255 
-13.41 -20.8795 2.89313 72 36 117 255 
-10.8735 -17.009 2.18951 70 52 128 255 
-10.8874 -16.9976 1.99699 69 55 129 255 
-11.1336 -17.3556 1.84389 72 37 118 255 
-13.4164 -20.8654 1.98717 72 35 116 255 
-14.1398 -22.1099 1.89505 71 13 96 255 
-11.3593 -17.7275 1.32095 68 57 131 255 
-11.4044 -17.7573 1.12449 71 44 122 255 
-17.5327 -27.2462 1.42028 72 29 111 255 
-10.9596 -17.124 0.731286 72 40 120 255 
-11.1053 -17.3179 0.545903 71 46 124 255 
-22.3522 -34.7903 0.707362 69 4 87 255 
-22.3965 -34.7781 0.324892 69 5 89 255 
-22.3108 -34.8466 -0.00722165 70 11 94 255 
-22.3381 -34.8078 -0.397031 70 7 90 255 
-22.3863 -34.8167 -0.780325 69 4 87 255 
-19.2981 -29.9439 -1.00751 71 13 96 255 
-22.3159 -34.8145 -1.50188 69 5 89 255 
-18.3997 -28.6489 -1.55209 71 13 96 255 
-18.3843 -28.5815 -1.87023 70 11 94 255 
-17.831 -27.6569 -2.12221 70 8 92 255 
-14.1233 -22.0249 -1.89843 70 10 93 255 
-11.835 -18.4133 -1.79189 72 23 105 255 
-10.1299 -15.7306 -1.70934 72 23 105 255 
-9.00349 -13.9649 -1.67604 72 22 104 255 
-7.96345 -12.4045 -1.60656 72 20 103 255 
-7.11787 -11.07 -1.56002 72 38 119 255 
-6.49979 -10.0895 -1.53748 72 27 109 255 
-5.98911 -9.28233 -1.52108 72 29 111 255 
-5.51904 -8.58703 -1.49096 72 33 115 255 
-5.13848 -7.98543 -1.47682 68 59 132 255 
-4.77078 -7.40279 -1.45324 53 95 141 255 
-4.48125 -6.94534 -1.44554 56 89 140 255 
-4.21317 -6.5452 -1.42863 50 102 142 255 
-3.9728 -6.16682 -1.41529 57 86 140 255 
-3.74862 -5.81671 -1.40411 55 91 141 255 
-3.56605 -5.52902 -1.40207 52 96 141 255 
-3.3888 -5.2585 -1.38804 57 86 140 255 
-3.21643 -4.98891 -1.37477 58 83 139 255 
-3.08773 -4.78755 -1.37717 58 83 139 255 
-2.95564 -4.58611 -1.37654 57 86 140 255 
-2.8381 -4.39555 -1.36776 58 83 139 255 
-2.72755 -4.22414 -1.36425 61 78 138 255 
-2.61745 -4.05681 -1.3607 61 77 138 255 
-2.49869 -3.88005 -1.35214 62 76 138 255 
-0 -0 0 69 4 87 255 
-0 -0 0 68 2 86 255 
-0 -0 0 68 2 86 255 
-0 -0 0 69 4 87 255 
-0 -0 0 69 4 87 255 
-0 -0 0 68 2 86 255 
-0 -0 0 69 4 87 255 
-0 -0 0 68 2 86 255 
-32.115 -49.5827 13.0317 70 10 93 255 
-32.1603 -49.6321 12.4306 70 8 92 255 
-32.1457 -49.5537 11.8349 71 13 96 255 
-32.221 -49.63 11.2877 70 11 94 255 
-32.0905 -49.5448 10.7701 70 11 94 255 
-0 -0 0 69 4 87 255 
-13.4696 -20.748 4.02421 69 56 130 255 
-27.9747 -43.0073 7.8691 70 8 92 255 
-29.1537 -44.9935 7.78307 70 7 90 255 
-13.4511 -20.7429 3.347 72 24 106 255 
-13.4957 -20.7644 3.11535 72 37 118 255 
-13.5108 -20.7552 2.88734 72 32 113 255 
-13.4509 -20.7591 2.68281 72 38 119 255 
-11.0722 -17.0548 2.01166 69 55 129 255 
-11.2132 -17.246 1.83952 71 42 122 255 
-13.4783 -20.6816 1.97751 72 36 117 255 
-14.2817 -22.0328 1.89592 71 19 101 255 
-15.7911 -24.3141 1.81894 72 24 106 255 
-11.6706 -17.9288 1.13986 72 22 104 255 
-17.7345 -27.1917 1.42308 72 31 112 255 
-17.6441 -27.1994 1.16616 72 35 116 255 
-11.1994 -17.231 0.545319 71 45 123 255 
-0 -0 0 68 1 84 255 
-0 -0 0 68 2 86 255 
-0 -0 -0 68 1 84 255 
-0 -0 -0 68 1 84 255 
-0 -0 -0 68 2 86 255 
-19.2492 -29.4692 -0.995491 72 22 104 255 
-19.2908 -29.6924 -1.286 71 16 99 255 
-18.361 -28.2064 -1.5342 70 11 94 255 
-18.2894 -28.0541 -1.84303 70 7 90 255 
-18.1019 -27.7023 -2.13418 70 10 93 255 
-14.2354 -21.9028 -1.89539 70 10 93 255 
-11.9576 -18.3554 -1.79336 71 19 101 255 
-10.2714 -15.7374 -1.71689 72 23 105 255 
-9.09608 -13.9202 -1.67735 72 28 110 255 
-8.03182 -12.3438 -1.60504 72 23 105 255 
-7.19975 -11.0477 -1.56308 72 32 113 255 
-6.56428 -10.0536 -1.53812 72 27 109 255 
-6.03674 -9.23131 -1.51876 72 26 108 255 
-5.57487 -8.55798 -1.49183 70 48 126 255 
-5.17119 -7.92892 -1.47221 68 59 132 255 
-4.81611 -7.37337 -1.45324 53 94 141 255 
-4.52486 -6.91936 -1.44589 57 86 140 255 
-4.23981 -6.49863 -1.42412 53 94 141 255 
-4.00735 -6.13739 -1.41416 57 86 140 255 
-3.77995 -5.78703 -1.40252 55 90 140 255 
-3.60151 -5.50949 -1.40269 53 94 141 255 
-3.42421 -5.24251 -1.38934 58 84 140 255 
-3.25391 -4.97968 -1.3777 58 84 140 255 
-3.10801 -4.75468 -1.37318 59 81 139 255 
-2.99592 -4.58656 -1.38216 58 84 140 255 
-2.86926 -4.38453 -1.36978 62 74 137 255 
-2.75025 -4.20248 -1.36268 60 79 138 255 
-2.63755 -4.03342 -1.35826 62 73 137 255 
-2.51982 -3.86062 -1.35074 63 71 136 255 
-0 -0 0 69 4 87 255 
-0 -0 0 69 4 87 255 
-0 -0 0 68 2 86 255 
-0 -0 0 68 2 86 255 
-0 -0 0 68 2 86 255 
-0 -0 0 68 2 86 255 
-0 -0 0 68 2 86 255 
-0 -0 0 69 4 87 255 
-32.4187 -49.3847 13.0317 70 10 93 255 
-32.4389 -49.3954 12.4209 70 10 93 255 
-32.4561 -49.3662 11.8375 71 13 96 255 
-32.4855 -49.3714 11.274 71 13 96 255 
-32.4144 -49.3782 10.7769 71 13 96 255 
-32.4946 -49.4614 10.2116 69 5 89 255 
-13.531 -20.5652 4.00478 72 31 112 255 
-27.9638 -42.4189 7.79269 70 7 90 255 
-13.4589 -20.4948 3.55945 71 19 101 255 
-13.5302 -20.5871 3.3352 72 31 112 255 
-13.577 -20.6116 3.10487 72 35 116 255 
-13.5755 -20.5773 2.87414 72 36 117 255 
-13.5306 -20.6039 2.67343 72 37 118 255 
-13.5402 -20.5787 2.43707 72 41 121 255 
-11.178 -16.9632 1.81663 72 41 121 255 
-13.539 -20.4987 1.96793 72 37 118 255 
-14.3985 -21.9173 1.89354 71 19 101 255 
-15.9894 -24.2918 1.82458 72 26 108 255 
-17.9617 -27.2267 1.73797 72 28 110 255 
-17.9842 -27.2082 1.42969 72 28 110 255 
-17.8909 -27.2125 1.17141 72 29 111 255 
-0 -0 0 68 1 84 255 
-0 -0 0 68 1 84 255 
-0 -0 0 68 2 86 255 
-0 -0 -0 68 1 84 255 
-0 -0 -0 68 1 84 255 
-0 -0 -0 68 2 86 255 
-19.2221 -29.0371 -0.984862 72 20 103 255 
-19.1797 -29.1286 -1.26665 70 11 94 255 
-18.2906 -27.7247 -1.51407 71 13 96 255 
-18.2812 -27.669 -1.82506 70 10 93 255 
-18.2049 -27.49 -2.12639 69 5 89 255 
-14.4019 -21.8641 -1.89966 70 11 94 255 
-12.0711 -18.2833 -1.79352 72 20 103 255 
-10.3656 -15.6707 -1.71652 72 27 109 255 
-9.19451 -13.884 -1.67975 72 24 106 255 
-8.12164 -12.3158 -1.60786 72 24 106 255 
-7.28273 -11.0265 -1.56638 72 27 109 255 
-6.61983 -10.0041 -1.53672 72 32 113 255 
-6.08451 -9.18088 -1.51658 72 31 112 255 
-5.63 -8.52774 -1.49255 70 51 127 255 
-5.23336 -7.91765 -1.47606 67 62 133 255 
-4.85963 -7.34122 -1.45275 49 103 142 255 
-4.56233 -6.88407 -1.44434 57 86 140 255 
-4.29425 -6.49465 -1.42899 50 101 142 255 
-4.04493 -6.11269 -1.41416 54 92 141 255 
-3.81863 -5.76863 -1.40372 55 91 141 255 
-3.64011 -5.49462 -1.40457 52 96 141 255 
-3.45793 -5.22385 -1.38999 54 93 141 255 
-3.29032 -4.96856 -1.38019 54 93 141 255 
-3.12907 -4.72337 -1.36965 61 78 138 255 
-3.01063 -4.54788 -1.37605 57 85 140 255 
-2.89611 -4.36684 -1.36978 62 76 138 255 
-2.78238 -4.19518 -1.36582 62 76 138 255 
-2.65108 -4.00032 -1.35256 62 76 138 255 
-2.55035 -3.85549 -1.35439 61 78 138 255 
-0 -0 0 68 2 86 255 
-0 -0 0 69 4 87 255 
-0 -0 0 68 2 86 255 
-0 -0 0 69 4 87 255 
-0 -0 0 68 2 86 255 
-0 -0 0 68 2 86 255 
-0 -0 0 68 2 86 255 
-0 -0 0 68 2 86 255 
-32.7811 -49.2751 13.0556 70 8 92 255 
-32.8168 -49.3087 12.4495 71 13 96 255 
-32.7851 -49.2061 11.8471 71 13 96 255 
-32.8489 -49.2627 11.295 71 14 97 255 
-32.7031 -49.1579 10.7724 71 14 97 255 
-32.7833 -49.2397 10.2072 69 5 89 255 
-13.6422 -20.4596 4.00045 70 10 93 255 
-29.0297 -43.453 8.01525 70 8 92 255 
-13.534 -20.336 3.54624 71 45 123 255 
-13.5805 -20.3899 3.31668 72 36 117 255 
-13.6063 -20.3827 3.0829 72 40 120 255 
-13.6154 -20.3649 2.85607 72 40 120 255 
-13.5967 -20.4302 2.66168 72 33 115 255 
-13.6038 -20.4017 2.42594 71 42 122 255 
-13.5763 -20.3301 2.18609 72 33 115 255 
-13.5919 -20.3067 1.95747 72 37 118 255 
-14.5156 -21.8028 1.89131 71 19 101 255 
-16.2378 -24.3427 1.83585 72 29 111 255 
-18.1417 -27.1359 1.73924 71 19 101 255 
-16.3838 -24.4595 1.29051 71 14 97 255 
-18.0536 -27.0964 1.17116 72 24 106 255 
-16.3297 -24.4619 0.780445 70 11 94 255 
-16.3486 -24.4445 0.503045 71 14 97 255 
-16.3664 -24.4151 0.230858 71 19 101 255 
-16.2875 -24.4364 -0.00512551 70 8 92 255 
-16.2993 -24.398 -0.281668 71 16 99 255 
-16.3472 -24.424 -0.55405 71 16 99 255 
-16.3678 -24.3987 -0.830929 71 16 99 255 
-16.2734 -24.3877 -1.06482 70 11 94 255 
-16.295 -24.3731 -1.33648 71 16 99 255 
-16.3296 -24.3885 -1.61526 71 19 101 255 
-16.3374 -24.3442 -1.89078 71 17 100 255 
-14.5789 -21.8401 -1.9053 70 10 93 255 
-12.1908 -18.2205 -1.79467 71 19 101 255 
-10.4499 -15.5895 -1.71461 72 23 105 255 
-9.28119 -13.8298 -1.68006 71 17 100 255 
-8.20644 -12.2798 -1.6097 72 32 113 255 
-7.35356 -10.9866 -1.56708 72 36 117 255 
-6.67943 -9.96078 -1.53634 72 28 110 255 
-6.13245 -9.13104 -1.51453 72 31 112 255 
-5.68277 -8.49386 -1.49269 69 55 129 255 
-5.278 -7.87964 -1.47498 68 59 132 255 
-4.90733 -7.31536 -1.45356 51 99 141 255 
-4.60449 -6.85595 -1.44434 60 80 139 255 
-4.33512 -6.46981 -1.42935 48 105 142 255 
-4.08728 -6.09509 -1.41586 54 93 141 255 
-3.86706 -5.76463 -1.40849 58 84 140 255 
-3.67376 -5.47219 -1.40457 56 89 140 255 
-3.49372 -5.2082 -1.3915 54 93 141 255 
-3.324 -4.95313 -1.38154 55 90 140 255 
-3.16396 -4.71295 -1.37224 61 78 138 255 
-3.0347 -4.52369 -1.37433 57 85 140 255 
-2.91583 -4.33855 -1.36649 62 73 137 255 
-2.8113 -4.18283 -1.36739 58 84 140 255 
-2.68524 -3.99836 -1.35745 61 78 138 255 
-2.57716 -3.84456 -1.35608 61 77 138 255 
-0 -0 0 69 4 87 255 
-0 -0 0 68 2 86 255 
-0 -0 0 68 2 86 255 
-0 -0 0 68 2 86 255 
-0 -0 0 68 2 86 255 
-0 -0 0 68 2 86 255 
-0 -0 0 68 2 86 255 
-0 -0 0 68 2 86 255 
-33.0648 -49.0463 13.0485 70 7 90 255 
-33.0634 -49.0244 12.4287 70 11 94 255 
-33.1028 -49.0284 11.853 71 14 97 255 
-33.1527 -49.0635 11.2957 70 10 93 255 
-33.003 -48.9547 10.772 70 10 93 255 
-13.7429 -20.3694 4.23989 72 22 104 255 
-29.2623 -43.3076 8.50284 70 7 90 255 
-29.1705 -43.0891 7.98099 69 5 89 255 
-13.6303 -20.2108 3.53891 68 58 131 255 
-13.6732 -20.2585 3.3089 72 38 119 255 
-13.6944 -20.2446 3.07466 72 37 118 255 
-13.6582 -20.16 2.83905 72 37 118 255 
-13.6473 -20.236 2.64723 72 40 120 255 
-13.6613 -20.2181 2.41403 72 38 119 255 
-13.6539 -20.1771 2.17861 71 42 122 255 
-13.6777 -20.166 1.95196 72 36 117 255 
-14.6246 -21.6769 1.88814 72 20 103 255 
-16.4193 -24.2906 1.83948 72 24 106 255 
-16.4804 -24.3265 1.56563 72 31 112 255 
-16.5196 -24.3378 1.28942 72 28 110 255 
-16.4295 -24.3339 1.05609 72 28 110 255 
-16.4319 -24.2909 0.77819 72 28 110 255 
-16.4803 -24.3173 0.502498 72 29 111 255 
-16.5075 -24.3018 0.23074 72 26 108 255 
-16.4349 -24.3327 -0.00512481 72 29 111 255 
-16.4431 -24.2893 -0.281572 72 32 113 255 
-16.4743 -24.2901 -0.553296 72 32 113 255 
-16.4834 -24.2482 -0.829232 72 26 108 255 
-16.3908 -24.2402 -1.06275 72 24 106 255 
-16.4325 -24.2553 -1.33552 72 27 109 255 
-16.4582 -24.2573 -1.61323 72 29 111 255 
-16.4775 -24.2303 -1.88975 72 20 103 255 
-14.7289 -21.7742 -1.9074 70 11 94 255 
-12.2235 -18.0291 -1.78316 71 13 96 255 
-10.5739 -15.5671 -1.71925 72 20 103 255 
-9.29537 -13.669 -1.66741 70 11 94 255 
-8.28108 -12.2284 -1.60959 72 27 109 255 
-7.42474 -10.947 -1.56791 72 29 111 255 
-6.74823 -9.9311 -1.53812 71 19 101 255 
-6.18613 -9.08997 -1.51398 72 22 104 255 
-5.73644 -8.46129 -1.49313 66 64 134 255 
-5.32347 -7.84302 -1.47421 68 58 131 255 
-4.95323 -7.28674 -1.45389 53 95 141 255 
-4.64536 -6.82594 -1.44399 57 85 140 255 
-4.37529 -6.4439 -1.42953 52 97 141 255 
-4.12791 -6.07477 -1.417 56 89 140 255 
-3.90566 -5.74565 -1.40968 58 84 140 255 
-3.70947 -5.45278 -1.4054 51 98 141 255 
-3.53494 -5.2004 -1.39518 55 91 141 255 
-3.36145 -4.94311 -1.38447 58 84 140 255 
-3.19391 -4.69506 -1.37271 59 82 139 255 
-3.06567 -4.50979 -1.3758 60 79 138 255 
-2.93205 -4.30538 -1.36169 62 74 137 255 
-2.838 -4.1671 -1.36792 60 79 138 255 
-2.71622 -3.99135 -1.3607 61 78 138 255 
-2.60448 -3.83423 -1.35805 62 76 138 255 
-0 -0 0 68 2 86 255 
-0 -0 0 68 2 86 255 
-0 -0 0 68 2 86 255 
-0 -0 0 68 2 86 255 
-0 -0 0 68 2 86 255 
-0 -0 0 68 2 86 255 
-0 -0 0 68 2 86 255 
-0 -0 0 68 2 86 255 
-33.3833 -48.8691 13.0556 70 8 92 255 
-33.4139 -48.8942 12.4474 71 13 96 255 
-33.4318 -48.8664 11.8632 71 13 96 255 
-33.4237 -48.8162 11.2858 70 10 93 255 
-33.3544 -48.8268 10.7887 70 11 94 255 
-13.8014 -20.1879 4.21965 70 51 127 255 
-29.5152 -43.1093 8.49931 70 7 90 255 
-13.6987 -19.97 3.71434 72 22 104 255 
-13.6876 -20.0295 3.52181 68 57 131 255 
-13.7592 -20.1186 3.29978 72 36 117 255 
-13.7488 -20.0587 3.05919 72 35 116 255 
-13.7412 -20.0169 2.83071 72 33 115 255 
-13.7 -20.0476 2.63354 72 35 116 255 
-13.7312 -20.0551 2.40458 72 40 120 255 
-13.7318 -20.0264 2.17139 71 42 122 255 
-13.7684 -20.0341 1.94733 72 33 115 255 
-14.7314 -21.5489 1.88483 72 20 103 255 
-16.5691 -24.191 1.83961 72 35 116 255 
-16.6525 -24.2586 1.56781 72 32 113 255 
-16.6629 -24.2278 1.28898 72 22 104 255 
-16.5847 -24.2417 1.05649 72 31 112 255 
-16.606 -24.2267 0.779384 72 26 108 255 
-16.6439 -24.2371 0.502942 72 24 106 255 
-16.6478 -24.1877 0.230622 72 23 105 255 
-16.5839 -24.2314 -0.00512481 72 27 109 255 
-16.6037 -24.2053 -0.281774 72 22 104 255 
-16.6162 -24.1787 -0.55307 72 20 103 255 
-16.6302 -24.1441 -0.829147 71 16 99 255 
-16.5489 -24.1532 -1.06337 72 24 106 255 
-16.5782 -24.1499 -1.33529 72 24 106 255 
-16.6322 -24.1929 -1.6157 72 20 103 255 
-16.6354 -24.1427 -1.89084 72 20 103 255 
-14.8898 -21.7237 -1.91095 71 13 96 255 
-12.3322 -17.9513 -1.78292 71 17 100 255 
-10.7037 -15.5519 -1.7248 72 23 105 255 
-9.41294 -13.6608 -1.67343 71 19 101 255 
-8.33177 -12.1421 -1.60493 71 19 101 255 
-7.50414 -10.9193 -1.5705 72 28 110 255 
-6.80172 -9.87888 -1.53647 71 19 101 255 
-6.23166 -9.03716 -1.51153 72 31 112 255 
-5.81627 -8.46671 -1.50035 63 72 137 255 
-5.38101 -7.82405 -1.47682 67 61 132 255 
-4.99785 -7.25621 -1.45389 54 93 141 255 
-4.68883 -6.79974 -1.44451 58 83 139 255 
-4.41809 -6.42179 -1.43061 47 107 142 255 
-4.16455 -6.04852 -1.41681 57 86 140 255 
-3.92917 -5.70463 -1.40551 59 82 139 255 
-3.74285 -5.42991 -1.4054 55 91 141 255 
-3.56291 -5.17298 -1.39367 55 90 140 255 
-3.40278 -4.93844 -1.38899 54 92 141 255 
-3.22045 -4.67217 -1.37177 55 91 141 255 
-3.10263 -4.50447 -1.37996 58 84 140 255 
-2.98039 -4.31916 -1.3718 60 79 138 255 
-2.86406 -4.1504 -1.36818 59 82 139 255 
-2.74885 -3.9865 -1.36477 59 82 139 255 
-2.62959 -3.82055 -1.35889 58 83 139 255 
-0 -0 0 68 2 86 255 
-0 -0 0 68 2 86 255 
-0 -0 0 68 2 86 255 
-0 -0 0 68 2 86 255 
-0 -0 0 68 2 86 255 
-0 -0 0 68 2 86 255 
-0 -0 0 68 2 86 255 
-0 -0 0 68 2 86 255 
-33.6848 -48.6666 13.0564 70 10 93 255 
-33.7283 -48.7099 12.453 70 10 93 255 
-33.7467 -48.6829 11.8687 71 16 99 255 
-33.7512 -48.6513 11.2953 71 16 99 255 
-33.6853 -48.6674 10.799 71 13 96 255 
-13.8925 -20.0558 4.20979 68 59 132 255 
-0 -0 0 69 4 87 255 
-13.751 -19.7849 3.69554 71 45 123 255 
-13.7286 -19.8272 3.50098 72 35 116 255 
-13.7915 -19.9027 3.27818 72 40 120 255 
-13.8133 -19.89 3.04633 72 32 113 255 
-13.8042 -19.8466 2.81855 72 35 116 255 
-13.7871 -19.9117 2.62675 71 45 123 255 
-13.7961 -19.887 2.39453 72 40 120 255 
-13.7988 -19.8616 2.16266 72 38 119 255 
-13.7988 -19.8167 1.93439 72 35 116 255 
-14.8457 -21.4327 1.88259 71 19 101 255 
-16.6928 -24.0536 1.83691 72 26 108 255 
-18.84 -27.0876 1.75808 72 31 112 255 
-21.9478 -31.4963 1.68282 71 16 99 255 
-21.9021 -31.5963 1.38284 70 10 93 255 
-21.924 -31.5681 1.01987 70 10 93 255 
-21.8787 -31.4449 0.655282 71 13 96 255 
-21.9026 -31.408 0.300742 71 13 96 255 
-21.8283 -31.4782 -0.00668566 70 7 90 255 
-21.839 -31.4223 -0.367341 71 13 96 255 
-19.7888 -28.42 -0.652853 71 19 101 255 
-19.3317 -27.7009 -0.955347 71 16 99 255 
-19.0162 -27.3923 -1.21109 71 14 97 255 
-18.099 -26.0217 -1.4449 71 14 97 255 
-18.1021 -25.9879 -1.74296 71 13 96 255 
-18.0623 -25.8723 -2.03494 71 13 96 255 
-15.0496 -21.6704 -1.91435 71 13 96 255 
-12.4803 -17.9301 -1.78838 71 17 100 255 
-10.8416 -15.5472 -1.73163 72 26 108 255 
-9.54614 -13.6738 -1.68216 71 19 101 255 
-8.41746 -12.1071 -1.6071 72 22 104 255 
-7.571 -10.873 -1.5705 72 24 106 255 
-6.8764 -9.8573 -1.53964 71 17 100 255 
-6.28416 -8.99469 -1.51085 71 44 122 255 
-5.86132 -8.42111 -1.49862 65 68 135 255 
-5.42723 -7.78845 -1.47636 64 69 136 255 
-5.04341 -7.22703 -1.45421 55 91 141 255 
-4.72877 -6.76842 -1.44399 59 82 139 255 
-4.4591 -6.39699 -1.43116 47 107 142 255 
-4.20384 -6.02607 -1.41757 58 84 140 255 
-3.95849 -5.67238 -1.40352 57 86 140 255 
-3.77106 -5.39963 -1.40353 57 86 140 255 
-3.59347 -5.14942 -1.39324 56 88 140 255 
-3.43023 -4.91347 -1.38786 56 88 140 255 
-3.25351 -4.6587 -1.37365 58 84 140 255 
-3.12355 -4.47581 -1.37703 60 80 139 255 
-3.01294 -4.30952 -1.37459 61 78 138 255 
-2.88118 -4.12089 -1.36425 56 89 140 255 
-2.75673 -3.94589 -1.35663 59 81 139 255 
-2.65133 -3.80198 -1.35805 62 76 138 255 
-0 -0 0 68 2 86 255 
-0 -0 0 68 2 86 255 
-0 -0 0 69 4 87 255 
-0 -0 0 68 2 86 255 
-0 -0 0 68 2 86 255 
-0 -0 0 69 4 87 255 
-0 -0 0 69 4 87 255 
-0 -0 0 68 2 86 255 
-33.9805 -48.4558 13.0556 70 8 92 255 
-34.0232 -48.4973 12.4518 70 11 94 255 
-34.0949 -48.5463 11.8862 71 13 96 255 
-34.0575 -48.4554 11.2982 71 13 96 255 
-33.9957 -48.4775 10.8029 71 14 97 255 
-13.9507 -19.8782 4.1904 72 38 119 255 
-34.205 -48.667 9.67709 70 7 90 255 
-13.8192 -19.625 3.68145 69 53 129 255 
-13.8159 -19.694 3.49236 71 13 96 255 
-13.8872 -19.7804 3.27201 72 38 119 255 
-13.8518 -19.6864 3.02811 72 40 120 255 
-13.8828 -19.7006 2.80987 72 37 118 255 
-13.8405 -19.729 2.61381 72 40 120 255 
-13.8274 -19.6734 2.37898 71 42 122 255 
-13.843 -19.6666 2.15064 72 41 121 255 
-13.8667 -19.6559 1.92696 72 40 120 255 
-14.9667 -21.3265 1.8813 72 22 104 255 
-16.805 -23.901 1.83309 72 28 110 255 
-19.0657 -27.0564 1.76361 72 28 110 255 
-21.9217 -31.0509 1.66618 71 14 97 255 
-21.8767 -31.1497 1.36915 71 19 101 255 
-21.8717 -31.0839 1.00854 71 17 100 255 
-21.8656 -31.0183 0.649176 71 14 97 255 
-21.8623 -30.9439 0.297576 71 14 97 255 
-21.8101 -31.0433 -0.0066216 71 14 97 255 
-21.804 -30.9648 -0.363549 71 13 96 255 
-19.8527 -28.142 -0.649253 72 24 106 255 
-19.4725 -27.5409 -0.953934 72 24 106 255 
-18.927 -26.9097 -1.19486 70 11 94 255 
-18.0909 -25.6726 -1.43165 71 14 97 255 
-18.0131 -25.5247 -1.71928 70 11 94 255 
-18.0386 -25.5035 -2.0146 70 10 93 255 
-15.1966 -21.5981 -1.91616 70 10 93 255 
-12.6544 -17.9444 -1.79752 71 17 100 255 
-10.9316 -15.4731 -1.73081 72 23 105 255 
-9.6086 -13.5849 -1.67845 71 14 97 255 
-8.50705 -12.0771 -1.61003 71 19 101 255 
-7.62326 -10.8061 -1.56755 72 22 104 255 
-6.95507 -9.84084 -1.54371 72 26 108 255 
-6.33008 -8.94302 -1.50866 72 31 112 255 
-5.91973 -8.3947 -1.50035 67 62 133 255 
-5.4732 -7.75258 -1.4759 68 59 132 255 
-5.08823 -7.19675 -1.45438 56 88 140 255 
-4.76338 -6.72963 -1.44192 59 81 139 255 
-4.49656 -6.36709 -1.43061 50 100 142 255 
-4.24357 -6.00418 -1.41851 54 92 141 255 
-3.99662 -5.65278 -1.40471 56 88 140 255 
-3.80017 -5.3708 -1.40207 57 85 140 255 
-3.63007 -5.13445 -1.39518 54 93 141 255 
-3.46031 -4.89233 -1.38786 57 86 140 255 
-3.27642 -4.63071 -1.3713 59 82 139 255 
-3.15711 -4.46527 -1.37972 59 82 139 255 
-3.02814 -4.27516 -1.36953 61 77 138 255 
-2.90251 -4.09762 -1.36242 57 86 140 255 
-2.78589 -3.93597 -1.35908 59 82 139 255 
-2.67129 -3.78094 -1.35636 61 77 138 255 
-0 -0 0 68 2 86 255 
-0 -0 0 68 2 86 255 
-0 -0 0 68 2 86 255 
-0 -0 0 68 2 86 255 
-0 -0 0 68 2 86 255 
-0 -0 0 68 2 86 255 
-0 -0 0 68 2 86 255 
-0 -0 0 69 4 87 255 
-34.3558 -48.357 13.0855 71 13 96 255 
-34.3513 -48.3315 12.4631 71 16 99 255 
-34.3984 -48.345 11.8884 71 13 96 255 
-34.3702 -48.2679 11.3034 71 14 97 255 
-34.3124 -48.296 10.8092 71 13 96 255 
-13.9594 -19.6332 4.15674 72 29 111 255 
-13.866 -19.4735 3.88901 72 41 121 255 
-13.8998 -19.4843 3.67098 68 57 131 255 
-13.8808 -19.5306 3.47843 72 38 119 255 
-13.9101 -19.5567 3.24907 70 52 128 255 
-13.8969 -19.4952 3.01176 71 44 122 255 
-13.9203 -19.4987 2.79319 72 35 116 255 
-13.9054 -19.5651 2.60335 72 41 121 255 
-13.9242 -19.5549 2.37494 71 44 122 255 
-13.9177 -19.5173 2.1436 72 36 117 255 
-13.9262 -19.4853 1.91858 72 36 117 255 
-15.0603 -21.1822 1.87669 71 17 100 255 
-16.9022 -23.7283 1.82777 72 27 109 255 
-19.2481 -26.9624 1.76516 72 23 105 255 
-21.805 -30.4868 1.64305 71 17 100 255 
-21.8571 -30.7193 1.3561 71 17 100 255 
-21.7811 -30.5551 0.995702 71 16 99 255 
-21.7766 -30.493 0.640967 71 17 100 255 
-21.7783 -30.427 0.293885 71 14 97 255 
-21.7415 -30.5456 -0.00654376 71 17 100 255 
-21.7421 -30.4779 -0.359393 71 16 99 255 
-19.8256 -27.7407 -0.642788 71 19 101 255 
-19.7127 -27.5209 -0.957411 71 16 99 255 
-18.927 -26.562 -1.18456 71 16 99 255 
-18.0397 -25.2692 -1.4153 71 16 99 255 
-18.0143 -25.1969 -1.70461 70 10 93 255 
-18.0029 -25.1246 -1.99336 71 13 96 255 
-15.3167 -21.4873 -1.91464 70 10 93 255 
-12.7921 -17.9053 -1.80144 70 11 94 255 
-11.0455 -15.4324 -1.73381 72 29 111 255 
-9.66975 -13.495 -1.67464 71 16 99 255 
-8.58504 -12.0304 -1.61079 72 22 104 255 
-7.67961 -10.7454 -1.56555 72 22 104 255 
-7.01013 -9.79072 -1.54256 72 37 118 255 
-6.37675 -8.89274 -1.50675 72 26 108 255 
-5.9717 -8.35902 -1.5005 65 68 135 255 
-5.52642 -7.72689 -1.47744 68 58 131 255 
-5.12597 -7.15657 -1.45259 58 84 140 255 
-4.82353 -6.72669 -1.44761 56 88 140 255 
-4.53154 -6.33379 -1.42935 50 102 142 255 
-4.28147 -5.97962 -1.41889 54 92 141 255 
-4.03522 -5.63373 -1.4061 58 84 140 255 
-3.83533 -5.35056 -1.4029 58 83 139 255 
-3.66548 -5.11763 -1.3967 55 91 141 255 
-3.49026 -4.87101 -1.38786 55 91 141 255 
-3.3059 -4.6121 -1.37177 57 86 140 255 
-3.18784 -4.45054 -1.38118 59 82 139 255 
-3.05206 -4.25335 -1.36852 62 73 137 255 
-2.93097 -4.08444 -1.36399 58 83 139 255 
-2.80157 -3.90707 -1.35501 58 83 139 255 
-2.69276 -3.76213 -1.35552 59 81 139 255 
-0 -0 0 69 4 87 255 
-0 -0 0 68 2 86 255 
-0 -0 0 69 4 87 255 
-0 -0 0 68 2 86 255 
-0 -0 0 69 4 87 255 
-0 -0 0 68 2 86 255 
-0 -0 0 68 2 86 255 
-0 -0 0 68 2 86 255 
-34.6678 -48.1675 13.0915 70 8 92 255 
-34.6512 -48.1253 12.4645 70 11 94 255 
-34.6961 -48.1354 11.8889 71 14 97 255 
-34.7197 -48.131 11.321 71 13 96 255 
-34.6202 -48.1014 10.813 70 11 94 255 
-14.0738 -19.5392 4.15504 70 11 94 255 
-13.9558 -19.3472 3.88082 71 45 123 255 
-13.9652 -19.3241 3.65688 72 24 106 255 
-30.563 -42.4487 7.59343 71 14 97 255 
-13.9568 -19.3697 3.23216 72 38 119 255 
-13.993 -19.3774 3.00676 71 44 122 255 
-14.0001 -19.3581 2.78532 71 42 122 255 
-13.977 -19.4125 2.5944 71 42 122 255 
-13.9834 -19.3852 2.3647 71 44 122 255 
-13.9573 -19.3209 2.1314 71 42 122 255 
-13.9584 -19.2792 1.90668 72 37 118 255 
-15.1882 -21.087 1.87647 71 17 100 255 
-17.0358 -23.608 1.82652 72 27 109 255 
-0 -0 0 68 1 84 255 
-21.7923 -30.0773 1.62816 71 19 101 255 
-21.7735 -30.2077 1.33939 71 19 101 255 
-21.7529 -30.1227 0.985941 71 16 99 255 
-21.7435 -30.055 0.634553 71 19 101 255 
-21.7438 -29.9884 0.290932 71 16 99 255 
-21.6998 -30.0944 -0.00647552 71 16 99 255 
-21.7191 -30.0538 -0.355956 71 19 101 255 
-19.7967 -27.344 -0.636399 71 19 101 255 
-19.8096 -27.3007 -0.953962 70 8 92 255 
-18.8633 -26.1318 -1.17051 72 20 103 255 
-18.0159 -24.9112 -1.40141 71 17 100 255 
-17.8611 -24.6613 -1.67576 70 7 90 255 
-17.9199 -24.6874 -1.96736 70 11 94 255 
-15.3992 -21.325 -1.90856 70 10 93 255 
-12.9087 -17.8362 -1.80242 71 13 96 255 
-11.1295 -15.3499 -1.73217 72 26 108 255 
-9.76699 -13.4555 -1.67714 71 16 99 255 
-8.65636 -11.9743 -1.61035 72 27 109 255 
-7.74074 -10.6916 -1.56461 72 24 106 255 
-7.06308 -9.73789 -1.54104 72 29 111 255 
-6.43993 -8.86547 -1.5088 72 23 105 255 
-6.02172 -8.32062 -1.50021 66 64 134 255 
-5.57083 -7.68884 -1.47667 68 57 131 255 
-5.1779 -7.13616 -1.45486 56 89 140 255 
-4.86703 -6.70016 -1.4483 59 82 139 255 
-4.56801 -6.30268 -1.42863 48 106 142 255 
-4.31174 -5.94449 -1.41681 53 95 141 255 
-4.06971 -5.60886 -1.4061 60 80 139 255 
-3.86866 -5.32772 -1.40311 59 82 139 255 
-3.69682 -5.09505 -1.3967 56 88 140 255 
-3.52581 -4.85738 -1.39011 56 88 140 255 
-3.34613 -4.60825 -1.3767 55 91 141 255 
-3.19858 -4.40814 -1.37409 61 78 138 255 
-3.07241 -4.22672 -1.36599 62 73 137 255 
-2.94463 -4.05076 -1.35875 60 80 139 255 
-2.83002 -3.89603 -1.35718 59 81 139 255 
-2.71918 -3.7502 -1.3572 62 76 138 255 
-0 -0 0 68 2 86 255 
-0 -0 0 68 2 86 255 
-0 -0 0 68 2 86 255 
-0 -0 0 69 4 87 255 
-0 -0 0 68 2 86 255 
-0 -0 0 68 2 86 255 
-0 -0 0 68 2 86 255 
-0 -0 0 68 2 86 255 
-34.9771 -47.9736 13.0969 70 8 92 255 
-34.9608 -47.9324 12.4699 70 11 94 255 
-35.0215 -47.9636 11.8994 70 11 94 255 
-35.0294 -47.9376 11.3259 71 13 96 255 
-34.9842 -47.9834 10.8345 71 13 96 255 
-35.005 -47.9753 10.2475 70 11 94 255 
-14.0195 -19.1863 3.86573 68 58 131 255 
-31.0234 -42.3778 8.05543 70 11 94 255 
-30.9448 -42.4275 7.62346 71 16 99 255 
-14.0328 -19.2252 3.22237 72 33 115 255 
-14.0232 -19.1703 2.98792 72 41 121 255 
-14.0394 -19.1637 2.76968 72 33 115 255 
-14.0396 -19.2493 2.58405 72 41 121 255 
-14.0393 -19.213 2.35417 72 41 121 255 
-14.0197 -19.1585 2.12294 72 40 120 255 
-14.0369 -19.1393 1.90133 72 38 119 255 
-15.312 -20.9861 1.87582 71 14 97 255 
-17.1479 -23.4587 1.82307 72 27 109 255 
-21.7215 -29.6508 1.95846 70 7 90 255 
-21.7654 -29.6555 1.61253 70 7 90 255 
-21.7162 -29.7418 1.32461 71 16 99 255 
-21.7443 -29.7248 0.977267 71 19 101 255 
-21.7715 -29.7081 0.630038 70 11 94 255 
-21.6794 -29.5167 0.287641 71 17 100 255 
-21.6487 -29.6385 -0.00640588 71 17 100 255 
-21.6568 -29.5835 -0.351953 71 17 100 255 
-19.7471 -26.9261 -0.629481 71 19 101 255 
-18.9478 -25.7788 -0.904828 70 8 92 255 
-18.8504 -25.7792 -1.15988 72 24 106 255 
-17.9269 -24.4705 -1.38279 71 13 96 255 
-17.8886 -24.383 -1.66428 71 14 97 255 
-17.8778 -24.3141 -1.94632 70 10 93 255 
-15.5886 -21.3106 -1.91579 70 10 93 255 
-13.0114 -17.7478 -1.80152 71 13 96 255 
-11.2181 -15.2741 -1.73135 72 23 105 255 
-9.85585 -13.4041 -1.67825 72 27 109 255 
-8.73202 -11.9241 -1.61079 72 23 105 255 
-7.82205 -10.6655 -1.56779 72 24 106 255 
-7.13092 -9.70556 -1.54282 72 36 117 255 
-6.51005 -8.84733 -1.51248 72 29 111 255 
-6.0633 -8.27074 -1.4979 67 61 132 255 
-5.58925 -7.61548 -1.46914 66 64 134 255 
-5.20873 -7.08677 -1.45128 58 84 140 255 
-4.90046 -6.65985 -1.44606 53 95 141 255 
-4.60077 -6.2666 -1.42682 52 96 141 255 
-4.34987 -5.9203 -1.41738 53 94 141 255 
-4.10695 -5.58774 -1.4071 57 85 140 255 
-3.90186 -5.30467 -1.40332 60 80 139 255 
-3.73032 -5.07541 -1.39757 56 89 140 255 
-3.55555 -4.83566 -1.39011 55 91 141 255 
-3.3732 -4.58606 -1.37623 58 84 140 255 
-3.21121 -4.3689 -1.36797 60 80 139 255 
-3.09771 -4.20701 -1.36573 62 73 137 255 
-2.9906 -4.06137 -1.36844 59 82 139 255 
-2.87042 -3.90108 -1.36504 60 80 139 255 
-2.75123 -3.74582 -1.3617 63 71 136 255 
-0 -0 0 68 2 86 255 
-0 -0 0 69 4 87 255 
-0 -0 0 68 2 86 255 
-0 -0 0 69 4 87 255 
-0 -0 0 68 2 86 255 
-0 -0 0 68 2 86 255 
-0 -0 0 68 2 86 255 
-0 -0 0 68 2 86 255 
-35.3335 -47.8429 13.1202 70 8 92 255 
-35.3299 -47.8193 12.4966 70 11 94 255 
-35.3425 -47.7849 11.9086 71 13 96 255 
-35.3177 -47.7147 11.3242 71 13 96 255 
-35.2938 -47.7892 10.8393 70 10 93 255 
-14.0431 -19.0005 4.07682 72 24 106 255 
-14.0964 -19.0452 3.85465 68 58 131 255 
-31.3494 -42.2764 8.07256 70 10 93 255 
-25.7115 -34.8017 6.28148 70 8 92 255 
-14.1139 -19.0894 3.21405 72 40 120 255 
-14.1163 -19.0512 2.9828 72 41 121 255 
-14.1022 -19.0038 2.75903 72 36 117 255 
-14.0848 -19.0644 2.57078 72 37 118 255 
-14.071 -19.0105 2.33989 72 41 121 255 
-14.0937 -19.0137 2.11644 71 42 122 255 
-14.0744 -18.9456 1.89063 72 40 120 255 
-15.4209 -20.8653 1.87345 71 14 97 255 
-17.279 -23.3362 1.82176 72 24 106 255 
-0 -0 0 68 1 84 255 
-0 -0 0 68 1 84 255 
-0 -0 0 68 2 86 255 
-0 -0 0 68 1 84 255 
-0 -0 0 68 1 84 255 
-21.5629 -28.9836 0.28373 70 11 94 255 
-21.6333 -29.239 -0.00634811 71 17 100 255 
-21.6199 -29.1561 -0.34844 71 13 96 255 
-19.6902 -26.5058 -0.62247 71 19 101 255 
-18.871 -25.3469 -0.893717 71 19 101 255 
-18.8043 -25.3876 -1.14743 72 23 105 255 
-17.9523 -24.1924 -1.37327 71 13 96 255 
-17.8741 -24.0524 -1.64916 70 10 93 255 
-17.8973 -24.0303 -1.93235 71 16 99 255 
-15.7452 -21.2499 -1.91898 70 10 93 255 
-13.1218 -17.67 -1.80177 71 13 96 255 
-11.295 -15.1826 -1.72881 72 24 106 255 
-9.93553 -13.3402 -1.67785 72 29 111 255 
-8.80147 -11.8655 -1.61014 72 27 109 255 
-7.87965 -10.607 -1.56626 72 23 105 255 
-7.18738 -9.65764 -1.54218 72 26 108 255 
-6.59737 -8.8517 -1.52012 72 35 116 255 
-6.11924 -8.24053 -1.4992 66 63 133 255 
-5.63175 -7.57549 -1.46806 65 68 135 255 
-5.24917 -7.05072 -1.45047 57 86 140 255 
-4.93829 -6.62571 -1.4452 55 91 141 255 
-4.63503 -6.23273 -1.42556 51 99 141 255 
-4.3996 -5.91162 -1.42173 48 105 142 255 
-4.13297 -5.55143 -1.40431 59 81 139 255 
-3.9507 -5.30259 -1.40915 56 88 140 255 
-3.74857 -5.0352 -1.3928 60 80 139 255 
-3.58922 -4.81922 -1.39169 55 91 141 255 
-3.40069 -4.5645 -1.376 57 86 140 255 
-3.24722 -4.36156 -1.37189 58 83 139 255 
-3.11942 -4.1825 -1.36396 62 76 138 255 
-2.99873 -4.02051 -1.36085 60 80 139 255 
-2.88682 -3.87336 -1.36152 63 71 136 255 
-2.76499 -3.71655 -1.3572 64 70 136 255 
-0 -0 0 69 4 87 255 
-0 -0 0 68 2 86 255 
-0 -0 0 68 2 86 255 
-0 -0 0 68 2 86 255 
-0 -0 0 68 2 86 255 
-0 -0 0 68 2 86 255 
-0 -0 0 68 2 86 255 
-0 -0 0 69 4 87 255 
-35.6363 -47.6385 13.1239 70 10 93 255 
-35.6912 -47.6933 12.5207 71 13 96 255 
-35.6727 -47.6173 11.9212 71 13 96 255 
-35.6681 -47.5749 11.3428 71 13 96 255 
-35.5964 -47.5851 10.8424 71 14 97 255 
-14.1482 -18.899 4.07359 69 53 129 255 
-14.1207 -18.8352 3.8296 72 29 111 255 
-31.832 -42.3812 8.12971 70 11 94 255 
-25.924 -34.6425 6.28134 71 19 101 255 
-14.1613 -18.9096 3.19835 72 40 120 255 
-14.1978 -18.9174 2.97544 71 44 122 255 
-14.1601 -18.8391 2.74768 72 33 115 255 
-14.152 -18.9115 2.56183 72 40 120 255 
-14.1522 -18.8769 2.33408 71 46 124 255 
-14.1599 -18.86 2.10896 71 44 122 255 
-14.1562 -18.8135 1.88608 72 37 118 255 
-15.5146 -20.7248 1.86934 71 13 96 255 
-17.4111 -23.2153 1.82063 72 29 111 255 
-0 -0 0 68 2 86 255 
-0 -0 0 68 1 84 255 
-0 -0 0 68 1 84 255 
-0 -0 0 68 1 84 255 
-0 -0 0 68 1 84 255 
-21.5212 -28.5601 0.280871 71 17 100 255 
-21.5976 -28.8193 -0.00628563 72 20 103 255 
-21.169 -28.1849 -0.33838 70 10 93 255 
-19.6432 -26.1065 -0.61591 72 23 105 255 
-18.7126 -24.8149 -0.878988 72 22 104 255 
-18.7792 -25.0311 -1.1365 72 22 104 255 
-18.002 -23.9509 -1.3658 71 14 97 255 
-17.8214 -23.6766 -1.63087 70 11 94 255 
-17.7986 -23.5942 -1.90603 70 7 90 255 
-15.9023 -21.1887 -1.92223 70 10 93 255 
-13.257 -17.625 -1.80544 71 14 97 255 
-11.4059 -15.1368 -1.73154 72 26 108 255 
-10.0232 -13.287 -1.67885 72 23 105 255 
-8.86157 -11.7946 -1.60786 71 16 99 255 
-8.03116 -10.6735 -1.58333 72 31 112 255 
-7.24351 -9.6094 -1.54155 71 17 100 255 
-6.67961 -8.84822 -1.52653 72 38 119 255 
-6.18932 -8.22893 -1.50397 67 61 132 255 
-5.67337 -7.53447 -1.46683 65 66 135 255 
-5.29768 -7.02547 -1.45193 57 85 140 255 
-4.98004 -6.59686 -1.44554 54 92 141 255 
-4.67437 -6.20574 -1.42592 52 97 141 255 
-4.42988 -5.87667 -1.41984 51 98 141 255 
-4.17167 -5.53222 -1.4059 56 88 140 255 
-3.98434 -5.27981 -1.40957 56 89 140 255 
-3.78233 -5.016 -1.39389 57 86 140 255 
-3.62283 -4.80255 -1.39327 56 88 140 255 
-3.4421 -4.56139 -1.3814 56 89 140 255 
