ply
format ascii 1.0
comment VTK generated PLY File
obj_info vtkPolyData points and polygons: vtk4.0
element vertex 1178
property float x
property float y
property float z
property uchar red
property uchar green
property uchar blue
property uchar alpha
element face 0
property list uchar int vertex_indices
end_header
-3.9725 -2.60584 -1.339 71 47 125 255 
-3.8262 -2.51458 -1.34146 71 46 124 255 
-0 -0 0 68 2 86 255 
-38.2897 -25.029 13.2294 70 11 94 255 
-38.3629 -25.0965 12.7736 70 8 92 255 
-38.3138 -25.0632 12.2933 70 11 94 255 
-38.4317 -25.1034 11.9143 70 10 93 255 
-37.101 -24.2427 11.0336 70 11 94 255 
-37.1032 -24.2354 10.5823 71 14 97 255 
-37.0617 -24.1981 10.1373 70 11 94 255 
-38.5421 -25.1851 10.1565 70 8 92 255 
-17.087 -11.1608 4.2897 68 57 131 255 
-16.9723 -11.0734 4.06043 72 31 112 255 
-38.6132 -25.1727 8.79287 71 14 97 255 
-37.459 -24.4774 8.16424 69 5 89 255 
-0 -0 0 68 2 86 255 
-17.0219 -11.0974 3.30566 69 56 130 255 
-17.0281 -11.0798 3.11596 71 46 124 255 
-17.0015 -11.1053 2.94801 68 57 131 255 
-16.9903 -11.0892 2.74677 68 58 131 255 
-16.9388 -11.0305 2.54283 71 47 125 255 
-16.9911 -11.0473 2.36286 70 52 128 255 
-16.9556 -11.0753 2.19652 68 58 131 255 
-17.002 -11.0841 2.00792 68 59 132 255 
-18.2785 -11.8984 1.95033 72 33 115 255 
-20.9338 -13.5952 1.99955 72 28 110 255 
-23.5685 -15.389 2.03247 71 13 96 255 
-23.6297 -15.3991 1.76954 72 35 116 255 
-26.2773 -17.0857 1.67007 72 23 105 255 
-28.9117 -18.762 1.51084 71 16 99 255 
-33.9924 -22.1784 1.45991 69 5 89 255 
-34.3413 -22.3626 1.08743 70 10 93 255 
-34.2721 -22.2754 0.699204 71 14 97 255 
-34.2904 -22.2356 0.320989 71 14 97 255 
-34.3366 -22.3944 -0.0071548 71 13 96 255 
-34.3269 -22.3361 -0.393143 70 11 94 255 
-34.2092 -22.2175 -0.768979 70 11 94 255 
-34.2545 -22.1953 -1.15437 70 8 92 255 
-34.2386 -22.3049 -1.4841 70 10 93 255 
-34.2228 -22.2514 -1.86079 69 4 87 255 
-34.2093 -22.2091 -2.24461 70 8 92 255 
-0 -0 -0 68 2 86 255 
-23.1679 -15.0871 -2.00604 70 8 92 255 
-18.9083 -12.2847 -1.84591 71 16 99 255 
-16.193 -10.5006 -1.7632 70 11 94 255 
-14.2624 -9.23785 -1.71408 71 17 100 255 
-12.6116 -8.20341 -1.63971 71 16 99 255 
-11.3647 -7.3808 -1.60628 70 48 126 255 
-10.28 -6.66373 -1.56938 71 47 125 255 
-9.35623 -6.05546 -1.53458 71 42 122 255 
-8.62438 -5.60344 -1.50223 70 52 128 255 
-8.00782 -5.19669 -1.48466 70 52 128 255 
-7.47208 -4.8417 -1.46919 68 59 132 255 
-6.98368 -4.51992 -1.45485 69 53 129 255 
-6.55745 -4.25401 -1.43459 68 57 131 255 
-6.16881 -3.99867 -1.41832 65 68 135 255 
-5.80821 -3.76356 -1.40431 66 63 133 255 
-5.5014 -3.56193 -1.39665 65 66 135 255 
-5.23035 -3.3892 -1.38284 66 64 134 255 
-4.99273 -3.23385 -1.3777 64 69 136 255 
-4.81957 -3.12056 -1.38798 61 78 138 255 
-4.58699 -2.97216 -1.37898 68 57 131 255 
-4.36009 -2.81989 -1.35739 69 55 129 255 
-4.19787 -2.71486 -1.3564 70 48 126 255 
-4.00134 -2.58979 -1.34334 70 51 127 255 
-3.87457 -2.51246 -1.35299 71 47 125 255 
-39.1638 -25.2112 13.9915 69 5 89 255 
-38.7929 -25.0195 13.35 70 10 93 255 
-38.7914 -25.0382 12.8649 70 11 94 255 
-38.8255 -25.0591 12.4079 70 8 92 255 
-38.9682 -25.1141 12.0327 70 8 92 255 
-38.925 -25.0951 11.53 70 8 92 255 
-37.5177 -24.179 10.6581 71 16 99 255 
-37.5176 -24.1687 10.2213 71 14 97 255 
-38.7993 -25.0148 10.1836 71 16 99 255 
-17.1609 -11.0595 4.29114 63 71 136 255 
-16.9599 -10.9176 4.04137 71 19 101 255 
-38.8875 -25.0129 8.82023 70 11 94 255 
-37.7449 -24.335 8.19385 71 14 97 255 
-39.0467 -25.1543 8.01455 70 10 93 255 
-17.0706 -10.9804 3.30197 70 52 128 255 
-17.0417 -10.9404 3.1061 70 51 127 255 
-17.0602 -10.9949 2.94643 69 56 130 255 
-17.0405 -10.9735 2.74396 68 59 132 255 
-17.0161 -10.9328 2.54433 68 57 131 255 
-17.0402 -10.931 2.36032 69 53 129 255 
-17.0082 -10.9614 2.19458 68 59 132 255 
-17.0169 -10.9457 2.00171 69 55 129 255 
-18.3411 -11.7796 1.94926 72 37 118 255 
-21.0244 -13.4714 2.00027 72 29 111 255 
-21.2099 -13.6641 1.82181 70 10 93 255 
-23.7313 -15.2587 1.7701 72 27 109 255 
-26.4254 -16.9521 1.67284 72 23 105 255 
-29.0961 -18.629 1.51448 71 17 100 255 
-34.4455 -22.1738 1.4735 70 7 90 255 
-31.9548 -20.5304 1.00785 71 17 100 255 
-31.9589 -20.4941 0.649433 71 16 99 255 
-31.9834 -20.4619 0.298213 72 23 105 255 
-34.3279 -22.0896 -0.00712461 70 11 94 255 
-34.4692 -22.1289 -0.393211 70 8 92 255 
-34.424 -22.0579 -0.77075 70 7 90 255 
-38.7973 -24.8022 -1.30231 70 7 90 255 
-34.3672 -22.0896 -1.48377 70 7 90 255 
-0 -0 -0 68 2 86 255 
-23.856 -15.2803 -1.5591 69 5 89 255 
-23.6435 -15.1089 -1.80956 69 4 87 255 
-23.2399 -14.9318 -2.0043 69 5 89 255 
-18.9666 -12.1577 -1.84427 71 16 99 255 
-16.2772 -10.414 -1.76538 71 13 96 255 
-14.3272 -9.15552 -1.71508 71 17 100 255 
-12.6517 -8.11943 -1.63841 72 23 105 255 
-11.4165 -7.31521 -1.60722 71 42 122 255 
-10.3115 -6.59465 -1.56798 71 46 124 255 
-9.40573 -6.00593 -1.53663 71 42 122 255 
-8.64777 -5.54347 -1.50035 70 52 128 255 
-8.04038 -5.14799 -1.48481 70 48 126 255 
-7.48918 -4.78779 -1.46675 69 56 130 255 
-7.00298 -4.47168 -1.45312 69 55 129 255 
-6.58591 -4.21529 -1.43513 66 65 134 255 
-6.19819 -3.96392 -1.41946 66 65 134 255 
-5.8312 -3.72785 -1.40431 66 65 134 255 
-5.52233 -3.52758 -1.39644 66 63 133 255 
-5.25105 -3.35704 -1.38284 66 65 134 255 
-5.01248 -3.20316 -1.3777 63 72 137 255 
-4.8075 -3.07105 -1.37905 64 69 136 255 
-4.60759 -2.94552 -1.37972 67 61 132 255 
-4.36916 -2.78788 -1.35486 68 58 131 255 
-4.22584 -2.69632 -1.36006 69 55 129 255 
-4.04961 -2.58591 -1.35419 71 47 125 255 
-3.88992 -2.48864 -1.35299 70 51 127 255 
-39.3655 -25.0007 14.0084 70 7 90 255 
-39.141 -24.9053 13.4169 70 11 94 255 
-39.1596 -24.9368 12.936 71 13 96 255 
-39.1626 -24.9377 12.4665 70 10 93 255 
-39.1559 -24.8963 12.0432 71 17 100 255 
-39.1356 -24.8923 11.547 72 20 103 255 
-38.0068 -24.1655 10.7547 71 13 96 255 
-37.9367 -24.1106 10.295 71 13 96 255 
-39.0583 -24.8439 10.2114 71 16 99 255 
-17.2045 -10.9387 4.28518 62 74 137 255 
-39.1038 -24.8342 9.28154 71 19 101 255 
-38.9714 -24.7301 8.80467 71 13 96 255 
-37.911 -24.1141 8.19762 71 16 99 255 
-39.0556 -24.8222 7.98496 71 19 101 255 
-17.0977 -10.8501 3.29426 71 47 125 255 
-17.0751 -10.8145 3.10004 71 44 122 255 
-17.0872 -10.8645 2.93954 68 57 131 255 
-17.0799 -10.8512 2.73953 67 62 133 255 
-17.0829 -10.8282 2.54433 67 61 132 255 
-17.0817 -10.8104 2.35684 70 51 127 255 
-17.0575 -10.8456 2.19232 68 59 132 255 
-17.0636 -10.8283 1.99935 67 61 132 255 
-18.4366 -11.6817 1.95175 71 42 122 255 
-21.1201 -13.3506 2.00154 72 26 108 255 
-21.2547 -13.5091 1.8185 70 11 94 255 
-23.8641 -15.1379 1.77304 72 29 111 255 
-26.555 -16.8062 1.67449 72 24 106 255 
-29.2723 -18.4896 1.51772 71 17 100 255 
-34.7016 -22.0387 1.47864 70 7 90 255 
-32.1063 -20.3505 1.00867 71 16 99 255 
-29.4325 -18.6201 0.595762 72 23 105 255 
-32.0915 -20.2546 0.298056 70 10 93 255 
-35.589 -22.5936 -0.00735744 71 17 100 255 
-38.8366 -24.5975 -0.441302 71 19 101 255 
-38.8468 -24.557 -0.866387 72 20 103 255 
-38.8608 -24.5082 -1.29937 71 14 97 255 
-38.8316 -24.6237 -1.66996 71 17 100 255 
-24.2625 -15.355 -1.30888 69 4 87 255 
-24.0565 -15.2014 -1.56608 69 5 89 255 
-28.5053 -17.9704 -2.17318 69 4 87 255 
-23.6293 -14.9779 -2.02992 70 7 90 255 
-19.0492 -12.0464 -1.84509 71 14 97 255 
-16.3535 -10.3219 -1.76674 71 16 99 255 
-14.3797 -9.06531 -1.71468 71 19 101 255 
-12.6668 -8.01985 -1.63397 72 20 103 255 
-11.4771 -7.25511 -1.60946 70 50 126 255 
-10.3585 -6.53549 -1.56899 71 45 123 255 
-9.45582 -5.95655 -1.53881 71 46 124 255 
-8.67995 -5.48925 -1.50007 69 56 130 255 
-8.06681 -5.09539 -1.48389 69 55 129 255 
-7.51341 -4.73859 -1.46577 67 62 133 255 
-7.02862 -4.42758 -1.45278 68 59 132 255 
-6.60999 -4.17375 -1.43477 69 56 130 255 
-6.22073 -3.92476 -1.41908 66 64 134 255 
-5.8581 -3.69462 -1.40531 66 65 134 255 
-5.54635 -3.49519 -1.39706 67 62 133 255 
-5.2732 -3.3258 -1.38327 64 69 136 255 
-5.03121 -3.17182 -1.37748 62 73 137 255 
-4.82296 -3.03942 -1.37811 65 68 135 255 
-4.62148 -2.91461 -1.37849 64 70 136 255 
-4.40337 -2.77184 -1.36017 69 56 130 255 
-4.24557 -2.67239 -1.36111 69 55 129 255 
-4.03934 -2.54459 -1.34551 69 53 129 255 
-3.84425 -2.42631 -1.3319 71 45 123 255 
-39.8168 -24.9458 14.1143 70 7 90 255 
-39.1369 -24.5666 13.3636 70 11 94 255 
-39.2246 -24.6413 12.9073 71 16 99 255 
-39.1432 -24.589 12.4121 71 19 101 255 
-39.2136 -24.5965 12.0143 71 16 99 255 
-39.124 -24.549 11.4989 71 17 100 255 
-38.4173 -24.0967 10.8288 71 13 96 255 
-38.3821 -24.0643 10.3755 71 13 96 255 
-38.99 -24.4657 10.1541 70 10 93 255 
-17.2572 -10.8241 4.28168 58 84 140 255 
-39.0835 -24.4861 9.24087 71 17 100 255 
-38.7852 -24.2794 8.72878 71 14 97 255 
-38.8074 -24.3511 8.35898 71 13 96 255 
-39.0193 -24.4643 7.9467 71 19 101 255 
-17.1505 -10.7366 3.29169 70 48 126 255 
-17.1361 -10.7064 3.09913 70 48 126 255 
-17.1201 -10.7384 2.93379 68 57 131 255 
-17.1185 -10.7288 2.7351 67 61 132 255 
-17.1246 -10.7079 2.54071 66 63 133 255 
-17.1376 -10.699 2.35545 70 50 126 255 
-17.1085 -10.7312 2.19037 69 55 129 255 
-17.0993 -10.7043 1.99581 69 55 129 255 
-18.5282 -11.581 1.95389 72 35 116 255 
-21.2524 -13.2524 2.00634 72 28 110 255 
-21.338 -13.3789 1.81857 70 11 94 255 
-23.9904 -15.0124 1.77555 72 28 110 255 
-26.6788 -16.6562 1.67582 72 27 109 255 
-29.3912 -18.3133 1.51802 71 16 99 255 
-29.5737 -18.5283 1.25527 72 37 118 255 
-29.5352 -18.4678 0.924321 72 33 115 255 
-29.5589 -18.4471 0.596019 71 16 99 255 
-32.2296 -20.0663 0.298189 71 13 96 255 
-35.9795 -22.5329 -0.00740945 72 23 105 255 
-38.8147 -24.2512 -0.439354 71 19 101 255 
-38.833 -24.2161 -0.86275 71 19 101 255 
-38.845 -24.1663 -1.29386 71 17 100 255 
-38.7583 -24.2451 -1.66038 71 17 100 255 
-24.2012 -15.1091 -1.30055 70 8 92 255 
-24.0519 -14.9928 -1.55976 70 7 90 255 
-28.8506 -17.9416 -2.19107 69 5 89 255 
-23.4747 -14.6788 -2.00886 70 8 92 255 
-19.1794 -11.9646 -1.85056 71 13 96 255 
-16.4283 -10.2287 -1.76802 71 17 100 255 
-14.3793 -8.94223 -1.70806 71 17 100 255 
-12.7908 -7.98884 -1.64361 72 20 103 255 
-11.5223 -7.18507 -1.60958 70 50 126 255 
-10.3984 -6.4718 -1.56899 70 48 126 255 
-9.45432 -5.87489 -1.53267 72 41 121 255 
-8.74453 -5.45526 -1.50541 70 50 126 255 
-8.09624 -5.04475 -1.48359 70 50 126 255 
-7.54569 -4.69449 -1.46642 68 57 131 255 
-7.06402 -4.38956 -1.4545 70 50 126 255 
-6.63882 -4.13519 -1.43549 66 63 133 255 
-6.23303 -3.87926 -1.41643 67 61 132 255 
-5.88982 -3.6643 -1.40749 66 65 134 255 
-5.56686 -3.46058 -1.39686 65 66 135 255 
-5.2877 -3.28977 -1.38176 66 65 134 255 
-5.04644 -3.13832 -1.37635 63 72 137 255 
-4.83904 -3.00823 -1.37741 66 64 134 255 
-4.63763 -2.88517 -1.378 66 64 134 255 
-4.4129 -2.74018 -1.35789 68 59 132 255 
-4.25861 -2.64426 -1.36006 68 59 132 255 
-4.02871 -2.5035 -1.33683 70 52 128 255 
-3.91527 -2.43767 -1.3513 70 52 128 255 
-0 -0 0 68 2 86 255 
-39.1056 -24.2138 13.3019 70 10 93 255 
-39.1458 -24.258 12.8321 71 17 100 255 
-39.0528 -24.1993 12.3361 71 17 100 255 
-39.0601 -24.1675 11.9216 71 17 100 255 
-39.1955 -24.26 11.4759 71 13 96 255 
-38.8076 -24.011 10.897 71 13 96 255 
-38.849 -24.0262 10.4617 70 10 93 255 
-38.8969 -24.0759 10.0912 70 11 94 255 
-17.325 -10.7191 4.28209 59 82 139 255 
-38.9702 -24.0834 9.17898 72 20 103 255 
-38.8858 -24.0116 8.7181 71 13 96 255 
-38.9502 -24.1089 8.35773 71 17 100 255 
-38.9826 -24.1094 7.90895 71 13 96 255 
-17.1926 -10.6166 3.2872 71 46 124 255 
-17.1905 -10.5943 3.09716 71 46 124 255 
-17.1848 -10.6327 2.93365 68 57 131 255 
-17.1629 -10.6105 2.73175 69 56 130 255 
-17.1765 -10.5943 2.53871 69 55 129 255 
-17.1691 -10.5728 2.35082 70 50 126 255 
-17.1487 -10.6103 2.18714 68 57 131 255 
-17.1512 -10.5909 1.99423 68 57 131 255 
-18.6023 -11.4692 1.95424 72 40 120 255 
-21.3274 -13.1181 2.00578 72 29 111 255 
-21.4171 -13.2462 1.81835 71 13 96 255 
-24.0676 -14.856 1.77448 72 27 109 255 
-26.7567 -16.4775 1.67433 72 22 104 255 
-27.0262 -16.6104 1.39058 71 46 124 255 
-26.9596 -16.6611 1.13996 72 23 105 255 
-26.9857 -16.6442 0.841322 72 28 110 255 
-27.0074 -16.6254 0.542503 72 27 109 255 
-32.3717 -19.8802 0.29837 71 13 96 255 
-36.4548 -22.5204 -0.00747874 72 20 103 255 
-38.7167 -23.861 -0.43658 72 22 104 255 
-38.682 -23.7935 -0.856134 71 16 99 255 
-38.7156 -23.7576 -1.28467 71 19 101 255 
-38.7465 -23.9081 -1.65356 71 17 100 255 
-38.6382 -23.794 -2.06849 69 5 89 255 
-38.2127 -23.4956 -2.46869 69 4 87 255 
-24.1226 -14.7969 -1.82507 69 5 89 255 
-23.4938 -14.491 -2.00285 70 7 90 255 
-19.2491 -11.8446 -1.85023 71 13 96 255 
-16.4806 -10.1214 -1.76693 71 16 99 255 
-14.3915 -8.82782 -1.70304 71 19 101 255 
-12.8278 -7.90291 -1.6421 71 19 101 255 
-11.5813 -7.1236 -1.6117 70 48 126 255 
-10.4405 -6.40944 -1.56938 70 50 126 255 
-9.48428 -5.81315 -1.53172 70 51 127 255 
-8.75256 -5.38595 -1.50108 69 56 130 255 
-8.1422 -5.00429 -1.48635 70 50 126 255 
-7.58865 -4.65687 -1.46919 69 56 130 255 
-7.06563 -4.3307 -1.44933 71 44 122 255 
-6.65233 -4.08717 -1.43296 68 58 131 255 
-6.27094 -3.84967 -1.41965 69 56 130 255 
-5.92388 -3.63527 -1.41028 65 66 135 255 
-5.61884 -3.44527 -1.40457 66 65 134 255 
-5.31861 -3.2639 -1.38457 64 69 136 255 
-5.06561 -3.1073 -1.37635 60 79 138 255 
-4.85741 -2.97848 -1.37741 66 64 134 255 
-4.63954 -2.84703 -1.37336 68 58 131 255 
-4.43953 -2.71912 -1.36093 69 56 130 255 
-4.26323 -2.61102 -1.3564 69 56 130 255 
-4.06451 -2.49131 -1.34361 69 53 129 255 
-3.92034 -2.40758 -1.34793 69 55 129 255 
-0 -0 0 68 2 86 255 
-39.1288 -23.8973 13.2597 70 10 93 255 
-39.0432 -23.8642 12.7503 71 16 99 255 
-39.1264 -23.9139 12.3127 71 17 100 255 
-39.0779 -23.8482 11.8822 71 16 99 255 
-39.0206 -23.8218 11.3817 72 22 104 255 
-39.0106 -23.8069 10.9128 71 16 99 255 
-39.0331 -23.8103 10.4718 71 14 97 255 
-38.9589 -23.7849 10.0692 71 17 100 255 
-17.3679 -10.5988 4.27654 59 81 139 255 
-38.9758 -23.7576 9.14578 71 19 101 255 
-38.9938 -23.749 8.70948 71 17 100 255 
-38.9966 -23.8079 8.33619 71 17 100 255 
-39.0162 -23.8005 7.886 71 17 100 255 
-17.2532 -10.5084 3.28639 71 45 123 255 
-17.2189 -10.4665 3.09064 71 45 123 255 
-17.2032 -10.4987 2.92574 68 59 132 255 
-17.2057 -10.4916 2.72826 68 59 132 255 
-17.2115 -10.4706 2.53434 69 56 130 255 
-17.215 -10.4559 2.34827 70 48 126 255 
-17.1957 -10.494 2.18488 70 48 126 255 
-17.2065 -10.4797 1.99315 70 51 127 255 
-18.6561 -11.345 1.95255 72 38 119 255 
-21.4074 -12.987 2.00578 72 29 111 255 
-21.4852 -13.1067 1.81727 72 20 103 255 
-24.1634 -14.7111 1.77486 72 29 111 255 
-26.8701 -16.3208 1.67513 72 22 104 255 
-27.1293 -16.4453 1.39067 71 46 124 255 
-27.0818 -16.5079 1.14082 68 57 131 255 
-27.1104 -16.4923 0.842038 71 46 124 255 
-27.0961 -16.4516 0.542246 72 36 117 255 
-32.5264 -19.7014 0.298676 71 13 96 255 
-36.8699 -22.4654 -0.00753546 72 22 104 255 
-38.6881 -23.517 -0.434621 72 20 103 255 
-38.7606 -23.5152 -0.854664 71 14 97 255 
-38.6879 -23.4151 -1.27896 71 19 101 255 
-38.7516 -23.5842 -1.64757 71 14 97 255 
-38.6998 -23.5056 -2.06403 71 17 100 255 
-38.0564 -23.079 -2.4494 69 5 89 255 
-29.0831 -17.595 -2.19217 69 5 89 255 
-23.5764 -14.3429 -2.00235 70 8 92 255 
-19.3265 -11.7294 -1.85072 71 16 99 255 
-16.5117 -10.0016 -1.76365 71 16 99 255 
-14.4505 -8.74244 -1.70364 72 23 105 255 
-12.8522 -7.8096 -1.63906 72 20 103 255 
-11.6113 -7.04417 -1.60981 72 41 121 255 
-10.4813 -6.34628 -1.56963 70 52 128 255 
-9.55029 -5.77329 -1.53663 70 50 126 255 
-8.77106 -5.32341 -1.49862 69 55 129 255 
-8.14825 -4.93938 -1.48189 68 57 131 255 
-7.62383 -4.61431 -1.47049 69 55 129 255 
-7.09207 -4.28726 -1.44933 70 51 127 255 
-6.67644 -4.04576 -1.43278 68 58 131 255 
-6.2852 -3.80553 -1.41757 68 58 131 255 
-5.94105 -3.59581 -1.40909 66 63 133 255 
-5.62732 -3.40314 -1.40144 68 57 131 255 
-5.3519 -3.2393 -1.38804 67 61 132 255 
-5.07958 -3.07313 -1.375 61 78 138 255 
-4.86561 -2.94258 -1.37459 68 58 131 255 
-4.65443 -2.817 -1.37262 68 59 132 255 
-4.43626 -2.67982 -1.35486 68 59 132 255 
-4.27835 -2.58431 -1.35613 69 56 130 255 
-4.08796 -2.47131 -1.34633 69 56 130 255 
-3.93012 -2.38049 -1.34624 67 61 132 255 
-0 -0 0 68 2 86 255 
-39.0468 -23.5194 13.1827 71 14 97 255 
-39.0462 -23.5381 12.7038 71 19 101 255 
-39.0201 -23.5213 12.2336 71 14 97 255 
-39.0037 -23.4757 11.8156 71 19 101 255 
-38.9666 -23.4618 11.3237 71 14 97 255 
-39.0435 -23.4993 10.8815 71 13 96 255 
-38.9196 -23.4145 10.4026 71 14 97 255 
-38.9669 -23.4628 10.0339 72 22 104 255 
-17.3755 -10.4577 4.26255 68 59 132 255 
-17.1667 -10.32 4.01328 72 31 112 255 
-17.13 -10.2894 3.8119 72 27 109 255 
-17.2045 -10.3592 3.66409 72 35 116 255 
-17.2046 -10.3508 3.46451 72 27 109 255 
-17.2682 -10.3728 3.27708 64 70 136 255 
-17.2717 -10.3541 3.08867 71 44 122 255 
-17.2487 -10.3817 2.92258 70 51 127 255 
-17.2528 -10.3756 2.72558 69 55 129 255 
-17.2567 -10.3536 2.5316 70 51 127 255 
-17.2507 -10.3333 2.34445 70 52 128 255 
-17.2469 -10.3806 2.18326 70 52 128 255 
-17.244 -10.3581 1.9901 69 53 129 255 
-18.7442 -11.2416 1.95451 72 38 119 255 
-21.5457 -12.8907 2.01129 72 28 110 255 
-21.5832 -12.9854 1.81879 71 13 96 255 
-24.2806 -14.579 1.77686 72 27 109 255 
-24.4898 -14.67 1.52109 70 11 94 255 
-24.4943 -14.6432 1.25097 71 14 97 255 
-27.2032 -16.3538 1.14168 72 33 115 255 
-27.2197 -16.3308 0.842303 72 31 112 255 
-27.2377 -16.3096 0.543067 72 27 109 255 
-32.657 -19.5076 0.29877 70 10 93 255 
-37.2719 -22.3979 -0.00758939 72 26 108 255 
-38.697 -23.1985 -0.433114 71 19 101 255 
-0 -0 -0 68 2 86 255 
-38.6317 -23.0584 -1.2724 71 19 101 255 
-38.6514 -23.1994 -1.63723 71 14 97 255 
-38.6025 -23.1235 -2.05123 71 13 96 255 
-38.1622 -22.824 -2.44715 69 4 87 255 
-23.3236 -13.9158 -1.75157 71 13 96 255 
-23.4125 -14.0471 -1.98107 71 13 96 255 
-19.3776 -11.5983 -1.84876 70 11 94 255 
-16.6181 -9.92712 -1.76847 71 19 101 255 
-14.4979 -8.65004 -1.70294 71 14 97 255 
-12.8411 -7.69533 -1.63159 72 20 103 255 
-11.6577 -6.97483 -1.61028 70 50 126 255 
-10.532 -6.28897 -1.57141 71 47 125 255 
-9.51151 -5.67045 -1.52476 72 41 121 255 
-8.77045 -5.24968 -1.49298 70 51 127 255 
-8.17162 -4.88524 -1.48067 67 61 132 255 
-7.64353 -4.56239 -1.46887 68 59 132 255 
-7.12332 -4.24669 -1.45037 68 59 132 255 
-6.69692 -4.0022 -1.43188 66 63 133 255 
-6.30506 -3.76488 -1.41681 67 62 133 255 
-5.95038 -3.55175 -1.4061 67 62 133 255 
-5.63298 -3.35953 -1.39769 66 63 133 255 
-5.38508 -3.2144 -1.3915 63 71 136 255 
-5.11089 -3.04939 -1.37838 56 89 140 255 
-4.88024 -2.91068 -1.37365 64 70 136 255 
-4.65581 -2.77894 -1.36797 68 59 132 255 
-4.43516 -2.64215 -1.34955 70 52 128 255 
-4.28749 -2.55406 -1.35404 69 53 129 255 
-4.10635 -2.44815 -1.34741 70 50 126 255 
-3.93312 -2.34944 -1.3423 69 56 130 255 
-0 -0 0 68 2 86 255 
-39.0161 -23.1759 13.1241 71 14 97 255 
-39.0955 -23.242 12.6732 71 13 96 255 
-38.9644 -23.163 12.1714 71 13 96 255 
-39.0322 -23.1677 11.7809 71 19 101 255 
-38.9604 -23.1336 11.2805 71 19 101 255 
-38.9193 -23.1005 10.8072 71 17 100 255 
-38.998 -23.137 10.3854 71 14 97 255 
-38.807 -23.0433 9.95615 71 19 101 255 
-38.9148 -23.0974 9.5116 72 23 105 255 
-17.2263 -10.2125 4.01249 71 17 100 255 
-17.2122 -10.1956 3.81621 71 17 100 255 
-38.8291 -23.0563 8.23927 71 16 99 255 
-38.8867 -23.0715 7.802 71 14 97 255 
-17.3239 -10.2622 3.27563 64 69 136 255 
-17.2915 -10.2222 3.08093 71 44 122 255 
-17.2916 -10.2635 2.91914 69 53 129 255 
-17.3059 -10.2635 2.72397 67 61 132 255 
-17.2764 -10.2218 2.52523 68 57 131 255 
-17.2591 -10.1949 2.33704 69 53 129 255 
-17.277 -10.2548 2.17905 69 55 129 255 
-17.291 -10.2424 1.98823 69 53 129 255 
-18.8265 -11.1345 1.95594 72 38 119 255 
-21.6528 -12.775 2.01392 72 28 110 255 
-21.6711 -12.8579 1.81951 71 19 101 255 
-24.3954 -14.445 1.77874 72 27 109 255 
-24.5768 -14.518 1.52093 72 24 106 255 
-24.5777 -14.4891 1.25066 71 45 123 255 
-24.5367 -14.5465 1.02601 72 24 106 255 
-24.5473 -14.5234 0.756837 70 51 127 255 
-27.3398 -16.1437 0.543118 72 29 111 255 
-38.5324 -22.6977 0.351242 70 10 93 255 
-37.3389 -22.1275 -0.00757525 72 24 106 255 
-38.6906 -22.873 -0.431463 71 17 100 255 
-38.6587 -22.8092 -0.846182 70 11 94 255 
-38.6476 -22.7474 -1.2683 71 17 100 255 
-38.6399 -22.8712 -1.63077 71 14 97 255 
-38.6284 -22.8181 -2.04513 70 11 94 255 
-23.365 -13.7802 -1.49283 71 14 97 255 
-0 -0 -0 68 2 86 255 
-23.7403 -14.0464 -2.00148 70 10 93 255 
-19.5059 -11.5131 -1.85423 71 14 97 255 
-16.6761 -9.82345 -1.7682 71 16 99 255 
-14.5319 -8.54982 -1.70073 72 22 104 255 
-12.8889 -7.6169 -1.6317 72 26 108 255 
-11.6079 -6.84867 -1.59757 72 41 121 255 
-10.5584 -6.21718 -1.56963 69 56 130 255 
-9.56406 -5.62253 -1.52762 71 45 123 255 
-8.84084 -5.2184 -1.49949 68 58 131 255 
-8.19122 -4.82898 -1.47882 69 55 129 255 
-7.65267 -4.50439 -1.46528 67 61 132 255 
-7.14924 -4.2029 -1.45037 70 52 128 255 
-6.70271 -3.95005 -1.42791 67 61 132 255 
-6.32127 -3.72213 -1.41529 68 57 131 255 
-5.96868 -3.51318 -1.40531 68 58 131 255 
-5.65517 -3.3259 -1.39811 66 63 133 255 
-5.38115 -3.16743 -1.38544 65 68 135 255 
-5.14965 -3.02983 -1.3838 55 91 141 255 
-4.90136 -2.88265 -1.37459 66 65 134 255 
-4.65105 -2.73754 -1.36161 68 59 132 255 
-4.47799 -2.63057 -1.35764 69 56 130 255 
-4.30641 -2.52966 -1.35509 70 50 126 255 
-4.10553 -2.41364 -1.34226 69 55 129 255 
-3.9549 -2.32965 -1.34483 69 53 129 255 
-39.0452 -22.8253 13.5861 70 7 90 255 
-38.9686 -22.8253 13.0608 70 11 94 255 
-38.9207 -22.816 12.571 71 16 99 255 
-38.9017 -22.8038 12.1079 71 13 96 255 
-38.9489 -22.7963 11.7134 71 14 97 255 
-38.8948 -22.773 11.2208 72 22 104 255 
-38.9713 -22.8091 10.7825 71 14 97 255 
-38.8388 -22.7215 10.3057 71 13 96 255 
-38.8786 -22.7642 9.93848 71 17 100 255 
-17.4654 -10.222 4.2535 69 56 130 255 
-38.8283 -22.6982 9.0116 71 19 101 255 
-38.8688 -22.7027 8.58675 71 17 100 255 
-38.873 -22.761 8.2188 71 17 100 255 
-38.8072 -22.7036 7.75796 71 16 99 255 
-17.3448 -10.1313 3.26777 67 62 133 255 
-17.3386 -10.107 3.07821 71 44 122 255 
-17.3466 -10.1527 2.91784 69 55 129 255 
-17.3437 -10.1426 2.72008 68 58 131 255 
-17.313 -10.1006 2.52149 68 59 132 255 
-17.3213 -10.0888 2.33704 70 50 126 255 
-17.3155 -10.1346 2.17603 69 55 129 255 
-17.3097 -10.1105 1.9832 70 52 128 255 
-18.9246 -11.0363 1.95905 72 40 120 255 
-21.7351 -12.6444 2.01432 72 26 108 255 
-21.7409 -12.7196 1.81879 71 16 99 255 
-24.4887 -14.2981 1.77912 72 23 105 255 
-24.6852 -14.3785 1.52216 72 26 108 255 
-24.6376 -14.3215 1.24922 72 33 115 255 
-24.6772 -14.426 1.02816 71 46 124 255 
-24.636 -14.3725 0.756837 71 16 99 255 
-27.4427 -15.9782 0.543204 71 45 123 255 
-38.6424 -22.4443 0.350983 71 16 99 255 
-38.4729 -22.4817 -0.00777719 71 13 96 255 
-38.622 -22.5139 -0.42915 71 19 101 255 
-38.5828 -22.4464 -0.841489 72 23 105 255 
-38.5478 -22.3713 -1.2605 72 20 103 255 
-38.6276 -22.545 -1.62438 71 17 100 255 
-38.6692 -22.5233 -2.03994 70 8 92 255 
-38.3885 -22.3244 -2.44391 69 5 89 255 
-29.3753 -17.0412 -2.19017 70 7 90 255 
-23.7873 -13.8779 -1.99822 70 8 92 255 
-19.5805 -11.3957 -1.85464 71 19 101 255 
-16.761 -9.73545 -1.77084 71 14 97 255 
-14.5927 -8.46549 -1.70173 71 19 101 255 
-12.9474 -7.54468 -1.63321 72 37 118 255 
-11.6385 -6.77082 -1.59604 70 51 127 255 
-10.5732 -6.13883 -1.5662 71 45 123 255 
-9.58809 -5.55778 -1.52599 71 44 122 255 
-8.87783 -5.16704 -1.50035 70 50 126 255 
-8.23778 -4.78857 -1.48189 68 57 131 255 
-7.67761 -4.45586 -1.4648 66 63 133 255 
-7.1783 -4.16093 -1.45106 67 62 133 255 
-6.74553 -3.91972 -1.43188 65 68 135 255 
-6.35249 -3.68821 -1.41719 68 59 132 255 
-5.97741 -3.46912 -1.40232 68 58 131 255 
-5.6814 -3.29457 -1.39957 67 61 132 255 
-5.4047 -3.13681 -1.38652 63 71 136 255 
-5.16478 -2.99622 -1.38289 57 86 140 255 
-4.92904 -2.85838 -1.37741 60 80 139 255 
-4.67111 -2.71089 -1.36259 68 58 131 255 
-4.50744 -2.6108 -1.36169 68 59 132 255 
-4.31016 -2.49642 -1.35142 68 58 131 255 
-4.10444 -2.37923 -1.3371 70 50 126 255 
-3.95086 -2.29474 -1.33865 70 48 126 255 
-38.8585 -22.3973 13.473 70 10 93 255 
-38.944 -22.4912 13.006 71 16 99 255 
-38.8915 -22.4794 12.5168 71 14 97 255 
-38.9221 -22.4961 12.071 71 13 96 255 
-38.8214 -22.403 11.6335 71 14 97 255 
-38.901 -22.4573 11.1826 72 20 103 255 
-38.9437 -22.4733 10.7366 71 19 101 255 
-38.8661 -22.4185 10.2762 71 17 100 255 
-38.8518 -22.4296 9.89626 71 19 101 255 
-17.5091 -10.1038 4.24898 71 45 123 255 
-38.7859 -22.3552 8.96975 72 22 104 255 
-38.8124 -22.3516 8.54384 71 16 99 255 
-38.8058 -22.403 8.17537 71 16 99 255 
-38.7495 -22.3518 7.71885 72 20 103 255 
-17.3724 -10.005 3.26134 70 52 128 255 
-17.4037 -10.0024 3.07881 71 47 125 255 
-17.3906 -10.0357 2.91483 70 51 127 255 
-17.379 -10.0207 2.71592 68 59 132 255 
-17.3747 -9.99414 2.52149 69 53 129 255 
-17.3777 -9.97937 2.33635 71 46 124 255 
-17.3783 -10.0286 2.17614 69 56 130 255 
-17.386 -10.0126 1.98488 68 57 131 255 
-19.0127 -10.9319 1.96119 72 33 115 255 
-21.8209 -12.5158 2.01512 72 28 110 255 
-21.8393 -12.5979 1.82051 72 20 103 255 
-22.0806 -12.711 1.59847 54 93 141 255 
-22.0782 -12.6791 1.35658 65 66 135 255 
-22.0848 -12.6569 1.11582 65 68 135 255 
-22.0371 -12.7018 0.914899 59 82 139 255 
-24.6977 -14.2062 0.756041 71 14 97 255 
-27.5671 -15.8249 0.543734 70 50 126 255 
-38.6267 -22.1193 0.349601 71 16 99 255 
-38.5408 -22.2053 -0.00776322 72 20 103 255 
-38.6112 -22.1912 -0.427508 72 26 108 255 
-38.5992 -22.14 -0.838869 72 22 104 255 
-38.6098 -22.0917 -1.25807 71 19 101 255 
-38.5444 -22.1805 -1.61512 71 16 99 255 
-23.5871 -13.5454 -1.23989 70 7 90 255 
-23.5471 -13.5009 -1.49377 71 17 100 255 
-23.5438 -13.4658 -1.74919 71 13 96 255 
-23.5114 -13.5243 -1.96804 70 8 92 255 
-19.6907 -11.2987 -1.85847 71 13 96 255 
-16.8317 -9.63885 -1.77202 71 19 101 255 
-14.6365 -8.37134 -1.70083 71 16 99 255 
-13.0055 -7.47203 -1.63473 72 37 118 255 
-11.6773 -6.6978 -1.59569 68 57 131 255 
-10.6244 -6.08173 -1.56823 69 53 129 255 
-9.65384 -5.51703 -1.53103 72 38 119 255 
-8.94627 -5.13365 -1.50657 70 51 127 255 
-8.27044 -4.73989 -1.48251 69 53 129 255 
-7.6971 -4.40426 -1.46333 68 58 131 255 
-7.18659 -4.10703 -1.44761 70 51 127 255 
-6.77031 -3.87874 -1.43206 66 64 134 255 
-6.38096 -3.65257 -1.41851 65 66 135 255 
-6.00539 -3.43627 -1.40392 66 65 134 255 
-5.70915 -3.26401 -1.40144 65 66 135 255 
-5.423 -3.1031 -1.3863 60 80 139 255 
-5.18983 -2.96834 -1.3847 59 81 139 255 
-4.93636 -2.82229 -1.37459 63 72 137 255 
-4.70028 -2.6894 -1.36626 70 52 128 255 
-4.49985 -2.56966 -1.35461 69 56 130 255 
-4.33126 -2.47327 -1.35325 69 53 129 255 
-4.15156 -2.37263 -1.34768 69 55 129 255 
-3.9632 -2.2695 -1.33808 70 50 126 255 
-38.9527 -22.1343 13.4584 70 11 94 255 
-38.8133 -22.0992 12.9169 71 16 99 255 
-38.8588 -22.1435 12.4623 71 17 100 255 
-38.8706 -22.1493 12.0127 71 19 101 255 
-38.7748 -22.0601 11.5787 71 17 100 255 
-38.7994 -22.0823 11.1143 71 19 101 255 
-38.8053 -22.0771 10.6608 71 16 99 255 
-38.8122 -22.0712 10.226 71 13 96 255 
-38.7892 -22.0772 9.84564 72 22 104 255 
-17.5249 -9.97008 4.23787 72 31 112 255 
-38.8005 -22.0475 8.94166 72 23 105 255 
-38.7541 -22.0024 8.50112 71 14 97 255 
-38.8014 -22.0842 8.14575 71 17 100 255 
-38.748 -22.0352 7.69148 72 22 104 255 
-17.4404 -9.90207 3.26263 71 47 125 255 
-17.4415 -9.88223 3.07472 68 59 132 255 
-17.4389 -9.92149 2.91267 68 57 131 255 
-17.4522 -9.92068 2.7178 69 56 130 255 
-17.4331 -9.88588 2.52111 70 51 127 255 
-17.4308 -9.86815 2.3353 69 55 129 255 
-17.4343 -9.91886 2.17549 70 52 128 255 
-17.4463 -9.90522 1.98478 68 57 131 255 
-19.121 -10.8386 1.96547 72 36 117 255 
-21.9276 -12.3988 2.01791 72 29 111 255 
-21.9231 -12.4676 1.82109 72 20 103 255 
-22.1599 -12.5763 1.59859 61 78 138 255 
-22.1599 -12.5459 1.35684 59 81 139 255 
-22.1629 -12.5216 1.11586 65 66 135 255 
-22.1068 -12.5619 0.914575 61 78 138 255 
-24.8409 -14.0864 0.757765 71 17 100 255 
-27.6776 -15.6634 0.544008 69 53 129 255 
-38.5118 -21.7408 0.347347 71 17 100 255 
-38.5529 -21.8983 -0.00773844 72 20 103 255 
-38.5943 -21.8676 -0.425828 71 19 101 255 
-38.5281 -21.7862 -0.834402 72 22 104 255 
-38.5426 -21.7404 -1.25151 71 16 99 255 
-38.5068 -21.8454 -1.6079 71 14 97 255 
-38.429 -21.7562 -2.01302 70 10 93 255 
-38.5848 -21.8093 -2.43918 70 10 93 255 
-24.0389 -13.5539 -1.77976 70 7 90 255 
-23.7996 -13.4964 -1.98519 70 11 94 255 
-19.6824 -11.134 -1.85121 70 11 94 255 
-16.8688 -9.52316 -1.76975 71 14 97 255 
-14.6495 -8.25988 -1.69641 71 14 97 255 
-13.0659 -7.40041 -1.63657 71 42 122 255 
-11.7008 -6.61625 -1.59333 69 56 130 255 
-10.6503 -6.01008 -1.56658 69 56 130 255 
-9.68405 -5.45574 -1.53049 70 48 126 255 
-8.97674 -5.07817 -1.50642 70 48 126 255 
-8.34754 -4.71628 -1.49112 70 51 127 255 
-7.70765 -4.34774 -1.46024 70 51 127 255 
-7.22024 -4.06769 -1.44933 66 64 134 255 
-6.77599 -3.82697 -1.42827 64 70 136 255 
-6.40496 -3.61432 -1.41889 67 61 132 255 
-6.03575 -3.40465 -1.4061 65 66 135 255 
-5.7231 -3.22556 -1.39998 68 57 131 255 
-5.43259 -3.06449 -1.38392 67 61 132 255 
-5.2054 -2.93501 -1.38402 57 86 140 255 
-4.92565 -2.7762 -1.36683 67 62 133 255 
-4.7091 -2.65623 -1.36406 70 51 127 255 
-4.51722 -2.54295 -1.35511 69 56 130 255 
-4.31272 -2.42771 -1.34278 70 50 126 255 
-4.14423 -2.33482 -1.34063 69 53 129 255 
-3.95366 -2.23193 -1.33021 70 52 128 255 
-38.7736 -21.7189 13.3502 70 11 94 255 
-38.856 -21.8089 12.8863 71 14 97 255 
-38.8755 -21.8382 12.4244 71 17 100 255 
-38.749 -21.7661 11.9336 71 17 100 255 
-38.7895 -21.7545 11.543 71 17 100 255 
-38.8902 -21.8192 11.1017 71 17 100 255 
-38.8382 -21.7815 10.633 71 14 97 255 
-38.9027 -21.8079 10.2144 71 13 96 255 
-38.7673 -21.7509 9.806 72 22 104 255 
-17.5832 -9.86093 4.23725 72 20 103 255 
-38.7776 -21.7209 8.90551 72 23 105 255 
-38.8035 -21.7167 8.48256 71 19 101 255 
-38.7157 -21.722 8.09962 71 16 99 255 
-38.714 -21.7026 7.65815 71 19 101 255 
-17.4956 -9.79198 3.26166 70 48 126 255 
-17.4811 -9.76346 3.07108 69 53 129 255 
-17.4856 -9.80655 2.91037 70 52 128 255 
-17.5128 -9.81341 2.7178 68 58 131 255 
-17.47 -9.76565 2.51774 69 55 129 255 
-17.4832 -9.75665 2.33426 70 51 127 255 
-17.4679 -9.79662 2.17215 69 53 129 255 
-17.4729 -9.77904 1.98094 68 59 132 255 
-19.2159 -10.7371 1.96841 72 38 119 255 
-21.9989 -12.2616 2.01751 72 31 112 255 
-21.9818 -12.3231 1.81965 72 22 104 255 
-22.2419 -12.443 1.59897 62 73 137 255 
-22.2347 -12.4087 1.35674 63 71 136 255 
-22.2611 -12.3976 1.11696 61 77 138 255 
-22.2183 -12.4455 0.916013 61 78 138 255 
-24.9854 -13.9664 0.759542 71 17 100 255 
-27.7985 -15.5074 0.544504 70 50 126 255 
-38.461 -21.4019 0.345697 71 17 100 255 
-38.5905 -21.6075 -0.00771924 72 20 103 255 
-38.4755 -21.4895 -0.423054 72 20 103 255 
-38.4837 -21.4505 -0.830575 72 20 103 255 
-38.3747 -21.3364 -1.24178 72 38 119 255 
-38.4464 -21.5005 -1.59984 71 16 99 255 
-23.7157 -13.235 -1.23802 70 10 93 255 
-23.8095 -13.2658 -1.49998 71 13 96 255 
-29.5209 -16.407 -2.17814 69 4 87 255 
-23.9203 -13.3715 -1.98838 70 7 90 255 
-19.7452 -11.0101 -1.85072 71 13 96 255 
-16.9183 -9.41463 -1.76884 72 22 104 255 
-14.686 -8.1621 -1.69481 71 16 99 255 
-13.118 -7.32398 -1.63744 71 42 122 255 
-11.7404 -6.54385 -1.59321 68 57 131 255 
-10.6688 -5.9345 -1.56391 71 47 125 255 
-9.71128 -5.39285 -1.52953 71 46 124 255 
-8.98785 -5.01191 -1.5031 69 53 129 255 
-8.33921 -4.6443 -1.48451 70 50 126 255 
-7.72814 -4.29701 -1.4591 69 55 129 255 
-7.26056 -4.03192 -1.45243 69 53 129 255 
-6.79677 -3.78389 -1.42773 64 70 136 255 
-6.42101 -3.57161 -1.41757 65 66 135 255 
-6.07965 -3.38041 -1.41147 67 62 133 255 
-5.73851 -3.18801 -1.39894 69 56 130 255 
-5.4547 -3.033 -1.38479 62 73 137 255 
-5.2182 -2.90017 -1.38267 55 90 140 255 
-4.96468 -2.75819 -1.37294 67 62 133 255 
-4.70158 -2.61409 -1.35721 70 51 127 255 
-4.5395 -2.51894 -1.35714 70 50 126 255 
-4.34103 -2.4087 -1.34697 71 47 125 255 
-4.16521 -2.31309 -1.3428 69 53 129 255 
-3.98153 -2.21556 -1.33499 70 52 128 255 
-38.6965 -21.3649 13.2783 70 11 94 255 
-38.8067 -21.4692 12.826 71 14 97 255 
-38.8293 -21.4998 12.3672 71 16 99 255 
-38.7939 -21.4792 11.9066 71 16 99 255 
-38.7706 -21.4323 11.4981 71 17 100 255 
-38.7499 -21.4289 11.0239 71 16 99 255 
-38.8111 -21.4544 10.5893 71 14 97 255 
-38.7355 -21.4028 10.1358 71 14 97 255 
-38.7539 -21.4318 9.76917 72 20 103 255 
-38.6672 -21.3744 9.28637 71 16 99 255 
-38.7488 -21.3934 8.86858 72 23 105 255 
-38.7958 -21.4009 8.45202 71 17 100 255 
-38.6933 -21.3983 8.06732 71 14 97 255 
-38.7136 -21.3912 7.63196 72 20 103 255 
-17.5346 -9.673 3.25781 68 58 131 255 
-17.5424 -9.65697 3.07138 71 46 124 255 
-17.5152 -9.68232 2.90534 69 55 129 255 
-17.5223 -9.67798 2.71001 69 53 129 255 
-17.5114 -9.64822 2.51512 68 58 131 255 
-17.5245 -9.63914 2.33183 71 46 124 255 
-17.5112 -9.68012 2.1701 70 52 128 255 
-17.4881 -9.64713 1.97592 69 56 130 255 
-19.3154 -10.6378 1.97188 72 33 115 255 
-19.5157 -10.7211 1.78371 64 70 136 255 
-19.4642 -10.7553 1.60575 66 64 134 255 
-19.4625 -10.7319 1.3944 63 72 137 255 
-19.48 -10.7151 1.18461 62 73 137 255 
-19.4957 -10.7013 0.974893 56 88 140 255 
-22.303 -12.3138 0.916372 64 69 136 255 
-25.0829 -13.8196 0.759914 71 16 99 255 
-38.7136 -21.2859 0.755731 69 5 89 255 
-38.7766 -21.267 0.347354 69 4 87 255 
-38.458 -21.2244 -0.00766653 70 11 94 255 
-38.4787 -21.1826 -0.421653 70 10 93 255 
-38.6716 -21.2453 -0.831801 70 8 92 255 
-38.6373 -21.1731 -1.24605 70 7 90 255 
-38.295 -21.1083 -1.58812 71 13 96 255 
-24.4162 -13.4301 -1.27026 71 19 101 255 
-24.3369 -13.3646 -1.528 70 11 94 255 
-23.9505 -13.1193 -1.76116 70 10 93 255 
-23.9599 -13.2014 -1.98491 70 10 93 255 
-19.8019 -10.883 -1.84974 71 14 97 255 
-16.9687 -9.30681 -1.76811 72 20 103 255 
-14.7192 -8.06275 -1.6929 71 14 97 255 
-13.1679 -7.24623 -1.63809 71 42 122 255 
-11.789 -6.47647 -1.59439 70 48 126 255 
-10.7085 -5.87083 -1.56442 70 50 126 255 
-9.73203 -5.32651 -1.52762 70 50 126 255 
-8.99502 -4.9438 -1.4992 71 47 125 255 
-8.35282 -4.58496 -1.48189 70 51 127 255 
-7.75956 -4.25235 -1.46007 69 53 129 255 
-7.28689 -3.98824 -1.45278 70 48 126 255 
-6.83624 -3.7511 -1.43116 65 68 135 255 
-6.44883 -3.53545 -1.41889 67 62 133 255 
-6.0977 -3.34163 -1.41087 66 63 133 255 
-5.73995 -3.14287 -1.39456 69 56 130 255 
-5.4792 -3.00275 -1.3863 56 88 140 255 
-5.22906 -2.86436 -1.38086 56 88 140 255 
-4.97639 -2.72488 -1.37153 62 73 137 255 
-4.73538 -2.59498 -1.36235 68 58 131 255 
-4.5727 -2.50079 -1.36245 70 48 126 255 
-4.36335 -2.38618 -1.34932 71 47 125 255 
-4.16413 -2.27917 -1.33792 71 46 124 255 
-3.9858 -2.18601 -1.3319 70 50 126 255 
-38.7672 -21.0945 13.2578 70 11 94 255 
-38.7513 -21.129 12.7646 71 16 99 255 
-38.6831 -21.1098 12.2792 72 22 104 255 
-38.7741 -21.1585 11.8605 71 17 100 255 
-38.7416 -21.1069 11.4508 71 17 100 255 
-38.6983 -21.0914 10.9722 71 13 96 255 
-38.7276 -21.099 10.531 71 19 101 255 
-38.7291 -21.0901 10.1001 71 19 101 255 
-38.636 -21.0581 9.7067 72 24 106 255 
-38.6266 -21.0435 9.24544 72 22 104 255 
-38.6683 -21.0405 8.82045 72 22 104 255 
-38.6753 -21.0259 8.39749 71 14 97 255 
-17.4736 -9.52378 3.63088 72 31 112 255 
-38.6433 -21.0439 7.59251 72 24 106 255 
-17.5676 -9.55108 3.25299 71 45 123 255 
-17.5605 -9.527 3.06426 71 46 124 255 
-17.5604 -9.56709 2.90305 67 61 132 255 
-17.5683 -9.56318 2.708 66 64 134 255 
-17.5598 -9.53491 2.51362 68 57 131 255 
-17.5536 -9.51534 2.32789 69 55 129 255 
-17.5222 -9.54633 2.16417 69 53 129 255 
-17.5513 -9.54202 1.97641 69 56 130 255 
-19.3672 -10.5119 1.97054 72 35 116 255 
-19.5864 -10.604 1.78419 63 71 136 255 
-19.5666 -10.6557 1.60878 53 95 141 255 
-19.5719 -10.6361 1.39753 50 102 142 255 
-19.5743 -10.6111 1.18637 51 98 141 255 
-19.5593 -10.5805 0.974805 62 73 137 255 
-22.4089 -12.1934 0.91763 62 74 137 255 
-25.1865 -13.6759 0.760497 72 22 104 255 
-36.1262 -19.5756 0.702864 70 8 92 255 
-36.0658 -19.4934 0.321994 70 10 93 255 
-38.8835 -21.1491 -0.00772535 69 4 87 255 
-36.0037 -19.5332 -0.393211 69 4 87 255 
-36.0105 -19.4967 -0.771976 70 8 92 255 
-36.0355 -19.4608 -1.15827 71 17 100 255 
-0 -0 -0 68 2 86 255 
-24.514 -13.2886 -1.27108 71 17 100 255 
-24.4026 -13.2064 -1.52701 70 11 94 255 
-29.8122 -16.0932 -2.18489 69 5 89 255 
-23.9423 -13.0008 -1.9768 70 8 92 255 
-19.8157 -10.7328 -1.84485 71 17 100 255 
-17.0229 -9.2011 -1.76784 71 17 100 255 
-14.7535 -7.96425 -1.6912 71 19 101 255 
-13.1815 -7.14871 -1.6343 72 41 121 255 
-11.825 -6.40212 -1.59392 69 53 129 255 
-10.7382 -5.80171 -1.56353 70 52 128 255 
-9.7436 -5.2554 -1.52435 70 50 126 255 
-9.02171 -4.88663 -1.49862 70 51 127 255 
-8.38862 -4.53785 -1.48328 70 50 126 255 
-7.78203 -4.20278 -1.45942 69 53 129 255 
-7.29996 -3.93738 -1.45054 69 53 129 255 
-6.87124 -3.71563 -1.43368 66 63 133 255 
-6.46868 -3.49488 -1.41851 67 62 133 255 
-6.12068 -3.30555 -1.41147 66 64 134 255 
-5.75138 -3.10342 -1.39269 69 56 130 255 
-5.49409 -2.96722 -1.38544 60 80 139 255 
-5.25768 -2.83823 -1.3838 58 84 140 255 
-4.99216 -2.69383 -1.3713 60 80 139 255 
-4.75036 -2.56541 -1.3621 70 52 128 255 
-4.5854 -2.47131 -1.36169 70 52 128 255 
-4.36602 -2.35296 -1.34566 71 47 125 255 
-4.21023 -2.27094 -1.34822 70 48 126 255 
-3.98985 -2.15649 -1.32881 70 48 126 255 
-38.8056 -20.8078 13.2271 71 13 96 255 
-38.6915 -20.7895 12.7027 71 14 97 255 
-38.7347 -20.8305 12.2548 72 20 103 255 
-38.6446 -20.7811 11.7816 71 16 99 255 
-38.6606 -20.7562 11.389 71 19 101 255 
-38.6099 -20.7369 10.9109 71 16 99 255 
-38.7055 -20.78 10.4901 71 17 100 255 
-38.6886 -20.7613 10.0561 71 17 100 255 
-38.6458 -20.7569 9.67697 71 19 101 255 
-38.6282 -20.7381 9.2152 72 20 103 255 
-38.6403 -20.7189 8.78489 72 20 103 255 
-38.7343 -20.7511 8.3825 70 11 94 255 
-17.5291 -9.41499 3.63035 72 41 121 255 
-38.6059 -20.7174 7.56004 72 22 104 255 
-17.6285 -9.44451 3.25348 72 41 121 255 
-17.6178 -9.4186 3.06411 69 55 129 255 
-17.6013 -9.4498 2.90017 66 63 133 255 
-17.6031 -9.44256 2.70438 65 68 135 255 
-17.597 -9.41575 2.51063 66 64 134 255 
-17.5924 -9.39716 2.32534 70 52 128 255 
-17.5726 -9.4344 2.1632 70 52 128 255 
-17.5727 -9.41441 1.97228 70 52 128 255 
-19.4427 -10.399 1.9717 72 32 113 255 
-19.6599 -10.4883 1.78499 67 62 133 255 
-19.6545 -10.5477 1.61065 53 95 141 255 
-19.6561 -10.5262 1.39891 55 90 140 255 
-19.6434 -10.4931 1.18663 59 81 139 255 
-19.6565 -10.4777 0.976426 61 78 138 255 
-22.5079 -12.0689 0.918637 64 69 136 255 
-25.2823 -13.5277 0.760869 71 13 96 255 
-39.6598 -21.1766 0.769071 69 4 87 255 
-39.6657 -21.1257 0.35297 69 5 89 255 
-39.6163 -21.2337 -0.00784491 69 4 87 255 
-39.6599 -21.2029 -0.431713 68 2 86 255 
-39.6192 -21.1371 -0.84654 69 4 87 255 
-0 -0 -0 68 2 86 255 
-36.1044 -19.3271 -1.48733 69 5 89 255 
-24.3377 -13.0005 -1.25779 69 5 89 255 
-35.1323 -18.7355 -2.19119 69 4 87 255 
-24.4268 -12.9932 -1.78433 69 4 87 255 
-24.0735 -12.8814 -1.98107 70 10 93 255 
-19.8627 -10.6011 -1.84313 71 16 99 255 
-17.0667 -9.08992 -1.76656 71 19 101 255 
-14.8531 -7.90068 -1.69702 71 16 99 255 
-13.2584 -7.0855 -1.63841 72 36 117 255 
-11.8606 -6.32757 -1.59345 69 53 129 255 
-10.7569 -5.72686 -1.56112 70 50 126 255 
-9.79666 -5.20668 -1.52762 69 55 129 255 
-9.05414 -4.83258 -1.49905 69 55 129 255 
-8.40322 -4.47932 -1.48097 71 47 125 255 
-7.81377 -4.1582 -1.46056 69 53 129 255 
-7.29702 -3.87818 -1.4452 69 53 129 255 
-6.88089 -3.66646 -1.43098 66 64 134 255 
-6.4822 -3.45097 -1.41681 67 61 132 255 
-6.14604 -3.27069 -1.41266 67 61 132 255 
-5.78586 -3.07633 -1.39644 67 61 132 255 
-5.51391 -2.93437 -1.38587 57 85 140 255 
-5.27328 -2.80501 -1.38335 57 86 140 255 
-5.01632 -2.66726 -1.37341 58 83 139 255 
-4.76687 -2.53667 -1.36235 68 58 131 255 
-4.5945 -2.43995 -1.35992 69 56 130 255 
-4.37696 -2.32431 -1.34461 71 46 124 255 
-4.20793 -2.23648 -1.34307 71 46 124 255 
-4.02757 -2.14505 -1.33696 69 55 129 255 
-38.714 -20.4539 13.1528 71 14 97 255 
-38.6859 -20.4815 12.6593 71 17 100 255 
-38.6499 -20.4802 12.1879 72 20 103 255 
-38.6169 -20.4617 11.7347 71 19 101 255 
-38.6178 -20.4289 11.3393 71 19 101 255 
-38.5983 -20.4265 10.872 72 20 103 255 
-38.6724 -20.4575 10.4469 71 19 101 255 
-38.9695 -20.6051 10.096 70 11 94 255 
-38.9088 -20.5915 9.711 71 17 100 255 
-38.9278 -20.5922 9.25634 72 22 104 255 
-38.9574 -20.5822 8.82811 72 20 103 255 
-17.5745 -9.27683 3.79091 72 20 103 255 
-17.5892 -9.30863 3.63088 70 50 126 255 
-38.883 -20.5598 7.58945 71 19 101 255 
-17.6477 -9.31589 3.24641 71 45 123 255 
-17.6691 -9.3071 3.06304 70 50 126 255 
-17.6563 -9.34023 2.89974 67 61 132 255 
-17.6449 -9.32603 2.70197 68 58 131 255 
-17.6439 -9.30205 2.50913 67 61 132 255 
-17.6357 -9.28163 2.32349 70 51 127 255 
-17.6223 -9.32222 2.16223 68 57 131 255 
-17.6213 -9.30176 1.97129 70 51 127 255 
-19.5132 -10.2832 1.97241 72 36 117 255 
-19.7274 -10.3693 1.78531 70 51 127 255 
-19.7224 -10.4288 1.61094 62 76 138 255 
-19.7415 -10.4165 1.40041 51 99 141 255 
-19.7287 -10.3836 1.18791 61 78 138 255 
-19.7372 -10.3657 0.977258 63 72 137 255 
-22.5842 -11.932 0.918745 64 70 136 255 
-0 -0 0 68 2 86 255 
-40.2359 -21.1679 0.777708 69 4 87 255 
-34.0275 -17.8557 0.301818 69 5 89 255 
-39.8467 -21.0435 -0.0078648 68 2 86 255 
-39.8902 -21.0123 -0.432807 69 5 89 255 
-0 -0 -0 68 2 86 255 
-33.7087 -17.6734 -1.07643 71 17 100 255 
-33.613 -17.7289 -1.38019 69 5 89 255 
-0 -0 -0 68 2 86 255 
-33.759 -17.7379 -2.09871 70 7 90 255 
-29.9129 -15.6766 -2.17801 69 4 87 255 
-24.1583 -12.7367 -1.98158 70 7 90 255 
-19.9265 -10.4786 -1.84305 71 13 96 255 
-17.0763 -8.96097 -1.76183 71 13 96 255 
-14.8898 -7.80339 -1.69571 71 19 101 255 
-13.2269 -6.96464 -1.6292 72 38 119 255 
-11.9018 -6.25606 -1.5938 70 51 127 255 
-10.7796 -5.6543 -1.55934 69 53 129 255 
-9.81174 -5.13774 -1.52503 68 57 131 255 
-9.07224 -4.77094 -1.49717 70 50 126 255 
-8.4498 -4.43778 -1.48435 70 52 128 255 
-7.83913 -4.11018 -1.46056 70 52 128 255 
-7.30409 -3.82465 -1.44192 70 48 126 255 
-6.88759 -3.61594 -1.42773 68 59 132 255 
-6.48238 -3.40018 -1.41226 68 59 132 255 
-6.1712 -3.23565 -1.41386 66 63 133 255 
-5.82022 -3.04894 -1.40019 63 71 136 255 
-5.54132 -2.90547 -1.38825 57 86 140 255 
-5.29902 -2.77712 -1.3856 56 89 140 255 
-5.04465 -2.64274 -1.3767 59 81 139 255 
-4.82614 -2.53034 -1.37482 65 68 135 255 
-4.61024 -2.41216 -1.36017 69 53 129 255 
-4.39627 -2.3001 -1.34618 70 50 126 255 
-4.22414 -2.21196 -1.34388 68 57 131 255 
-4.03046 -2.11495 -1.33359 68 57 131 255 
-38.6477 -20.1165 13.0881 71 16 99 255 
-38.6422 -20.1558 12.6043 71 14 97 255 
-38.6416 -20.1731 12.1461 71 17 100 255 
-38.5688 -20.1341 11.6823 72 22 104 255 
-38.6515 -20.1442 11.3127 71 19 101 255 
-38.5947 -20.1225 10.836 71 19 101 255 
-38.6177 -20.1264 10.3986 71 19 101 255 
-39.0563 -20.3453 10.086 71 19 101 255 
-0 -0 0 68 2 86 255 
-0 -0 0 68 2 86 255 
-17.6072 -9.16459 3.97713 69 5 89 255 
-17.652 -9.1797 3.79541 72 26 108 255 
-17.6215 -9.1878 3.62586 68 57 131 255 
-17.661 -9.20025 3.43612 71 13 96 255 
-17.6958 -9.20287 3.2448 71 46 124 255 
-17.7162 -9.1935 3.06138 71 47 125 255 
-17.7054 -9.2276 2.89845 68 57 131 255 
-17.6966 -9.21484 2.70116 67 62 133 255 
-17.6769 -9.18127 2.50576 68 57 131 255 
-17.6764 -9.16502 2.32141 68 57 131 255 
-17.6694 -9.20886 2.16105 69 55 129 255 
-17.6869 -9.19805 1.97228 70 51 127 255 
-19.6113 -10.1817 1.97598 72 40 120 255 
-19.7791 -10.2421 1.78427 72 40 120 255 
-19.7913 -10.3103 1.61137 61 78 138 255 
-19.8148 -10.3003 1.4011 56 89 140 255 
-19.8168 -10.2752 1.1894 61 78 138 255 
-19.8155 -10.2522 0.978002 63 72 137 255 
-22.6641 -11.7969 0.919032 64 69 136 255 
-33.9202 -17.6176 1.01424 69 5 89 255 
-0 -0 0 68 2 86 255 
-0 -0 0 68 2 86 255 
-33.854 -17.6138 -0.00666053 70 8 92 255 
-40.4435 -20.9878 -0.437405 69 5 89 255 
-0 -0 -0 68 2 86 255 
-40.632 -20.9864 -1.29338 69 4 87 255 
-33.7194 -17.5214 -1.38011 53 94 141 255 
-33.653 -17.449 -1.72801 69 4 87 255 
-0 -0 -0 68 2 86 255 
-30.0484 -15.5134 -2.1809 69 4 87 255 
-24.0944 -12.5147 -1.97 70 8 92 255 
-19.9922 -10.357 -1.84321 71 16 99 255 
-17.0399 -8.80892 -1.75246 71 16 99 255 
-14.8472 -7.66532 -1.68547 72 22 104 255 
-13.2976 -6.898 -1.63267 72 41 121 255 
-11.9223 -6.17378 -1.59145 68 59 132 255 
-10.8053 -5.58349 -1.55807 71 47 125 255 
-9.82636 -5.06881 -1.52244 70 50 126 255 
-9.06619 -4.69698 -1.49139 70 51 127 255 
-8.47423 -4.38449 -1.48389 71 45 123 255 
-7.86859 -4.06426 -1.46138 69 53 129 255 
-7.34843 -3.7906 -1.44606 69 56 130 255 
-6.92711 -3.58265 -1.43134 67 61 132 255 
-6.49876 -3.35809 -1.41131 68 59 132 255 
-6.17265 -3.18828 -1.40968 66 63 133 255 
-5.81274 -2.99972 -1.39394 70 51 127 255 
-5.55818 -2.87097 -1.38804 59 82 139 255 
-5.29865 -2.73561 -1.38109 55 90 140 255 
-5.07113 -2.61709 -1.37952 58 83 139 255 
-4.84589 -2.5029 -1.37605 63 72 137 255 
-4.61463 -2.37851 -1.35714 70 50 126 255 
-4.42918 -2.28281 -1.35194 69 56 130 255 
-4.2325 -2.18335 -1.34226 69 55 129 255 
-4.06723 -2.10252 -1.34146 70 50 126 255 
-38.5718 -19.7772 13.0211 71 13 96 255 
-38.6302 -19.849 12.5604 71 17 100 255 
-38.5539 -19.8272 12.08 72 20 103 255 
-38.6358 -19.8684 11.6655 71 16 99 255 
-38.5625 -19.7979 11.2509 71 19 101 255 
-38.6061 -19.8281 10.8048 71 17 100 255 
-38.5926 -19.8131 10.3589 71 16 99 255 
-39.0026 -20.0141 10.0402 70 8 92 255 
-43.8032 -22.4981 10.8628 69 4 87 255 
-0 -0 0 68 2 86 255 
-17.6648 -9.05727 3.97752 70 10 93 255 
-17.6582 -9.04569 3.78473 72 37 118 255 
-17.6758 -9.0786 3.6255 65 66 135 255 
-17.711 -9.08856 3.43493 71 16 99 255 
-17.7388 -9.08737 3.2424 71 42 122 255 
-17.7573 -9.07697 3.0588 71 44 122 255 
-17.7476 -9.11156 2.89615 67 61 132 255 
-17.7254 -9.09206 2.697 67 61 132 255 
-17.7196 -9.06585 2.50389 68 58 131 255 
-17.7208 -9.05051 2.3199 70 52 128 255 
-17.7114 -9.093 2.15932 69 56 130 255 
-17.7262 -9.08073 1.97041 70 48 126 255 
-19.7204 -10.0852 1.9807 72 40 120 255 
-19.8647 -10.1324 1.78635 72 37 118 255 
-19.8613 -10.1924 1.61194 59 81 139 255 
-19.8927 -10.1862 1.40217 57 86 140 255 
-19.8937 -10.1607 1.19025 63 71 136 255 
-19.9038 -10.1436 0.979272 63 72 137 255 
-22.7503 -11.6649 0.919607 65 66 135 255 
-0 -0 0 68 2 86 255 
-41.1525 -21.0095 0.790382 69 4 87 255 
-0 -0 0 68 2 86 255 
-39.0892 -20.0338 -0.00766618 69 4 87 255 
-40.9089 -20.9117 -0.441043 69 4 87 255 
-0 -0 -0 68 2 86 255 
-40.9186 -20.8174 -1.29841 69 4 87 255 
-0 -0 -0 68 2 86 255 
-0 -0 -0 68 2 86 255 
-0 -0 -0 68 2 86 255 
-29.8059 -15.1573 -2.15651 69 5 89 255 
-24.1352 -12.3484 -1.9671 70 8 92 255 
-20.0012 -10.2065 -1.83824 71 14 97 255 
-17.0652 -8.68974 -1.74955 71 17 100 255 
-14.9933 -7.62459 -1.69672 71 19 101 255 
-13.3379 -6.81537 -1.63245 72 35 116 255 
-11.9662 -6.10367 -1.59227 69 56 130 255 
-10.8314 -5.51304 -1.55692 71 47 125 255 
-9.88024 -5.02009 -1.52599 70 52 128 255 
-9.0922 -4.63991 -1.49096 70 50 126 255 
-8.43407 -4.29831 -1.47221 71 46 124 255 
-7.89426 -4.01635 -1.46154 71 46 124 255 
-7.35487 -3.73696 -1.44279 70 52 128 255 
-6.94984 -3.54053 -1.43152 68 59 132 255 
-6.5525 -3.33508 -1.41851 68 57 131 255 
-6.19209 -3.15035 -1.40968 67 62 133 255 
-5.81186 -2.95424 -1.38935 65 68 135 255 
-5.57569 -2.83681 -1.38804 57 85 140 255 
-5.31881 -2.70482 -1.38199 53 94 141 255 
-5.0715 -2.57799 -1.37529 59 82 139 255 
-4.85251 -2.46872 -1.3736 62 74 137 255 
-4.61534 -2.34314 -1.35309 69 53 129 255 
-4.46892 -2.26869 -1.3598 70 50 126 255 
-4.26298 -2.16606 -1.34768 69 56 130 255 
-4.07663 -2.07578 -1.34033 69 53 129 255 
-38.5274 -19.4568 12.9655 71 16 99 255 
-38.5686 -19.5192 12.5012 72 20 103 255 
-38.6001 -19.5524 12.0567 72 20 103 255 
-38.5984 -19.5506 11.6177 72 20 103 255 
-38.4786 -19.4574 11.1913 72 22 104 255 
-38.4568 -19.4542 10.7294 71 19 101 255 
-38.4851 -19.4605 10.2978 71 14 97 255 
-38.9663 -19.6943 9.9996 69 4 87 255 
-43.8097 -22.1628 10.8305 69 4 87 255 
-45.8877 -23.2031 10.8079 69 5 89 255 
-17.6973 -8.93722 3.97241 71 17 100 255 
-17.7081 -8.93451 3.7836 71 46 124 255 
-17.7347 -8.97175 3.62622 60 80 139 255 
-17.7682 -8.98061 3.43527 72 24 106 255 
-17.7651 -8.96368 3.2371 71 46 124 255 
-17.7862 -8.95451 3.05425 71 46 124 255 
-17.774 -8.98776 2.89141 66 64 134 255 
-17.7959 -8.99073 2.69928 69 56 130 255 
-17.7607 -8.94981 2.50189 68 57 131 255 
-17.7663 -8.9367 2.31863 70 52 128 255 
-17.7465 -8.97384 2.15684 68 59 132 255 
-17.7603 -8.96104 1.96804 70 51 127 255 
-19.7882 -9.96712 1.98132 72 33 115 255 
-19.9425 -10.0183 1.78778 72 29 111 255 
