ply
format ascii 1.0
comment VTK generated PLY File
obj_info vtkPolyData points and polygons: vtk4.0
element vertex 1228
property float x
property float y
property float z
property uchar red
property uchar green
property uchar blue
property uchar alpha
element face 0
property list uchar int vertex_indices
end_header
-8.22657 -18.3458 5.21844 72 26 108 255 
-8.31787 -18.5574 5.06286 71 45 123 255 
-8.21628 -18.3226 4.79495 71 45 123 255 
-8.17657 -18.2246 4.57484 71 45 123 255 
-8.08349 -18.0351 4.35983 71 47 125 255 
-8.28122 -18.467 4.25391 72 32 113 255 
-8.26943 -18.4153 4.04471 72 41 121 255 
-8.41318 -18.7171 3.91458 72 32 113 255 
-8.00419 -17.8582 3.57058 71 47 125 255 
-7.91219 -17.6358 3.33529 68 57 131 255 
-7.26094 -16.1544 2.88127 72 28 110 255 
-7.28127 -16.1612 2.71875 69 56 130 255 
-7.33227 -16.3514 2.60149 71 44 122 255 
-7.46983 -16.642 2.4696 70 48 126 255 
-7.47678 -16.6113 2.29158 71 47 125 255 
-7.55485 -16.7528 2.14261 70 51 127 255 
-7.46316 -16.6433 1.97828 69 56 130 255 
-7.49501 -16.6748 1.80865 67 62 133 255 
-7.23465 -16.0659 1.57562 67 61 132 255 
-7.22704 -16.0036 1.40665 69 55 129 255 
-7.04778 -15.7097 1.24328 65 66 135 255 
-7.30197 -16.2377 1.11701 68 58 131 255 
-7.17259 -15.9058 0.929693 68 57 131 255 
-7.17023 -15.863 0.763106 70 52 128 255 
-7.31718 -16.295 0.642499 68 58 131 255 
-7.28907 -16.1939 0.471232 67 62 133 255 
-7.29427 -16.1681 0.303414 68 57 131 255 
-16.1076 -35.6025 0.306915 72 20 103 255 
-12.521 -27.8706 -0.00533268 72 23 105 255 
-12.5455 -27.846 -0.293187 72 35 116 255 
-12.5621 -27.8187 -0.575424 72 33 115 255 
-12.5868 -27.7947 -0.862931 72 35 116 255 
-12.5031 -27.7919 -1.10681 72 35 116 255 
-12.5502 -27.8304 -1.39167 72 36 117 255 
-12.5593 -27.7995 -1.67878 72 27 109 255 
-11.9787 -26.4397 -1.87199 70 11 94 255 
-8.51058 -18.9085 -1.50453 72 35 116 255 
-8.13668 -18.0266 -1.61908 72 29 111 255 
-7.57872 -16.7518 -1.67977 72 20 103 255 
-6.69478 -14.7768 -1.6364 71 14 97 255 
-5.91825 -13.1306 -1.56972 71 14 97 255 
-5.37443 -11.9013 -1.5479 72 28 110 255 
-4.87455 -10.7696 -1.51436 72 27 109 255 
-4.45591 -9.82607 -1.48561 72 24 106 255 
-4.14803 -9.19026 -1.47275 72 24 106 255 
-3.86232 -8.54492 -1.45838 70 51 127 255 
-3.5963 -7.94179 -1.43858 68 57 131 255 
-3.38151 -7.45683 -1.43193 64 69 136 255 
-3.16869 -7.00742 -1.41148 61 78 138 255 
-2.99782 -6.62307 -1.4026 60 80 139 255 
-2.82019 -6.2279 -1.38721 59 82 139 255 
-2.68589 -5.92561 -1.38644 62 76 138 255 
-2.55235 -5.63657 -1.37287 62 76 138 255 
-2.44035 -5.38645 -1.36958 60 79 138 255 
-2.33017 -5.14099 -1.36449 61 77 138 255 
-2.23113 -4.92688 -1.36455 61 77 138 255 
-2.13963 -4.7142 -1.35334 59 81 139 255 
-2.06865 -4.55755 -1.35797 62 74 137 255 
-1.98074 -4.36803 -1.35175 61 78 138 255 
-1.90232 -4.20468 -1.35214 67 61 132 255 
-0 -0 0 68 2 86 255 
-0 -0 0 68 2 86 255 
-0 -0 0 68 2 86 255 
-0 -0 0 69 4 87 255 
-8.39799 -18.4244 5.25537 72 23 105 255 
-8.40583 -18.4495 5.0474 72 29 111 255 
-8.35517 -18.3302 4.81028 71 42 122 255 
-8.38248 -18.3807 4.62686 71 13 96 255 
-8.23368 -18.0723 4.38094 70 50 126 255 
-8.24257 -18.0828 4.17698 72 37 118 255 
-8.30328 -18.1912 4.0066 72 40 120 255 
-8.18252 -17.9092 3.75606 72 38 119 255 
-8.13809 -17.8625 3.58135 68 59 132 255 
-8.04396 -17.6389 3.34515 68 58 131 255 
-8.13021 -17.7955 3.18282 70 51 127 255 
-7.45067 -16.2699 2.74467 71 44 122 255 
-7.43452 -16.3106 2.60221 69 53 129 255 
-7.59442 -16.6455 2.47698 71 45 123 255 
-7.51912 -16.4352 2.27361 71 46 124 255 
-7.72414 -16.8515 2.16125 72 35 116 255 
-7.46246 -16.372 1.95143 66 64 134 255 
-7.60628 -16.6484 1.81082 70 50 126 255 
-7.30408 -15.9578 1.56938 71 44 122 255 
-7.33134 -15.9725 1.40785 71 42 122 255 
-7.10556 -15.5817 1.23658 69 55 129 255 
-7.55581 -16.5303 1.14031 69 53 129 255 
-7.32872 -15.9895 0.937195 66 63 133 255 
-7.38171 -16.0675 0.775106 71 47 125 255 
-7.44981 -16.3216 0.645339 70 52 128 255 
-7.40451 -16.1843 0.472267 66 64 134 255 
-16.3379 -35.6289 0.670487 71 17 100 255 
-16.3797 -35.6202 0.307928 71 17 100 255 
-12.6993 -27.8096 -0.00533582 72 32 113 255 
-12.7299 -27.7985 -0.293504 72 37 118 255 
-12.7493 -27.7775 -0.576178 72 37 118 255 
-12.7792 -27.765 -0.864429 72 29 111 255 
-12.6984 -27.7692 -1.10899 72 31 112 255 
-12.7319 -27.7774 -1.3929 72 35 116 255 
-12.7454 -27.7564 -1.68087 72 22 104 255 
-11.9554 -25.9633 -1.84341 70 11 94 255 
-8.85672 -19.3593 -1.54469 72 22 104 255 
-8.2862 -18.0615 -1.62675 72 26 108 255 
-7.69343 -16.7312 -1.68241 71 17 100 255 
-6.80613 -14.7807 -1.64142 71 16 99 255 
-6.03679 -13.1772 -1.57969 71 19 101 255 
-5.46558 -11.9079 -1.55308 71 19 101 255 
-4.96293 -10.7881 -1.52122 72 24 106 255 
-4.47632 -9.71217 -1.47252 72 29 111 255 
-4.20723 -9.17093 -1.47376 72 36 117 255 
-3.91592 -8.52376 -1.45884 69 53 129 255 
-3.64785 -7.92585 -1.43972 68 58 131 255 
-3.44906 -7.48335 -1.44106 63 72 137 255 
-3.20423 -6.97176 -1.40823 59 81 139 255 
-3.03347 -6.59384 -1.40033 59 81 139 255 
-2.8645 -6.22383 -1.39019 62 76 138 255 
-2.7222 -5.90902 -1.38644 57 85 140 255 
-2.58485 -5.61637 -1.37179 60 80 139 255 
-2.47702 -5.37934 -1.37161 60 80 139 255 
-2.37183 -5.14866 -1.37036 64 69 136 255 
-2.26051 -4.91134 -1.36406 62 76 138 255 
-2.17338 -4.71152 -1.35638 61 77 138 255 
-2.1087 -4.57106 -1.36582 62 73 137 255 
-2.00187 -4.34356 -1.34795 60 79 138 255 
-1.93009 -4.19729 -1.35355 66 63 133 255 
-0 -0 0 68 2 86 255 
-0 -0 0 68 2 86 255 
-0 -0 0 68 1 84 255 
-0 -0 0 68 2 86 255 
-8.53407 -18.4226 5.26969 71 17 100 255 
-8.48299 -18.3201 5.02614 70 8 92 255 
-8.37386 -18.0765 4.75709 72 35 116 255 
-8.3377 -17.9894 4.54113 72 37 118 255 
-8.32308 -17.9753 4.36974 72 41 121 255 
-8.37723 -18.0834 4.18891 69 53 129 255 
-8.45765 -18.2324 4.02703 72 27 109 255 
-8.31336 -17.9041 3.76561 71 47 125 255 
-8.25498 -17.8283 3.58458 69 55 129 255 
-8.30163 -17.912 3.40653 69 53 129 255 
-8.23883 -17.7444 3.18266 72 33 115 255 
-7.55662 -16.2373 2.74695 70 50 126 255 
-8.29818 -17.9134 2.86598 72 38 119 255 
-8.16163 -17.6019 2.6267 70 48 126 255 
-7.61104 -16.3699 2.27099 69 55 129 255 
-7.81439 -16.7759 2.15766 71 45 123 255 
-7.57114 -16.3439 1.95359 68 57 131 255 
-7.59513 -16.3577 1.78423 69 55 129 255 
-8.65244 -18.6012 1.83454 72 33 115 255 
-7.39002 -15.8432 1.40043 70 50 126 255 
-7.36376 -15.889 1.26452 65 68 135 255 
-7.43846 -16.0129 1.10775 71 44 122 255 
-7.45072 -15.9958 0.940228 67 61 132 255 
-7.81995 -16.7497 0.810316 71 44 122 255 
-8.06665 -17.3897 0.689517 72 38 119 255 
-7.52307 -16.1803 0.473487 71 47 125 255 
-16.5963 -35.6141 0.672112 72 23 105 255 
-13.0482 -27.9228 0.242073 71 19 101 255 
-12.8974 -27.7911 -0.00534734 72 33 115 255 
-12.9356 -27.796 -0.29431 72 35 116 255 
-12.9507 -27.7658 -0.577573 72 35 116 255 
-12.9714 -27.7332 -0.865899 72 29 111 255 
-12.8946 -27.747 -1.11124 72 31 112 255 
-12.9097 -27.715 -1.39372 72 36 117 255 
-12.9328 -27.7147 -1.68312 72 27 109 255 
-12.938 -27.6492 -1.96872 70 7 90 255 
-9.01445 -19.3887 -1.55142 71 19 101 255 
-8.41414 -18.0473 -1.6301 72 32 113 255 
-7.79974 -16.6918 -1.68322 72 24 106 255 
-6.90133 -14.7485 -1.64252 72 20 103 255 
-6.12425 -13.1543 -1.58142 72 22 104 255 
-5.54526 -11.8885 -1.55496 72 23 105 255 
-4.97988 -10.6524 -1.50635 72 24 106 255 
-4.58246 -9.78411 -1.48766 72 24 106 255 
-4.26134 -9.14046 -1.47304 72 33 115 255 
-3.97441 -8.513 -1.46115 70 52 128 255 
-3.69683 -7.90421 -1.43989 69 56 130 255 
-3.48196 -7.43439 -1.43572 64 69 136 255 
-3.25444 -6.96801 -1.41148 62 73 137 255 
-3.08136 -6.59112 -1.40374 59 82 139 255 
-2.9072 -6.2159 -1.39238 58 83 139 255 
-2.75468 -5.88423 -1.38456 59 82 139 255 
-2.6205 -5.60306 -1.37244 62 74 137 255 
-2.50874 -5.36139 -1.37094 61 78 138 255 
-2.41327 -5.15514 -1.376 63 72 137 255 
-2.28608 -4.88771 -1.36137 62 73 137 255 
-2.22278 -4.7419 -1.36902 60 79 138 255 
-2.13794 -4.56066 -1.36661 62 76 138 255 
-2.03011 -4.33468 -1.34904 60 80 139 255 
-1.9489 -4.17059 -1.34877 66 63 133 255 
-0 -0 0 68 2 86 255 
-0 -0 0 68 2 86 255 
-0 -0 0 68 2 86 255 
-0 -0 0 69 4 87 255 
-0 -0 0 68 2 86 255 
-0 -0 0 68 2 86 255 
-0 -0 0 68 2 86 255 
-8.52642 -18.1045 4.58332 72 36 117 255 
-8.3879 -17.8276 4.34626 69 55 129 255 
-8.4922 -18.0405 4.19097 72 40 120 255 
-8.47906 -17.9886 3.98459 71 45 123 255 
-8.54377 -18.1086 3.81958 71 47 125 255 
-8.52001 -18.1084 3.65135 71 47 125 255 
-8.53146 -18.1157 3.45516 72 35 116 255 
-7.59833 -16.1055 2.89701 72 41 121 255 
-8.42091 -17.808 3.02135 70 52 128 255 
-8.55081 -18.1657 2.91468 72 40 120 255 
-8.3341 -17.6886 2.64723 67 61 132 255 
-7.81009 -16.5319 2.30007 72 38 119 255 
-7.70047 -16.2698 2.0986 71 45 123 255 
-7.6933 -16.3439 1.9592 70 51 127 255 
-7.69026 -16.3 1.78305 68 59 132 255 
-8.70896 -18.4262 1.82251 72 24 106 255 
-7.47557 -15.7733 1.39827 70 51 127 255 
-7.53675 -16.0041 1.27734 70 48 126 255 
-7.71336 -16.3415 1.13373 69 55 129 255 
-7.87894 -16.6475 0.981357 71 46 124 255 
-7.91787 -16.6915 0.809834 69 55 129 255 
-7.84554 -16.6448 0.661874 72 38 119 255 
-7.84938 -16.6147 0.487599 70 52 128 255 
-7.8846 -16.652 0.315164 72 23 105 255 
-13.1657 -27.7293 0.241091 71 19 101 255 
-13.0954 -27.7702 -0.00535868 72 36 117 255 
-13.1158 -27.7369 -0.294531 72 29 111 255 
-13.1187 -27.6813 -0.577478 72 24 106 255 
-13.1563 -27.6847 -0.866889 71 14 97 255 
-13.0791 -27.6981 -1.11247 72 28 110 255 
-13.103 -27.685 -1.39622 72 23 105 255 
-11.8168 -24.9228 -1.51794 71 14 97 255 
-11.8605 -24.9467 -1.78143 70 11 94 255 
-9.24486 -19.5693 -1.57038 71 19 101 255 
-8.54477 -18.0377 -1.63393 72 26 108 255 
-7.90671 -16.6536 -1.68423 71 17 100 255 
-7.00024 -14.7239 -1.64453 72 22 104 255 
-6.22057 -13.1497 -1.58543 71 14 97 255 
-5.62703 -11.8731 -1.55743 72 28 110 255 
-5.03792 -10.6064 -1.50419 72 24 106 255 
-4.66327 -9.79964 -1.49434 72 29 111 255 
-4.31268 -9.10431 -1.47145 72 32 113 255 
-4.02954 -8.4947 -1.46222 68 58 131 255 
-3.74568 -7.88227 -1.44005 69 56 130 255 
-3.52116 -7.39955 -1.43314 61 77 138 255 
-3.30641 -6.96745 -1.41545 58 84 140 255 
-3.12469 -6.5783 -1.40506 58 83 139 255 
-2.93856 -6.18379 -1.3892 56 88 140 255 
-2.78989 -5.86545 -1.38414 59 82 139 255 
-2.65861 -5.59481 -1.37439 62 76 138 255 
-2.53197 -5.32566 -1.36575 63 72 137 255 
-2.44778 -5.14638 -1.37764 64 69 136 255 
-2.32269 -4.8876 -1.36528 62 76 138 255 
-2.23852 -4.70022 -1.36093 57 86 140 255 
-2.1609 -4.537 -1.36346 62 74 137 255 
-2.06081 -4.33083 -1.35175 60 80 139 255 
-1.96622 -4.14122 -1.34315 66 64 134 255 
-0 -0 0 68 2 86 255 
-0 -0 0 69 4 87 255 
-0 -0 0 68 2 86 255 
-0 -0 0 68 2 86 255 
-0 -0 0 68 2 86 255 
-0 -0 0 68 2 86 255 
-0 -0 0 68 2 86 255 
-8.65207 -18.0827 4.59114 72 36 117 255 
-8.56199 -17.9115 4.37943 71 46 124 255 
-0 -0 0 68 2 86 255 
-8.59521 -17.9486 3.98734 71 44 122 255 
-8.73879 -18.2312 3.85668 72 36 117 255 
-8.65854 -18.1135 3.66301 71 44 122 255 
-8.62715 -18.031 3.44904 71 46 124 255 
-8.55067 -17.8396 3.21831 71 46 124 255 
-8.56041 -17.8193 3.03212 68 58 131 255 
-8.6651 -18.1191 2.91569 72 31 112 255 
-8.44547 -17.6434 2.64817 70 50 126 255 
-8.0406 -16.7529 2.33764 72 31 112 255 
-7.76185 -16.1425 2.08829 72 36 117 255 
-7.72224 -16.1475 1.9413 71 45 123 255 
-7.75056 -16.1699 1.774 66 64 134 255 
-8.54895 -17.8041 1.76613 72 29 111 255 
-7.56918 -15.7208 1.39771 70 50 126 255 
-7.85478 -16.4173 1.31414 71 42 122 255 
-7.99301 -16.6683 1.15978 69 56 130 255 
-8.12417 -16.8968 0.998969 69 55 129 255 
-8.26128 -17.143 0.834183 72 36 117 255 
-7.95572 -16.6134 0.662557 68 57 131 255 
-7.96934 -16.6041 0.488713 71 45 123 255 
-8.49329 -17.6566 0.335158 72 26 108 255 
-11.9784 -24.8343 0.216556 72 40 120 255 
-11.9128 -24.8656 -0.00481222 72 36 117 255 
-11.9391 -24.8527 -0.264678 72 40 120 255 
-11.9473 -24.8148 -0.519199 72 38 119 255 
-11.9622 -24.7786 -0.778176 72 32 113 255 
-11.9041 -24.8142 -0.999561 72 36 117 255 
-11.9151 -24.7807 -1.25342 72 37 118 255 
-11.9318 -24.7716 -1.51316 72 35 116 255 
-11.986 -24.8168 -1.77738 72 27 109 255 
-9.43597 -19.6605 -1.58232 72 28 110 255 
-8.68079 -18.0379 -1.63875 71 19 101 255 
-8.02475 -16.6379 -1.68759 72 22 104 255 
-7.1069 -14.7147 -1.64834 71 19 101 255 
-6.30932 -13.1283 -1.58749 71 19 101 255 
-5.70753 -11.8544 -1.55955 72 24 106 255 
-5.11066 -10.5913 -1.50648 72 26 108 255 
-4.71512 -9.75389 -1.49175 72 28 110 255 
-4.38649 -9.11512 -1.47752 72 32 113 255 
-4.07815 -8.4627 -1.46099 66 64 134 255 
-3.8047 -7.88135 -1.44412 68 59 132 255 
-3.5665 -7.3778 -1.43314 62 74 137 255 
-3.35252 -6.95412 -1.41689 61 78 138 255 
-3.15988 -6.54839 -1.40279 58 84 140 255 
-2.98795 -6.18947 -1.39457 57 86 140 255 
-2.82881 -5.85439 -1.3856 56 88 140 255 
-2.6967 -5.5863 -1.37634 61 78 138 255 
-2.56418 -5.30915 -1.36552 60 80 139 255 
-2.47424 -5.12076 -1.37482 62 74 137 255 
-2.36275 -4.89422 -1.37115 61 78 138 255 
-2.26816 -4.68814 -1.36143 60 80 139 255 
-2.18029 -4.50628 -1.35823 61 77 138 255 
-2.08986 -4.32331 -1.35338 60 80 139 255 
-1.98993 -4.12562 -1.34202 67 62 133 255 
-0 -0 0 68 2 86 255 
-0 -0 0 68 2 86 255 
-0 -0 0 68 2 86 255 
-0 -0 0 68 2 86 255 
-0 -0 0 68 2 86 255 
-0 -0 0 68 2 86 255 
-8.8195 -18.1547 4.81957 72 20 103 255 
-0 -0 0 68 2 86 255 
-0 -0 0 68 2 86 255 
-0 -0 0 68 2 86 255 
-9.48923 -19.5073 4.34647 70 7 90 255 
-8.87801 -18.2338 3.86867 72 36 117 255 
-8.8082 -18.1397 3.67917 71 47 125 255 
-8.69368 -17.8873 3.4317 67 61 132 255 
-8.62195 -17.7087 3.20418 69 53 129 255 
-8.8226 -18.08 3.08563 72 36 117 255 
-8.7852 -18.0843 2.91871 72 40 120 255 
-8.1159 -16.6911 2.51267 70 48 126 255 
-8.64978 -17.7422 2.48304 71 45 123 255 
-8.73823 -17.8912 2.32141 71 45 123 255 
-9.0119 -18.5509 2.23685 72 29 111 255 
-8.85202 -18.1808 2.00053 72 38 119 255 
-7.53675 -15.4524 1.53741 72 23 105 255 
-7.67295 -15.6893 1.39907 71 45 123 255 
-8.10055 -16.6675 1.33813 71 42 122 255 
-8.09732 -16.6234 1.16009 67 61 132 255 
-8.21849 -16.8278 0.997852 70 48 126 255 
-7.63281 -15.5935 0.761048 72 35 116 255 
-7.74014 -15.9119 0.636461 72 36 117 255 
-8.10656 -16.6276 0.490862 69 53 129 255 
-12.1068 -24.7784 0.471746 72 38 119 255 
-12.1266 -24.7522 0.216485 72 35 116 255 
-12.0638 -24.7894 -0.0048117 71 44 122 255 
-12.0861 -24.7682 -0.264563 71 44 122 255 
-12.0927 -24.7276 -0.518916 72 40 120 255 
-12.1352 -24.7478 -0.779533 72 26 108 255 
-12.0649 -24.7587 -1.00029 72 38 119 255 
-12.0678 -24.7089 -1.25351 72 38 119 255 
-12.0879 -24.7068 -1.51371 72 35 116 255 
-12.1328 -24.7321 -1.77661 72 20 103 255 
-9.59008 -19.6713 -1.5879 71 19 101 255 
-8.82281 -18.0488 -1.64462 72 27 109 255 
-8.14115 -16.6179 -1.69059 72 22 104 255 
-7.19924 -14.6753 -1.64884 71 19 101 255 
-6.38976 -13.0894 -1.58749 71 16 99 255 
-5.77013 -11.7987 -1.55684 72 35 116 255 
-5.22182 -10.6542 -1.51995 72 29 111 255 
-4.78841 -9.75235 -1.49598 72 32 113 255 
-4.44233 -9.08803 -1.47752 72 31 112 255 
-4.13087 -8.43929 -1.4613 68 59 132 255 
-3.85125 -7.85431 -1.44347 68 57 131 255 
-3.61343 -7.35932 -1.43383 62 74 137 255 
-3.39296 -6.92901 -1.41599 61 77 138 255 
-3.19827 -6.52535 -1.40203 60 79 138 255 
-3.03277 -6.1851 -1.39775 58 83 139 255 
-2.86769 -5.84307 -1.38706 59 81 139 255 
-2.7305 -5.56878 -1.37612 61 78 138 255 
-2.604 -5.30818 -1.36936 59 81 139 255 
-2.50219 -5.0985 -1.37294 58 83 139 255 
-2.3906 -4.87527 -1.36993 62 76 138 255 
-2.30073 -4.68194 -1.36371 58 83 139 255 
-2.2062 -4.48935 -1.35718 59 82 139 255 
-2.12059 -4.31904 -1.35609 60 79 138 255 
-2.01774 -4.1185 -1.34371 65 68 135 255 
-0 -0 0 68 2 86 255 
-0 -0 0 68 1 84 255 
-0 -0 0 68 2 86 255 
-0 -0 0 68 1 84 255 
-0 -0 0 68 2 86 255 
-0 -0 0 68 2 86 255 
-0 -0 0 69 4 87 255 
-0 -0 0 69 4 87 255 
-0 -0 0 68 2 86 255 
-0 -0 0 68 2 86 255 
-8.89126 -17.9965 4.02192 72 29 111 255 
-9.70121 -19.6177 4.17486 72 31 112 255 
-9.41973 -19.0999 3.88558 71 42 122 255 
-8.83991 -17.9079 3.44598 68 57 131 255 
-8.81707 -17.8306 3.23597 69 55 129 255 
-9.23184 -18.6277 3.18873 72 41 121 255 
-9.01466 -18.2705 2.95764 72 40 120 255 
-8.87855 -17.9782 2.71458 72 40 120 255 
-8.94031 -18.0561 2.53459 70 48 126 255 
-8.9679 -18.0793 2.35291 72 31 112 255 
-9.21661 -18.6798 2.25917 72 37 118 255 
-8.85886 -17.9147 1.9772 70 48 126 255 
-8.81542 -17.796 1.77593 70 51 127 255 
-8.82351 -17.7649 1.58895 71 45 123 255 
-8.72582 -17.6774 1.42347 72 24 106 255 
-8.23678 -16.6494 1.16542 69 53 129 255 
-8.19379 -16.5194 0.982528 67 61 132 255 
-8.65248 -17.4053 0.852051 71 42 122 255 
-7.64198 -15.4681 0.620572 71 45 123 255 
-8.36058 -16.8848 0.49996 72 35 116 255 
-8.37999 -16.8874 0.322484 72 40 120 255 
-13.7857 -27.707 0.243063 71 16 99 255 
-12.221 -24.7256 -0.00481379 72 27 109 255 
-12.2454 -24.7088 -0.264726 72 22 104 255 
-13.7626 -27.71 -0.583265 72 20 103 255 
-13.8094 -27.7304 -0.876133 72 27 109 255 
-12.2702 -24.7925 -1.00468 71 17 100 255 
-13.6925 -27.6047 -1.40464 71 14 97 255 
-13.7561 -27.685 -1.70131 71 16 99 255 
-13.7817 -27.6628 -1.99317 71 19 101 255 
-9.82169 -19.8364 -1.60606 72 27 109 255 
-8.96575 -18.0595 -1.65058 72 31 112 255 
-8.2403 -16.5623 -1.69005 71 19 101 255 
-7.29669 -14.646 -1.65055 71 16 99 255 
-6.48806 -13.0864 -1.59193 71 17 100 255 
-5.83976 -11.7577 -1.55614 72 28 110 255 
-5.28887 -10.6255 -1.52046 72 31 112 255 
-4.84905 -9.72455 -1.49625 72 33 115 255 
-4.47953 -9.02338 -1.47145 72 33 115 255 
-4.18345 -8.41555 -1.46161 68 59 132 255 
-3.89057 -7.81287 -1.44021 70 52 128 255 
-3.65896 -7.33789 -1.434 59 81 139 255 
-3.43979 -6.91686 -1.4178 63 72 137 255 
-3.24744 -6.52406 -1.40601 54 92 141 255 
-3.06586 -6.15672 -1.39556 55 90 140 255 
-2.91178 -5.84199 -1.39102 60 79 138 255 
-2.76244 -5.54755 -1.37504 60 80 139 255 
-2.64086 -5.30083 -1.37161 62 76 138 255 
-2.52909 -5.07436 -1.37059 58 83 139 255 
-2.42263 -4.86485 -1.37115 58 83 139 255 
-2.33114 -4.6712 -1.36472 56 89 140 255 
-2.24879 -4.50595 -1.36635 61 77 138 255 
-2.14791 -4.30767 -1.35663 61 78 138 255 
-2.0528 -4.1258 -1.35017 62 74 137 255 
-0 -0 0 68 2 86 255 
-0 -0 0 68 2 86 255 
-0 -0 0 68 2 86 255 
-0 -0 0 68 2 86 255 
-0 -0 0 69 4 87 255 
-0 -0 0 68 2 86 255 
-0 -0 0 68 2 86 255 
-0 -0 0 68 2 86 255 
-0 -0 0 68 2 86 255 
-0 -0 0 68 2 86 255 
-9.10968 -18.1572 4.07025 72 20 103 255 
-9.63052 -19.1777 4.09372 72 31 112 255 
-9.58741 -19.1429 3.90622 72 37 118 255 
-9.00615 -17.9661 3.46775 71 45 123 255 
-9.06229 -18.047 3.28527 72 26 108 255 
-9.20511 -18.2908 3.14067 72 28 110 255 
-9.37042 -18.7015 3.03665 71 46 124 255 
-8.87986 -17.7064 2.68171 72 28 110 255 
-8.84724 -17.5958 2.47755 72 40 120 255 
-9.07375 -18.0142 2.35163 71 42 122 255 
-9.13421 -18.2301 2.21151 72 33 115 255 
-8.93379 -17.7907 1.96952 68 57 131 255 
-8.8685 -17.6304 1.7648 67 61 132 255 
-9.00147 -17.8475 1.60125 72 31 112 255 
-8.85513 -17.6654 1.42685 69 56 130 255 
-8.41406 -16.7484 1.17593 72 37 118 255 
-8.27479 -16.4286 0.980134 70 52 128 255 
-8.31476 -16.4716 0.808827 70 48 126 255 
-8.70921 -17.3592 0.698575 72 27 109 255 
-8.57405 -17.052 0.506459 72 28 110 255 
-8.4857 -16.8401 0.32257 72 36 117 255 
-13.968 -27.6468 0.243282 72 35 116 255 
-13.8748 -27.6433 -0.0053983 72 36 117 255 
-13.9094 -27.6389 -0.297027 72 38 119 255 
-13.9337 -27.6277 -0.583322 72 32 113 255 
-13.9766 -27.6398 -0.875964 72 32 113 255 
-13.8689 -27.5955 -1.12169 72 24 106 255 
-13.9237 -27.6432 -1.41093 72 31 112 255 
-13.955 -27.658 -1.70488 72 31 112 255 
-13.9616 -27.5982 -1.99465 71 19 101 255 
-10.1193 -20.126 -1.6345 71 16 99 255 
-9.07684 -18.005 -1.65066 72 32 113 255 
-8.34626 -16.5203 -1.69096 72 20 103 255 
-7.40124 -14.6302 -1.65386 71 17 100 255 
-6.57315 -13.0562 -1.59313 71 14 97 255 
-5.91001 -11.7181 -1.55566 72 26 108 255 
-5.34501 -10.5751 -1.51791 72 29 111 255 
-4.90236 -9.68224 -1.49434 72 27 109 255 
-4.53971 -9.00544 -1.47304 72 29 111 255 
-4.23724 -8.39414 -1.46238 67 61 132 255 
-3.93844 -7.78885 -1.44021 68 59 132 255 
-3.70703 -7.32145 -1.43521 60 80 139 255 
-3.4764 -6.88421 -1.41545 59 81 139 255 
-3.28431 -6.49788 -1.40468 54 92 141 255 
-3.10093 -6.13255 -1.39437 56 88 140 255 
-2.95729 -5.84321 -1.39561 60 79 138 255 
-2.80744 -5.55227 -1.38046 56 89 140 255 
-2.6729 -5.28365 -1.37139 60 80 139 255 
-2.55798 -5.05441 -1.36942 60 80 139 255 
-2.45769 -4.86028 -1.37409 59 82 139 255 
-2.36195 -4.66113 -1.36599 57 86 140 255 
-2.27116 -4.48174 -1.3632 59 82 139 255 
-2.16691 -4.27981 -1.35202 61 77 138 255 
-2.07981 -4.11655 -1.3513 63 72 137 255 
-0 -0 0 68 2 86 255 
-0 -0 0 68 2 86 255 
-0 -0 0 68 2 86 255 
-0 -0 0 68 2 86 255 
-0 -0 0 68 2 86 255 
-0 -0 0 69 4 87 255 
-0 -0 0 68 2 86 255 
-0 -0 0 68 2 86 255 
-0 -0 0 68 2 86 255 
-0 -0 0 68 2 86 255 
-9.78704 -19.2122 4.32015 72 20 103 255 
-9.87161 -19.3607 4.14562 71 19 101 255 
-9.68908 -19.053 3.89994 72 36 117 255 
-9.53372 -18.7307 3.62656 71 46 124 255 
-9.77003 -19.1623 3.49915 71 45 123 255 
-9.9059 -19.3862 3.33912 71 44 122 255 
-10.032 -19.7189 3.21178 71 44 122 255 
-10.0819 -19.7992 3.00798 72 36 117 255 
-9.27625 -18.1703 2.56642 72 40 120 255 
-9.2013 -17.9918 2.35603 72 41 121 255 
-9.09217 -17.8715 2.17474 69 56 130 255 
-8.94695 -17.5476 1.94865 69 56 130 255 
-8.99146 -17.6049 1.76774 70 48 126 255 
-9.08992 -17.7511 1.59758 69 53 129 255 
-9.74378 -19.1441 1.55109 72 23 105 255 
-8.84681 -17.3437 1.22152 72 29 111 255 
-8.28814 -16.2069 0.969918 66 64 134 255 
-8.25619 -16.1091 0.793499 71 45 123 255 
-8.60463 -16.8914 0.68186 70 52 128 255 
-8.69624 -17.0338 0.507493 72 28 110 255 
-14.142 -27.6418 0.531129 72 31 112 255 
-14.1689 -27.622 0.243824 72 31 112 255 
-14.081 -27.6298 -0.00541244 72 33 115 255 
-14.132 -27.6572 -0.29815 72 33 115 255 
-14.1576 -27.6485 -0.585583 72 31 112 255 
-9.17874 -17.8784 -0.56838 71 47 125 255 
-9.22815 -18.0842 -0.737367 71 45 123 255 
-9.06558 -17.7267 -0.907605 70 51 127 255 
-14.1627 -27.6465 -1.7095 72 31 112 255 
-14.1685 -27.5857 -1.99999 72 22 104 255 
-10.2644 -20.1062 -1.63797 71 17 100 255 
-9.144 -17.8647 -1.64291 72 33 115 255 
-8.44974 -16.4732 -1.69141 72 22 104 255 
-7.51133 -14.6244 -1.65838 71 19 101 255 
-6.65404 -13.0174 -1.59334 71 16 99 255 
-5.94695 -11.6136 -1.5466 72 23 105 255 
-5.4012 -10.5254 -1.5155 72 27 109 255 
-4.97164 -9.67136 -1.49734 72 32 113 255 
-4.59939 -8.98623 -1.47448 72 31 112 255 
-4.29272 -8.37589 -1.46376 68 59 132 255 
-3.97985 -7.75225 -1.43793 68 57 131 255 
-3.75054 -7.29594 -1.43469 61 77 138 255 
-3.51813 -6.86188 -1.41527 62 76 138 255 
-3.33039 -6.48983 -1.40734 58 84 140 255 
-3.14476 -6.12561 -1.39715 55 90 140 255 
-2.99889 -5.83627 -1.39832 61 78 138 255 
-2.8312 -5.51497 -1.37547 61 77 138 255 
-2.70749 -5.27149 -1.37251 60 80 139 255 
-2.59339 -5.04726 -1.37177 55 90 140 255 
-2.49189 -4.85374 -1.37654 62 76 138 255 
-2.38696 -4.63966 -1.36396 57 86 140 255 
-2.29905 -4.46858 -1.36346 59 82 139 255 
-2.19533 -4.27072 -1.35338 62 74 137 255 
-2.1024 -4.09859 -1.34961 60 80 139 255 
-0 -0 0 68 2 86 255 
-0 -0 0 68 2 86 255 
-0 -0 0 68 2 86 255 
-0 -0 0 68 2 86 255 
-0 -0 0 68 2 86 255 
-0 -0 0 68 2 86 255 
-0 -0 0 68 2 86 255 
-0 -0 0 68 2 86 255 
-0 -0 0 69 4 87 255 
-0 -0 0 68 2 86 255 
-9.88628 -19.1161 4.31209 71 14 97 255 
-9.91797 -19.1602 4.11564 71 17 100 255 
-9.8013 -18.9845 3.89814 72 40 120 255 
-9.80636 -18.9774 3.6859 72 28 110 255 
-9.75494 -18.846 3.45226 71 42 122 255 
-9.8731 -19.0329 3.28863 72 26 108 255 
-9.42119 -18.2404 2.98034 72 32 113 255 
-9.33311 -18.0539 2.75147 72 37 118 255 
-9.09811 -17.5546 2.48729 70 51 127 255 
-9.30511 -17.9226 2.35441 72 41 121 255 
-9.24591 -17.9011 2.1852 71 42 122 255 
-9.03981 -17.4641 1.9455 68 57 131 255 
-9.10344 -17.5573 1.76854 70 50 126 255 
-9.1697 -17.6393 1.59255 71 46 124 255 
-9.1326 -17.6741 1.4365 72 36 117 255 
-8.63134 -16.6678 1.17763 69 53 129 255 
-8.38329 -16.1477 0.969439 66 65 134 255 
-8.31015 -15.9722 0.789251 66 65 134 255 
-8.85364 -17.1196 0.693255 72 33 115 255 
-8.6442 -16.6784 0.498475 72 33 115 255 
-8.64102 -16.6371 0.320689 70 51 127 255 
-14.3806 -27.6161 0.244547 72 37 118 255 
-14.2787 -27.598 -0.00542326 72 38 119 255 
-14.3175 -27.6011 -0.298486 72 36 117 255 
-14.375 -27.6534 -0.587544 72 29 111 255 
-9.23098 -17.7119 -0.564874 71 45 123 255 
-9.25113 -17.8577 -0.730434 72 35 116 255 
-9.19627 -17.7133 -0.909791 70 51 127 255 
-9.22715 -17.7429 -1.1006 72 24 106 255 
-14.4025 -27.623 -2.00907 72 22 104 255 
-11.8056 -22.7791 -1.86159 70 10 93 255 
-9.19049 -17.6871 -1.63173 72 33 115 255 
-8.56906 -16.4564 -1.69505 72 20 103 255 
-7.61886 -14.6124 -1.66229 71 17 100 255 
-6.73608 -12.9807 -1.59388 72 20 103 255 
-6.00481 -11.5513 -1.54319 72 26 108 255 
-5.47255 -10.5052 -1.51741 72 28 110 255 
-5.04464 -9.66702 -1.50143 72 33 115 255 
-4.66129 -8.97101 -1.47665 72 31 112 255 
-4.33765 -8.33712 -1.46161 70 51 127 255 
-4.02871 -7.73031 -1.43842 64 70 136 255 
-3.8007 -7.28327 -1.43676 59 82 139 255 
-3.55881 -6.83754 -1.41473 62 74 137 255 
-3.3706 -6.47015 -1.40753 59 82 139 255 
-3.18954 -6.1201 -1.40034 55 90 140 255 
-3.03646 -5.82123 -1.39915 58 84 140 255 
-2.87085 -5.50875 -1.37829 62 76 138 255 
-2.73033 -5.23663 -1.36778 59 81 139 255 
-2.62431 -5.03125 -1.37177 57 86 140 255 
-2.52118 -4.83749 -1.37629 62 76 138 255 
-2.40822 -4.61121 -1.35992 61 78 138 255 
-2.32643 -4.45438 -1.36346 59 81 139 255 
-2.21615 -4.24693 -1.35012 62 73 137 255 
-2.1284 -4.08732 -1.35017 58 83 139 255 
-0 -0 0 68 2 86 255 
-0 -0 0 68 2 86 255 
-0 -0 0 68 2 86 255 
-0 -0 0 68 2 86 255 
-0 -0 0 68 2 86 255 
-0 -0 0 68 2 86 255 
-0 -0 0 68 2 86 255 
-0 -0 0 69 4 87 255 
-0 -0 0 68 2 86 255 
-0 -0 0 68 2 86 255 
-10.2472 -19.5196 4.4172 72 36 117 255 
-0 -0 0 69 4 87 255 
-10.1637 -19.3936 3.99489 72 31 112 255 
-9.8068 -18.6961 3.64288 72 31 112 255 
-9.99618 -19.0252 3.49626 72 41 121 255 
-9.57476 -18.1839 3.15204 72 24 106 255 
-9.51593 -18.1499 2.97502 70 52 128 255 
-9.14671 -17.4303 2.66494 71 45 123 255 
-9.24215 -17.5678 2.49715 69 55 129 255 
-9.39685 -17.8309 2.34989 72 41 121 255 
-9.38789 -17.9056 2.19275 72 35 116 255 
-9.16717 -17.447 1.94983 70 51 127 255 
-9.20682 -17.4932 1.76774 69 53 129 255 
-9.28613 -17.5985 1.59399 72 32 113 255 
-9.24041 -17.6169 1.43643 72 33 115 255 
-8.63315 -16.4237 1.1641 68 57 131 255 
-8.53249 -16.1914 0.975185 66 65 134 255 
-8.50177 -16.0985 0.798054 69 53 129 255 
-8.84425 -16.8473 0.684413 72 41 121 255 
-8.74497 -16.6224 0.498395 72 28 110 255 
-14.5469 -27.5927 0.533575 72 32 113 255 
-14.5755 -27.576 0.244979 72 35 116 255 
-14.4957 -27.601 -0.00544124 72 33 115 255 
-14.5248 -27.5853 -0.299273 72 33 115 255 
-14.5714 -27.6159 -0.588637 72 28 110 255 
-9.30396 -17.5877 -0.562726 71 47 125 255 
-9.261 -17.6113 -0.722667 70 48 126 255 
-9.30106 -17.6495 -0.909426 72 41 121 255 
-9.41695 -17.8396 -1.11016 72 35 116 255 
-9.48703 -17.9262 -1.30801 70 11 94 255 
-11.9457 -22.7071 -1.86166 70 10 93 255 
-9.27373 -17.5827 -1.62732 72 36 117 255 
-8.66382 -16.392 -1.69387 71 14 97 255 
-7.7242 -14.5953 -1.6657 71 16 99 255 
-6.82533 -12.9576 -1.59616 71 17 100 255 
-6.07048 -11.5046 -1.54189 72 28 110 255 
-5.52671 -10.4522 -1.51461 72 31 112 255 
-5.09783 -9.62451 -1.49966 72 24 106 255 
-4.71394 -8.93786 -1.47593 72 37 118 255 
-4.38272 -8.29899 -1.45961 68 59 132 255 
-4.08022 -7.71329 -1.43989 60 79 138 255 
-3.84347 -7.25633 -1.43607 60 79 138 255 
-3.60483 -6.82341 -1.41635 57 85 140 255 
-3.41116 -6.45108 -1.4079 58 84 140 255 
-3.23345 -6.11255 -1.40312 52 96 141 255 
-3.06754 -5.79384 -1.39706 60 79 138 255 
-2.91008 -5.50138 -1.38089 58 83 139 255 
-2.76697 -5.22839 -1.37003 59 82 139 255 
-2.65422 -5.01334 -1.3713 56 88 140 255 
-2.54537 -4.81165 -1.37336 59 81 139 255 
-2.4274 -4.57925 -1.35486 60 80 139 255 
-2.34965 -4.43235 -1.36111 58 83 139 255 
-2.24351 -4.2358 -1.35094 62 74 137 255 
-2.16106 -4.0886 -1.35495 62 74 137 255 
-0 -0 0 68 2 86 255 
-0 -0 0 68 2 86 255 
-0 -0 0 68 2 86 255 
-0 -0 0 68 2 86 255 
-0 -0 0 68 2 86 255 
-0 -0 0 68 2 86 255 
-0 -0 0 68 2 86 255 
-0 -0 0 68 2 86 255 
-27.7279 -52.1277 13.0248 71 13 96 255 
-27.7618 -52.1678 12.4209 70 11 94 255 
-27.7322 -52.0476 11.8165 70 10 93 255 
-27.79 -52.11 11.2657 70 11 94 255 
-10.3574 -19.4716 4.02396 72 23 105 255 
-12.925 -24.2774 4.74575 71 16 99 255 
-10.1977 -19.1229 3.52564 72 32 113 255 
-9.59577 -17.9557 3.12263 72 33 115 255 
-9.60294 -18.0457 2.96755 72 35 116 255 
-9.42306 -17.6922 2.71377 72 32 113 255 
-9.3479 -17.5072 2.49665 71 47 125 255 
-9.44331 -17.6556 2.33438 69 53 129 255 
-9.38503 -17.6362 2.16676 69 56 130 255 
-9.36068 -17.5529 1.96804 72 33 115 255 
-9.34777 -17.4997 1.77415 69 55 129 255 
-9.40806 -17.5676 1.59638 72 29 111 255 
-9.38348 -17.6259 1.44183 70 52 128 255 
-8.83006 -16.551 1.17694 72 40 120 255 
-8.59023 -16.0612 0.970503 69 56 130 255 
-8.58859 -16.024 0.796959 67 61 132 255 
-8.8826 -16.671 0.679452 71 42 122 255 
-14.6943 -27.5197 0.82782 72 20 103 255 
-14.7343 -27.5373 0.534242 72 22 104 255 
-14.7865 -27.5645 0.245678 72 40 120 255 
-14.709 -27.5945 -0.00545764 72 29 111 255 
-14.7272 -27.5582 -0.299955 72 35 116 255 
-14.7571 -27.5569 -0.589296 72 33 115 255 
-9.40225 -17.5127 -0.56216 70 50 126 255 
-9.31995 -17.4625 -0.718893 70 48 126 255 
-9.33191 -17.4476 -0.901958 69 55 129 255 
-9.54556 -17.8175 -1.11241 72 29 111 255 
-9.59401 -17.8624 -1.30763 72 37 118 255 
-9.54661 -17.8797 -1.47066 72 32 113 255 
-9.36827 -17.5009 -1.62504 72 40 120 255 
-8.79531 -16.3965 -1.69987 72 23 105 255 
-7.79996 -14.5222 -1.66279 71 14 97 255 
-6.88362 -12.876 -1.59128 71 19 101 255 
-6.14986 -11.4838 -1.54413 71 45 123 255 
-5.60668 -10.4478 -1.51893 72 23 105 255 
-5.16664 -9.61137 -1.50253 72 26 108 255 
-4.75001 -8.87387 -1.47015 72 24 106 255 
-4.43917 -8.28239 -1.46146 68 58 131 255 
-4.1326 -7.69767 -1.44168 59 82 139 255 
-3.88979 -7.23608 -1.43676 61 78 138 255 
-3.65221 -6.81156 -1.41852 59 82 139 255 
-3.45021 -6.42916 -1.40772 58 84 140 255 
-3.26996 -6.09086 -1.40272 58 84 140 255 
-3.11831 -5.80334 -1.40394 59 81 139 255 
-2.95163 -5.49805 -1.38457 57 85 140 255 
-2.79761 -5.20874 -1.36936 59 82 139 255 
-2.67757 -4.98326 -1.36754 58 83 139 255 
-2.57485 -4.79594 -1.37336 62 76 138 255 
-2.46508 -4.58216 -1.36017 56 88 140 255 
-2.37269 -4.4102 -1.35875 57 85 140 255 
-2.28177 -4.24485 -1.35826 61 77 138 255 
-2.18928 -4.08119 -1.35692 63 72 137 255 
-0 -0 0 68 2 86 255 
-0 -0 0 68 2 86 255 
-0 -0 0 69 4 87 255 
-0 -0 0 68 2 86 255 
-0 -0 0 68 2 86 255 
-0 -0 0 68 2 86 255 
-0 -0 0 68 2 86 255 
-0 -0 0 68 2 86 255 
-28.0463 -51.9548 13.0243 70 11 94 255 
-27.9823 -51.813 12.3771 70 10 93 255 
-28.0539 -51.8817 11.8176 71 16 99 255 
-28.1101 -51.9403 11.2661 71 14 97 255 
-13.0861 -24.2417 5.02623 72 23 105 255 
-13.1838 -24.4014 4.78571 72 24 106 255 
-13.134 -24.2692 4.48922 72 24 106 255 
-12.5684 -23.175 4.04363 72 33 115 255 
-12.5317 -23.2049 3.82854 72 41 121 255 
-9.34767 -17.294 2.66145 71 45 123 255 
-9.46413 -17.4661 2.49902 71 47 125 255 
-9.82391 -18.0993 2.40096 72 29 111 255 
-9.47511 -17.545 2.16266 71 47 125 255 
-9.48052 -17.5179 1.9706 69 53 129 255 
-9.64294 -17.7887 1.80942 72 40 120 255 
-9.67512 -17.8029 1.62313 72 33 115 255 
-9.62468 -17.8146 1.46207 69 53 129 255 
-9.22321 -17.0354 1.21538 71 42 122 255 
-8.79056 -16.1961 0.981889 70 50 126 255 
-8.68914 -15.9754 0.797178 70 50 126 255 
-8.95526 -16.5617 0.677223 71 47 125 255 
-8.8559 -16.3433 0.493249 69 53 129 255 
-9.15572 -16.8618 0.328214 71 19 101 255 
-15.0127 -27.5786 0.24662 72 36 117 255 
-14.9194 -27.5803 -0.00547283 72 37 118 255 
-14.9447 -27.557 -0.300934 72 35 116 255 
-14.9646 -27.5369 -0.590823 72 31 112 255 
-9.57122 -17.5679 -0.565807 72 41 121 255 
-9.43644 -17.4226 -0.719618 71 42 122 255 
-9.44308 -17.3979 -0.902368 70 52 128 255 
-9.64613 -17.7428 -1.11142 72 20 103 255 
-9.68003 -17.7603 -1.30448 72 28 110 255 
-9.66469 -17.8366 -1.47196 72 22 104 255 
-9.46739 -17.4282 -1.62365 72 40 120 255 
-8.88623 -16.3247 -1.69805 72 20 103 255 
-7.83226 -14.3701 -1.65085 71 14 97 255 
-6.95823 -12.8257 -1.59031 72 22 104 255 
-6.21879 -11.4432 -1.54378 70 48 126 255 
-5.68254 -10.435 -1.52211 72 24 106 255 
-5.19041 -9.51513 -1.49243 72 23 105 255 
-4.82232 -8.8776 -1.47564 72 36 117 255 
-4.49698 -8.26802 -1.46376 67 62 133 255 
-4.19911 -7.7077 -1.44835 58 83 139 255 
-3.93836 -7.21986 -1.43831 61 78 138 255 
-3.69393 -6.78902 -1.41852 57 86 140 255 
-3.49147 -6.41132 -1.40847 56 88 140 255 
-3.30774 -6.07155 -1.40292 54 93 141 255 
-3.15714 -5.79011 -1.4054 57 86 140 255 
-2.98157 -5.47297 -1.38284 57 86 140 255 
-2.83278 -5.19747 -1.37094 58 83 139 255 
-2.70996 -4.97015 -1.36848 56 88 140 255 
-2.60145 -4.77494 -1.37189 62 76 138 255 
-2.49964 -4.57884 -1.36371 56 89 140 255 
-2.4034 -4.40234 -1.36085 59 81 139 255 
-2.29809 -4.21302 -1.35256 59 81 139 255 
-2.21107 -4.06178 -1.35495 61 77 138 255 
-0 -0 0 68 2 86 255 
-0 -0 0 68 2 86 255 
-0 -0 0 68 2 86 255 
-0 -0 0 68 2 86 255 
-0 -0 0 68 2 86 255 
-0 -0 0 68 2 86 255 
-0 -0 0 68 2 86 255 
-0 -0 0 68 2 86 255 
-28.3617 -51.7766 13.023 71 13 96 255 
-28.3716 -51.7717 12.4086 71 13 96 255 
-28.3778 -51.7197 11.8202 71 14 97 255 
-28.3413 -51.6084 11.2316 70 11 94 255 
-13.1377 -23.984 4.98944 72 37 118 255 
-13.2006 -24.0781 4.7381 72 33 115 255 
-13.1914 -24.0221 4.4584 72 22 104 255 
-12.6399 -22.9692 4.02119 72 28 110 255 
-9.65722 -17.6228 2.91727 72 36 117 255 
-9.62135 -17.5422 2.70867 70 50 126 255 
-9.48651 -17.2538 2.47693 70 51 127 255 
-9.49011 -17.2312 2.2935 69 53 129 255 
-9.57351 -17.47 2.16061 71 47 125 255 
-9.47813 -17.2596 1.94806 68 58 131 255 
-9.82104 -17.8549 1.82225 72 40 120 255 
-9.81787 -17.8043 1.62872 72 35 116 255 
-9.28118 -16.9296 1.39409 69 55 129 255 
-9.55967 -17.4009 1.24563 66 63 133 255 
-9.74242 -17.69 1.07607 72 28 110 255 
-8.85506 -16.0451 0.803353 72 37 118 255 
-9.13074 -16.6414 0.682759 72 40 120 255 
-9.00177 -16.3719 0.495769 69 55 129 255 
-9.27107 -16.8272 0.328642 70 48 126 255 
-15.2019 -27.5228 0.24695 72 29 111 255 
-15.1163 -27.5391 -0.00548295 72 35 116 255 
-15.1347 -27.5033 -0.301356 72 33 115 255 
-15.1647 -27.5015 -0.592048 72 33 115 255 
-9.69334 -17.5351 -0.566655 71 44 122 255 
-9.57397 -17.4204 -0.721941 68 57 131 255 
-9.54387 -17.3292 -0.901821 66 63 133 255 
-9.66993 -17.5294 -1.10175 71 46 124 255 
-15.2022 -27.4892 -2.02587 72 23 105 255 
-12.4034 -22.5594 -1.86796 70 11 94 255 
-9.61553 -17.4448 -1.63067 72 38 119 255 
-8.99249 -16.2812 -1.69924 72 27 109 255 
-7.92558 -14.3314 -1.65195 72 20 103 255 
-7.04494 -12.7975 -1.59215 71 16 99 255 
-6.30902 -11.4413 -1.54872 71 47 125 255 
-5.78244 -10.465 -1.53164 72 24 106 255 
-5.29331 -9.56371 -1.50512 72 24 106 255 
-4.89485 -8.88078 -1.48113 72 33 115 255 
-4.55384 -8.25152 -1.46576 68 59 132 255 
-4.24919 -7.68697 -1.44933 62 76 138 255 
-3.98402 -7.19814 -1.43882 61 78 138 255 
-3.74931 -6.7912 -1.42375 52 96 141 255 
-3.53407 -6.39579 -1.4098 59 82 139 255 
-3.34825 -6.05714 -1.40431 56 88 140 255 
-3.18835 -5.76293 -1.40353 59 82 139 255 
-3.0236 -5.46995 -1.38674 56 89 140 255 
-2.86321 -5.17743 -1.37026 58 83 139 255 
-2.73899 -4.95087 -1.36777 58 83 139 255 
-2.62929 -4.75634 -1.37115 63 71 136 255 
-2.52956 -4.5668 -1.36472 54 92 141 255 
-2.43504 -4.39595 -1.36346 62 76 138 255 
-2.31597 -4.18452 -1.34795 60 79 138 255 
-2.23966 -4.05485 -1.3572 61 78 138 255 
-0 -0 0 68 2 86 255 
-0 -0 0 68 2 86 255 
-0 -0 0 69 4 87 255 
-0 -0 0 68 2 86 255 
-0 -0 0 68 2 86 255 
-0 -0 0 68 2 86 255 
-0 -0 0 68 2 86 255 
-0 -0 0 68 2 86 255 
-28.6879 -51.6179 13.0271 70 11 94 255 
-28.6802 -51.5812 12.4049 70 11 94 255 
-28.6927 -51.5412 11.8194 70 11 94 255 
-28.6594 -51.4369 11.2324 71 14 97 255 
-13.3406 -24.0036 5.01044 72 28 110 255 
-13.3524 -24.0044 4.73963 72 35 116 255 
-13.341 -23.945 4.4592 72 22 104 255 
-9.71312 -17.3971 3.05607 72 32 113 255 
-9.74545 -17.5277 2.91138 72 38 119 255 
-9.71001 -17.4491 2.70344 69 56 130 255 
-9.79762 -17.5636 2.52997 70 51 127 255 
-9.60002 -17.1805 2.29454 71 46 124 255 
-9.71338 -17.47 2.16795 71 45 123 255 
-9.98296 -17.9175 2.02918 71 44 122 255 
-9.8343 -17.6221 1.80461 72 38 119 255 
-9.79115 -17.501 1.60644 70 48 126 255 
-9.50512 -17.0884 1.41195 72 40 120 255 
-9.60212 -17.2269 1.23736 67 61 132 255 
-9.5863 -17.1566 1.04717 72 31 112 255 
-9.00411 -16.0811 0.807907 72 35 116 255 
-9.27788 -16.6662 0.686102 71 45 123 255 
-9.39037 -16.8332 0.511472 69 56 130 255 
-15.366 -27.4892 0.538706 71 19 101 255 
-15.4028 -27.4865 0.247469 72 24 106 255 
-15.3108 -27.4921 -0.0054922 72 32 113 255 
-15.3539 -27.5008 -0.302354 72 29 111 255 
-15.3507 -27.4394 -0.592727 72 31 112 255 
-9.83106 -17.5294 -0.568408 70 48 126 255 
-9.71523 -17.4233 -0.724518 70 48 126 255 
-9.66708 -17.3008 -0.903415 70 51 127 255 
-9.76755 -17.4523 -1.10065 71 47 125 255 
-15.3784 -27.4093 -2.0269 72 27 109 255 
-12.5455 -22.4898 -1.86854 70 10 93 255 
-9.79292 -17.5117 -1.6425 72 32 113 255 
-9.0854 -16.2136 -1.69796 72 27 109 255 
-8.03235 -14.3163 -1.65587 72 28 110 255 
-7.13982 -12.7836 -1.59583 71 17 100 255 
-6.3825 -11.4085 -1.54954 72 35 116 255 
-5.84946 -10.4345 -1.5324 72 22 104 255 
-5.36839 -9.56042 -1.50976 72 24 106 255 
-4.9338 -8.82294 -1.47651 72 40 120 255 
-4.60438 -8.22342 -1.46576 68 59 132 255 
-4.29193 -7.653 -1.44786 59 81 139 255 
-4.02811 -7.17356 -1.43882 62 76 138 255 
-3.78658 -6.76034 -1.42213 55 91 141 255 
-3.57997 -6.38598 -1.41245 56 88 140 255 
-3.38727 -6.0399 -1.40511 58 84 140 255 
-3.21838 -5.73387 -1.40123 61 77 138 255 
-3.05281 -5.44364 -1.38479 57 86 140 255 
-2.89397 -5.15806 -1.36981 56 88 140 255 
-2.78169 -4.95601 -1.37388 58 84 140 255 
-2.65985 -4.74266 -1.37189 59 81 139 255 
-2.55896 -4.55372 -1.36548 55 90 140 255 
-2.46528 -4.38682 -1.3653 57 86 140 255 
-2.34915 -4.18366 -1.35229 60 79 138 255 
-2.26262 -4.03769 -1.35608 59 82 139 255 
-0 -0 0 68 2 86 255 
-0 -0 0 68 2 86 255 
-0 -0 0 68 2 86 255 
-0 -0 0 68 2 86 255 
-0 -0 0 68 2 86 255 
-0 -0 0 68 2 86 255 
-0 -0 0 68 2 86 255 
-0 -0 0 69 4 87 255 
-28.983 -51.4034 13.0177 70 8 92 255 
-28.9861 -51.3863 12.4005 70 8 92 255 
-29.0099 -51.3667 11.82 71 14 97 255 
-29.045 -51.385 11.2597 71 13 96 255 
-13.4345 -23.827 4.99069 72 31 112 255 
-13.6021 -24.1039 4.77567 72 28 110 255 
-13.5314 -23.94 4.47365 72 27 109 255 
-9.78656 -17.2787 3.04576 71 14 97 255 
-10.0619 -17.8382 2.97315 72 20 103 255 
-9.76964 -17.3055 2.69043 70 51 127 255 
-10.2365 -18.0886 2.6146 71 45 123 255 
-9.7126 -17.1342 2.29628 70 48 126 255 
-9.93321 -17.6101 2.19285 71 42 122 255 
-10.0785 -17.8308 2.02633 71 45 123 255 
-10.0006 -17.6646 1.81521 71 42 122 255 
-9.89047 -17.4268 1.60516 69 53 129 255 
-9.84949 -17.4546 1.44716 68 58 131 255 
-9.75923 -17.2589 1.24394 67 61 132 255 
-9.62885 -16.9871 1.04042 72 41 121 255 
-9.83386 -17.313 0.87281 72 29 111 255 
-9.57311 -16.951 0.700229 69 55 129 255 
-9.50726 -16.7996 0.512215 69 53 129 255 
-9.56121 -16.8609 0.331566 68 58 131 255 
-9.48433 -16.6841 0.150732 72 38 119 255 
-15.5279 -27.4838 -0.00550948 72 33 115 255 
-15.5386 -27.4347 -0.302671 72 32 113 255 
-15.581 -27.4542 -0.595102 72 29 111 255 
-10.016 -17.6051 -0.572846 72 36 117 255 
-9.82097 -17.3616 -0.724446 69 53 129 255 
-9.83611 -17.3524 -0.909244 69 55 129 255 
-9.89417 -17.4268 -1.10285 72 26 108 255 
-15.5966 -27.4029 -2.03346 72 29 111 255 
-12.697 -22.4367 -1.87056 70 8 92 255 
-9.91052 -17.4694 -1.64421 72 26 108 255 
-9.19948 -16.1835 -1.70069 72 24 106 255 
-8.12349 -14.2728 -1.65657 72 22 104 255 
-7.224 -12.7499 -1.59713 71 19 101 255 
-6.45532 -11.3743 -1.55025 72 27 109 255 
-5.91288 -10.3976 -1.53227 72 24 106 255 
-5.43528 -9.54194 -1.51207 72 27 109 255 
-4.99712 -8.80885 -1.47925 71 45 123 255 
-4.67086 -8.22337 -1.47083 67 62 133 255 
-4.33344 -7.61709 -1.44607 61 78 138 255 
-4.07059 -7.14614 -1.43831 59 81 139 255 
-3.83188 -6.74382 -1.42357 56 88 140 255 
-3.61763 -6.36133 -1.41188 55 90 140 255 
-3.42524 -6.02071 -1.40551 57 86 140 255 
-3.25205 -5.71147 -1.40061 57 85 140 255 
-3.0876 -5.42735 -1.38544 54 92 141 255 
-2.92797 -5.14444 -1.37094 59 81 139 255 
-2.81108 -4.93716 -1.37341 58 83 139 255 
-2.68938 -4.72709 -1.37213 64 70 136 255 
-2.58398 -4.53289 -1.36396 55 90 140 255 
-2.49645 -4.37915 -1.36765 56 89 140 255 
-2.38668 -4.19008 -1.35908 60 80 139 255 
-2.28261 -4.01538 -1.35327 60 80 139 255 
-0 -0 0 68 2 86 255 
-0 -0 0 68 2 86 255 
-0 -0 0 68 2 86 255 
-0 -0 0 68 2 86 255 
-0 -0 0 68 2 86 255 
-0 -0 0 68 2 86 255 
-0 -0 0 68 2 86 255 
-0 -0 0 68 2 86 255 
-29.2813 -51.1958 13.0103 71 14 97 255 
-29.3256 -51.2508 12.411 71 13 96 255 
-29.3382 -51.2116 11.8255 71 13 96 255 
-29.3397 -51.1708 11.2521 71 16 99 255 
-13.7333 -24.0114 5.04687 71 14 97 255 
-13.6303 -23.8113 4.73418 72 23 105 255 
-13.6692 -23.8411 4.47076 72 20 103 255 
-13.9483 -24.278 4.29454 69 5 89 255 
-13.6036 -23.7751 3.97651 72 22 104 255 
-9.8589 -17.2159 2.68587 71 45 123 255 
-9.82669 -17.1185 2.48304 71 47 125 255 
-9.76755 -16.9873 2.28458 72 37 118 255 
-10.0514 -17.567 2.19512 68 57 131 255 
-9.98528 -17.4155 1.98606 69 53 129 255 
-10.1763 -17.7203 1.82732 71 45 123 255 
-10.0032 -17.3761 1.60612 70 51 127 255 
-9.9341 -17.3549 1.44392 69 55 129 255 
-9.93446 -17.3199 1.2527 70 51 127 255 
-9.85236 -17.1355 1.05319 69 55 129 255 
-10.0242 -17.3986 0.880211 72 27 109 255 
-9.66551 -16.872 0.699402 69 55 129 255 
-9.68034 -16.8632 0.515955 67 61 132 255 
-9.6924 -16.8505 0.332524 72 36 117 255 
-15.8528 -27.493 0.249259 72 33 115 255 
-15.7221 -27.4331 -0.00551856 72 40 120 255 
-15.7525 -27.4186 -0.303554 72 32 113 255 
-15.7895 -27.4283 -0.596628 72 33 115 255 
-15.8131 -27.402 -0.894763 72 29 111 255 
-10.1004 -17.6027 -0.737076 72 38 119 255 
-9.98024 -17.3575 -0.912705 70 48 126 255 
-15.7683 -27.3803 -1.73884 72 26 108 255 
-15.8044 -27.3758 -2.03861 72 23 105 255 
-12.9432 -22.5478 -1.88641 70 8 92 255 
-10.1562 -17.6493 -1.66698 71 16 99 255 
-9.31751 -16.1595 -1.70415 72 22 104 255 
-8.26812 -14.3218 -1.66811 72 22 104 255 
-7.30457 -12.7096 -1.59768 71 19 101 255 
-6.52153 -11.3284 -1.54943 72 24 106 255 
-5.97012 -10.3499 -1.53062 72 27 109 255 
-5.4967 -9.51355 -1.51289 72 20 103 255 
-5.06933 -8.80976 -1.4846 72 38 119 255 
-4.72419 -8.19969 -1.47175 66 63 133 255 
-4.387 -7.60232 -1.44835 58 83 139 255 
-4.1114 -7.11592 -1.43727 60 80 139 255 
-3.88743 -6.7449 -1.42881 56 88 140 255 
-3.64286 -6.3152 -1.40658 56 88 140 255 
-3.45918 -5.99448 -1.40431 56 89 140 255 
-3.29633 -5.7075 -1.40457 62 76 138 255 
-3.12084 -5.4083 -1.38544 55 90 140 255 
-2.96289 -5.13229 -1.37251 56 89 140 255 
-2.83695 -4.91225 -1.3713 55 90 140 255 
-2.71009 -4.69622 -1.36797 63 72 137 255 
-2.62385 -4.53789 -1.37029 54 93 141 255 
-2.5141 -4.34788 -1.36268 58 83 139 255 
-2.42101 -4.19036 -1.36396 59 82 139 255 
-2.29666 -3.98301 -1.34708 62 74 137 255 
-0 -0 0 68 2 86 255 
-0 -0 0 68 2 86 255 
-0 -0 0 68 2 86 255 
-0 -0 0 68 2 86 255 
-0 -0 0 68 2 86 255 
-0 -0 0 68 2 86 255 
-0 -0 0 69 4 87 255 
-0 -0 0 68 2 86 255 
-29.5964 -51.0177 13.011 71 13 96 255 
-29.6233 -51.042 12.4042 71 14 97 255 
-29.6538 -51.034 11.8263 71 16 99 255 
-29.6122 -50.9194 11.2365 71 13 96 255 
-29.603 -51.0291 10.7636 71 13 96 255 
-29.6057 -50.9912 10.174 70 11 94 255 
-13.0183 -22.3865 4.21288 72 40 120 255 
-26.1935 -44.9507 7.97962 70 7 90 255 
-12.8735 -22.1822 3.72323 72 27 109 255 
-10.474 -18.0326 2.82325 72 40 120 255 
-10.4118 -17.8827 2.60312 71 42 122 255 
-10.7873 -18.4973 2.4965 72 38 119 255 
-9.98739 -17.2092 2.15803 71 44 122 255 
-10.0805 -17.3341 1.98379 67 61 132 255 
-10.2432 -17.5861 1.81993 71 42 122 255 
-10.095 -17.2895 1.60381 72 36 117 255 
-9.9112 -17.071 1.42534 70 52 128 255 
-10.296 -17.6977 1.28457 72 37 118 255 
-10.1123 -17.3404 1.06958 72 29 111 255 
-10.9261 -18.6979 0.949317 72 28 110 255 
-10.0997 -17.3818 0.72309 72 36 117 255 
-9.79368 -16.8207 0.516486 68 58 131 255 
-9.77546 -16.7561 0.33184 71 19 101 255 
-16.0258 -27.4029 0.24933 72 35 116 255 
-15.9042 -27.3604 -0.00552344 72 29 111 255 
-16.0095 -27.4744 -0.305253 72 29 111 255 
-15.9978 -27.4 -0.598136 72 33 115 255 
-16.044 -27.4123 -0.898297 72 27 109 255 
-15.9512 -27.4083 -1.15175 71 19 101 255 
-10.163 -17.4271 -0.919627 71 17 100 255 
-16.013 -27.415 -1.74725 71 17 100 255 
-16.0341 -27.3842 -2.04652 72 22 104 255 
-13.0923 -22.4869 -1.888 70 10 93 255 
-10.4401 -17.8879 -1.69553 71 16 99 255 
-9.4386 -16.1399 -1.70815 72 24 106 255 
-8.35936 -14.2768 -1.66881 72 23 105 255 
-7.40845 -12.7092 -1.60331 72 20 103 255 
-6.60744 -11.3165 -1.55331 72 23 105 255 
-6.03752 -10.3199 -1.53164 72 22 104 255 
-5.53243 -9.44118 -1.50675 72 23 105 255 
-5.14474 -8.81523 -1.49082 71 47 125 255 
-4.7774 -8.17567 -1.47267 68 58 131 255 
-4.43356 -7.57526 -1.44835 58 84 140 255 
-4.15648 -7.0931 -1.43779 59 81 139 255 
-3.92775 -6.71922 -1.42845 57 86 140 255 
-3.68104 -6.29188 -1.40639 55 91 141 255 
-3.4959 -5.97315 -1.40431 59 82 139 255 
-3.33277 -5.6897 -1.40519 57 86 140 255 
-3.17024 -5.41685 -1.39259 54 93 141 255 
-2.98842 -5.10392 -1.36981 58 84 140 255 
-2.86704 -4.89475 -1.3713 57 85 140 255 
-2.732 -4.66779 -1.36455 63 71 136 255 
-2.6585 -4.53339 -1.37383 52 96 141 255 
-2.54073 -4.33237 -1.36268 57 86 140 255 
-2.4423 -4.16795 -1.36152 60 80 139 255 
-2.33801 -3.99784 -1.35692 61 78 138 255 
-0 -0 0 68 2 86 255 
-0 -0 0 68 2 86 255 
-0 -0 0 69 4 87 255 
-0 -0 0 68 2 86 255 
-0 -0 0 68 2 86 255 
-0 -0 0 68 2 86 255 
-0 -0 0 68 2 86 255 
-0 -0 0 68 2 86 255 
-29.9208 -50.8554 13.0161 70 11 94 255 
-29.9568 -50.8947 12.4129 70 8 92 255 
-29.9534 -50.8291 11.8212 71 13 96 255 
-29.9525 -50.7849 11.2472 71 14 97 255 
-29.8771 -50.7812 10.7498 71 13 96 255 
-29.9435 -50.8519 10.1827 69 5 89 255 
-13.0918 -22.1982 4.19249 68 57 131 255 
-26.4738 -44.7976 7.98114 70 8 92 255 
-12.9406 -21.9859 3.70355 69 53 129 255 
-10.5995 -17.9936 2.82727 72 40 120 255 
-10.6888 -18.1021 2.64455 72 38 119 255 
-10.7762 -18.2204 2.46801 72 37 118 255 
-10.4473 -17.7499 2.23383 72 31 112 255 
-10.2195 -17.3277 1.99019 66 65 134 255 
-10.2582 -17.366 1.80363 71 42 122 255 
-10.1766 -17.186 1.59997 72 37 118 255 
-10.0223 -17.0211 1.42628 68 58 131 255 
-10.8299 -18.3553 1.33711 72 27 109 255 
-10.3664 -17.5281 1.08506 69 56 130 255 
-10.6001 -17.8871 0.911436 72 38 119 255 
-10.0489 -17.0526 0.711947 72 36 117 255 
-9.92975 -16.8163 0.51821 66 63 133 255 
-9.89896 -16.7311 0.332541 68 58 131 255 
-16.2125 -27.3359 0.249621 72 31 112 255 
-16.1733 -27.4346 -0.00555835 72 29 111 255 
-16.1869 -27.3911 -0.305426 72 35 116 255 
-16.2105 -27.377 -0.599795 72 31 112 255 
-16.238 -27.3571 -0.899739 72 28 110 255 
-16.142 -27.3486 -1.15338 72 22 104 255 
-16.1988 -27.3893 -1.45055 72 32 113 255 
-16.2079 -27.3617 -1.75016 72 28 110 255 
-16.2293 -27.3317 -2.05 72 26 108 255 
-13.2305 -22.407 -1.88808 70 10 93 255 
-11.0954 -18.7456 -1.78324 71 16 99 255 
-9.54609 -16.0962 -1.7097 72 22 104 255 
-8.44376 -14.2201 -1.66821 71 17 100 255 
-7.49035 -12.6704 -1.60418 71 19 101 255 
-6.63121 -11.1989 -1.54272 72 23 105 255 
-6.09719 -10.2767 -1.53075 72 38 119 255 
-5.60241 -9.4275 -1.51003 72 33 115 255 
-5.20075 -8.78691 -1.49139 68 57 131 255 
-4.83201 -8.15385 -1.47406 69 56 130 255 
-4.47795 -7.54452 -1.4477 59 82 139 255 
-4.20899 -7.08271 -1.44089 58 83 139 255 
-3.97141 -6.69922 -1.42935 57 86 140 255 
-3.72259 -6.27424 -1.40753 56 88 140 255 
-3.52198 -5.93388 -1.40014 59 81 139 255 
-3.36112 -5.65821 -1.40248 58 84 140 255 
-3.20342 -5.3973 -1.39259 52 97 141 255 
-3.02515 -5.0947 -1.37229 58 84 140 255 
-2.899 -4.8804 -1.37224 57 86 140 255 
-2.77049 -4.66762 -1.36944 61 78 138 255 
-2.66549 -4.48207 -1.36321 55 90 140 255 
-2.56825 -4.31836 -1.3632 57 85 140 255 
-2.45799 -4.13634 -1.35609 62 76 138 255 
-2.35026 -3.96278 -1.34989 62 76 138 255 
-0 -0 0 68 2 86 255 
-0 -0 0 68 2 86 255 
-0 -0 0 69 4 87 255 
-0 -0 0 68 2 86 255 
-0 -0 0 68 2 86 255 
-0 -0 0 68 2 86 255 
-0 -0 0 68 2 86 255 
-0 -0 0 68 2 86 255 
-30.2152 -50.6423 13.0088 70 10 93 255 
-30.252 -50.6822 12.4061 70 10 93 255 
-30.2567 -50.6309 11.818 70 11 94 255 
-30.2807 -50.6289 11.2536 70 11 94 255 
-27.0046 -45.2611 9.61613 69 5 89 255 
-27.1833 -45.523 9.14887 70 10 93 255 
-13.1213 -21.9396 4.15877 72 32 113 255 
-13.0174 -21.722 3.88414 70 8 92 255 
