ply
format ascii 1.0
comment VTK generated PLY File
obj_info vtkPolyData points and polygons: vtk4.0
element vertex 1140
property float x
property float y
property float z
property uchar red
property uchar green
property uchar blue
property uchar alpha
element face 0
property list uchar int vertex_indices
end_header
-15.5607 -0.733006 -1.57136 72 20 103 255 
-13.9724 -0.685362 -1.52465 72 28 110 255 
-12.6258 -0.61027 -1.49834 72 36 117 255 
-11.5277 -0.547216 -1.4784 72 37 118 255 
-10.5706 -0.494249 -1.4571 72 38 119 255 
-9.8053 -0.475824 -1.43387 69 56 130 255 
-9.11185 -0.437237 -1.41873 64 69 136 255 
-8.5221 -0.40305 -1.40781 64 70 136 255 
-7.96134 -0.372248 -1.39386 66 64 134 255 
-7.55503 -0.361346 -1.38819 62 73 137 255 
-7.09797 -0.336875 -1.37096 64 69 136 255 
-6.77717 -0.320524 -1.37667 62 76 138 255 
-6.41669 -0.301146 -1.36893 68 59 132 255 
-6.12015 -0.289512 -1.35944 66 64 134 255 
-5.78722 -0.272642 -1.34183 67 62 133 255 
-5.51587 -0.258942 -1.33488 66 65 134 255 
-5.2572 -0.248566 -1.32785 64 70 136 255 
-5.09125 -0.236394 -1.33235 61 77 138 255 
-4.88398 -0.226673 -1.32654 66 65 134 255 
-4.70438 -0.220024 -1.32734 65 66 135 255 
-4.5235 -0.215456 -1.32684 69 55 129 255 
-18.5138 -0.820145 5.5669 72 27 109 255 
-18.5857 -0.83931 5.3805 72 22 104 255 
-18.5889 -0.84612 5.18498 72 22 104 255 
-18.5742 -0.845084 4.99252 71 19 101 255 
-18.6033 -0.833857 4.83331 72 22 104 255 
-18.5058 -0.83247 4.61182 70 52 128 255 
-18.5445 -0.831129 4.43263 71 16 99 255 
-18.5274 -0.82678 4.24756 71 13 96 255 
-18.5488 -0.834654 4.09594 71 16 99 255 
-18.5946 -0.833213 3.91226 71 14 97 255 
-18.4214 -0.815952 3.69462 58 83 139 255 
-18.3481 -0.805967 3.50347 61 77 138 255 
-18.3217 -0.824434 3.34621 60 80 139 255 
-18.3336 -0.818308 3.16661 60 80 139 255 
-18.3183 -0.804976 2.98291 60 80 139 255 
-18.3107 -0.788339 2.81108 62 74 137 255 
-18.3312 -0.821663 2.66384 58 84 140 255 
-18.3087 -0.813999 2.48114 60 80 139 255 
-18.3192 -0.795409 2.30668 60 80 139 255 
-18.2913 -0.781117 2.1345 63 72 137 255 
-18.2883 -0.819737 1.98551 61 77 138 255 
-18.292 -0.803659 1.81141 59 81 139 255 
-18.2839 -0.790679 1.63654 61 78 138 255 
-18.2971 -0.771779 1.46702 62 76 138 255 
-18.2792 -0.816135 1.3212 62 76 138 255 
-18.2706 -0.799524 1.14738 57 86 140 255 
-0 -0 0 68 2 86 255 
-18.3613 -0.768078 0.805586 60 80 139 255 
-33.6053 -1.48869 1.20994 70 10 93 255 
-33.6994 -1.46291 0.895063 70 7 90 255 
-33.6546 -1.43184 0.576213 69 5 89 255 
-35.9999 -1.49336 0.282992 69 4 87 255 
-0 -0 -0 68 2 86 255 
-36.6903 -1.57992 -0.352539 70 11 94 255 
-18.2775 -0.77123 -0.34487 71 47 125 255 
-18.2792 -0.75188 -0.517408 71 19 101 255 
-18.2995 -0.797873 -0.665249 71 19 101 255 
-18.2913 -0.781245 -0.834563 71 16 99 255 
-18.2652 -0.767519 -1.00608 71 17 100 255 
-18.2508 -0.747522 -1.17801 71 17 100 255 
-18.2249 -0.791435 -1.32361 71 44 122 255 
-17.7775 -0.753085 -1.45664 72 33 115 255 
-17.6632 -0.732958 -1.61508 72 32 113 255 
-15.5579 -0.637229 -1.57066 72 26 108 255 
-13.9584 -0.598849 -1.5227 72 29 111 255 
-12.6422 -0.533333 -1.49987 72 36 117 255 
-11.5398 -0.476841 -1.47954 72 41 121 255 
-10.5764 -0.4295 -1.45751 72 41 121 255 
-9.81001 -0.415735 -1.43416 70 52 128 255 
-9.11535 -0.381361 -1.41889 64 69 136 255 
-8.51061 -0.350184 -1.40553 63 72 137 255 
-7.9241 -0.321792 -1.38697 70 48 126 255 
-7.54826 -0.314614 -1.38657 61 77 138 255 
-7.1205 -0.294168 -1.37494 65 66 135 255 
-6.779 -0.278934 -1.37667 62 76 138 255 
-6.42331 -0.261967 -1.36997 66 64 134 255 
-6.08767 -0.250549 -1.35186 67 62 133 255 
-5.79268 -0.237287 -1.34273 63 71 136 255 
-5.51638 -0.225053 -1.33464 65 66 135 255 
-5.23829 -0.215467 -1.32272 66 65 134 255 
-5.10613 -0.205696 -1.33589 64 70 136 255 
-4.88721 -0.196779 -1.32707 64 69 136 255 
-4.70661 -0.191193 -1.32761 67 61 132 255 
-4.5046 -0.186861 -1.32093 69 53 129 255 
-18.5108 -0.706239 5.56459 72 26 108 255 
-18.5655 -0.724281 5.37327 72 23 105 255 
-18.5523 -0.730415 5.17344 72 24 106 255 
-18.5385 -0.729504 4.98163 72 22 104 255 
-18.5365 -0.716925 4.81472 72 28 110 255 
-18.4844 -0.717888 4.6053 66 65 134 255 
-18.5395 -0.716951 4.43031 71 14 97 255 
-18.5613 -0.714207 4.25425 71 13 96 255 
-18.5419 -0.72037 4.09336 71 13 96 255 
-18.4967 -0.715133 3.89066 71 13 96 255 
-18.4055 -0.702119 3.69049 60 79 138 255 
-18.3223 -0.692221 3.49766 63 71 136 255 
-18.3156 -0.711579 3.34424 59 81 139 255 
-18.3028 -0.704436 3.16049 60 79 138 255 
-18.313 -0.692189 2.98131 61 77 138 255 
-18.2945 -0.675206 2.80789 62 74 137 255 
-18.3033 -0.707907 2.6591 59 81 139 255 
-18.2985 -0.701074 2.47913 59 82 139 255 
-18.2871 -0.681622 2.30206 60 79 138 255 
-18.2829 -0.668397 2.13299 62 73 137 255 
-18.283 -0.707122 1.98443 63 71 136 255 
-18.2707 -0.690429 1.80885 59 81 139 255 
-18.2854 -0.678365 1.63627 61 77 138 255 
-18.2726 -0.658455 1.46471 63 72 137 255 
-18.2659 -0.703271 1.3199 61 78 138 255 
-18.2721 -0.68729 1.14719 54 92 141 255 
-0 -0 0 68 2 86 255 
-18.3826 -0.656006 0.806331 53 94 141 255 
-27.1427 -1.03557 0.977013 69 4 87 255 
-18.3248 -0.682868 0.486591 72 33 115 255 
-18.3212 -0.666887 0.313608 72 32 113 255 
-36.0044 -1.27229 0.28296 69 4 87 255 
-0 -0 -0 68 2 86 255 
-0 -0 -0 68 2 86 255 
-18.2859 -0.659211 -0.344945 69 56 130 255 
-18.2695 -0.639217 -0.517012 71 19 101 255 
-18.2861 -0.684901 -0.664595 71 17 100 255 
-18.2708 -0.668084 -0.833424 71 19 101 255 
-18.2746 -0.65561 -1.00636 71 16 99 255 
-18.2151 -0.634135 -1.17544 71 16 99 255 
-18.2025 -0.678592 -1.32165 71 47 125 255 
-17.7768 -0.643809 -1.45623 72 37 118 255 
-17.6484 -0.623896 -1.61335 72 24 106 255 
-15.5377 -0.540924 -1.56825 72 27 109 255 
-13.9519 -0.512826 -1.52162 72 32 113 255 
-12.6105 -0.4545 -1.49575 72 35 116 255 
-11.5018 -0.404596 -1.47433 71 42 122 255 
-10.562 -0.364017 -1.45519 72 40 120 255 
-9.78568 -0.354566 -1.43026 70 52 128 255 
-9.08987 -0.324436 -1.41458 64 69 136 255 
-8.52049 -0.298234 -1.40684 62 76 138 255 
-7.66898 -0.264309 -1.34201 71 44 122 255 
-7.51663 -0.267105 -1.38043 62 74 137 255 
-7.14082 -0.251127 -1.37854 60 80 139 255 
-6.78451 -0.237471 -1.37747 61 78 138 255 
-6.41795 -0.222313 -1.36851 65 68 135 255 
-6.07251 -0.21261 -1.34818 66 63 133 255 
-5.78916 -0.20157 -1.3416 64 69 136 255 
-5.50017 -0.190595 -1.33041 63 71 136 255 
-5.24726 -0.183592 -1.32467 65 68 135 255 
-5.09763 -0.174031 -1.33336 61 78 138 255 
-4.89893 -0.16715 -1.32995 66 65 134 255 
-4.68941 -0.16168 -1.32245 68 58 131 255 
-4.50662 -0.159251 -1.32121 70 52 128 255 
-18.5253 -0.592982 5.56776 72 23 105 255 
-18.5523 -0.609784 5.36827 72 22 104 255 
-18.5401 -0.616022 5.16888 72 23 105 255 
-18.5233 -0.615099 4.97644 72 24 106 255 
-18.5106 -0.602198 4.80693 72 23 105 255 
-18.4633 -0.603632 4.59902 61 78 138 255 
-18.5251 -0.60258 4.42589 71 13 96 255 
-18.5556 -0.599988 4.25202 70 11 94 255 
-18.5411 -0.606426 4.09228 71 13 96 255 
-18.5027 -0.601689 3.89107 70 11 94 255 
-18.3654 -0.587761 3.68165 61 77 138 255 
-18.3154 -0.579442 3.4956 63 72 137 255 
-18.3039 -0.598668 3.34137 61 77 138 255 
-18.2949 -0.591737 3.15845 61 78 138 255 
-18.2844 -0.578779 2.97601 61 78 138 255 
-18.2874 -0.562607 2.80622 60 79 138 255 
-18.2816 -0.59475 2.65537 58 83 139 255 
-18.2906 -0.588401 2.47752 58 83 139 255 
-18.2671 -0.568661 2.29907 60 79 138 255 
-18.2658 -0.555569 2.13056 64 70 136 255 
-18.2672 -0.59428 1.98227 61 77 138 255 
-18.2577 -0.577774 1.80717 61 77 138 255 
-18.2623 -0.565323 1.63387 61 78 138 255 
-18.2583 -0.545788 1.46327 63 71 136 255 
-18.2609 -0.59089 1.31926 61 77 138 255 
-18.266 -0.574847 1.14657 58 83 139 255 
-0 -0 0 68 2 86 255 
-18.3713 -0.542757 0.805674 55 91 141 255 
-27.1645 -0.869517 0.977588 69 4 87 255 
-18.3327 -0.57054 0.486697 71 47 125 255 
-18.3199 -0.554306 0.313522 71 42 122 255 
-0 -0 0 68 2 86 255 
-0 -0 -0 68 2 86 255 
-36.645 -1.12764 -0.351944 69 4 87 255 
-18.3026 -0.547387 -0.34519 66 65 134 255 
-18.2711 -0.527048 -0.516956 72 20 103 255 
-18.292 -0.572749 -0.664668 72 20 103 255 
-18.2746 -0.555964 -0.833424 72 22 104 255 
-18.2493 -0.542607 -1.00476 71 19 101 255 
-18.2147 -0.522243 -1.17518 71 17 100 255 
-18.1923 -0.566456 -1.32064 72 41 121 255 
-17.7287 -0.533163 -1.45199 72 40 120 255 
-17.6101 -0.514375 -1.60953 72 27 109 255 
-15.5139 -0.444807 -1.56554 72 27 109 255 
-13.9498 -0.427057 -1.52107 72 35 116 255 
-12.5892 -0.376403 -1.49293 72 40 120 255 
-11.4744 -0.333151 -1.47052 72 38 119 255 
-10.5759 -0.299539 -1.45683 72 37 118 255 
-9.77877 -0.294248 -1.42896 69 56 130 255 
-9.10157 -0.268947 -1.41612 67 61 132 255 
-8.50737 -0.24552 -1.40439 61 78 138 255 
-7.6744 -0.21736 -1.3427 71 45 123 255 
-7.50633 -0.220632 -1.37826 64 69 136 255 
-7.12161 -0.206709 -1.37456 56 88 140 255 
-6.78094 -0.195696 -1.37647 60 79 138 255 
-6.41626 -0.182845 -1.36789 66 63 133 255 
-6.08443 -0.175656 -1.35056 65 66 135 255 
-5.77276 -0.165541 -1.33754 66 65 134 255 
-5.5061 -0.156981 -1.33159 66 64 134 255 
-5.27155 -0.152063 -1.33055 63 72 137 255 
-5.06959 -0.141937 -1.32577 62 73 137 255 
-4.88829 -0.136763 -1.32681 65 68 135 255 
-4.69609 -0.133067 -1.32408 68 57 131 255 
-4.51231 -0.131736 -1.32262 70 51 127 255 
-18.5209 -0.479104 5.56546 71 19 101 255 
-18.5471 -0.495707 5.36577 72 20 103 255 
-18.4819 -0.500582 5.1517 72 22 104 255 
-18.5171 -0.501169 4.97385 72 22 104 255 
-18.5062 -0.488404 4.80492 72 24 106 255 
-18.4598 -0.490152 4.59733 56 89 140 255 
-18.511 -0.488439 4.42171 71 13 96 255 
-18.5229 -0.485177 4.24376 71 13 96 255 
-18.5347 -0.49239 4.09013 71 14 97 255 
-18.5129 -0.488328 3.89251 71 13 96 255 
-18.3304 -0.474073 3.67399 62 73 137 255 
-18.3019 -0.466625 3.49241 62 73 137 255 
-18.2954 -0.486033 3.33921 61 78 138 255 
-18.2854 -0.479134 3.15624 60 79 138 255 
-18.2876 -0.466578 2.97601 62 73 137 255 
-18.2786 -0.450095 2.80441 62 73 137 255 
-18.279 -0.482408 2.6545 57 85 140 255 
-18.2711 -0.475568 2.47443 59 81 139 255 
-18.2574 -0.456243 2.29745 60 80 139 255 
-18.249 -0.443 2.12825 63 72 137 255 
-18.2476 -0.48158 1.97979 60 80 139 255 
-18.2539 -0.465559 1.80648 58 84 140 255 
-18.2545 -0.452985 1.63289 60 80 139 255 
-18.2424 -0.433297 1.46175 61 78 138 255 
-18.2522 -0.478518 1.31839 60 79 138 255 
-18.2572 -0.462455 1.14582 57 85 140 255 
-27.2044 -0.660825 1.44995 72 23 105 255 
-18.3314 -0.429018 0.803791 52 97 141 255 
-27.1384 -0.702022 0.976474 69 4 87 255 
-18.3038 -0.457243 0.485848 72 36 117 255 
-18.302 -0.441381 0.313163 71 45 123 255 
-27.1919 -0.626903 0.213626 72 22 104 255 
-27.185 -0.698488 -0.00474625 71 14 97 255 
-27.1595 -0.66898 -0.2608 71 17 100 255 
-18.2626 -0.434053 -0.34438 64 70 136 255 
-18.266 -0.414747 -0.516729 72 20 103 255 
-18.2991 -0.460602 -0.664813 71 19 101 255 
-18.2796 -0.443871 -0.833515 72 20 103 255 
-18.2523 -0.430621 -1.00476 72 22 104 255 
-18.2265 -0.410672 -1.17576 72 22 104 255 
-18.1885 -0.454645 -1.32013 71 46 124 255 
-17.7196 -0.424086 -1.45101 72 38 119 255 
-7.57543 -0.174757 -0.692268 71 19 101 255 
-7.57065 -0.170579 -0.763853 72 28 110 255 
-13.9462 -0.341308 -1.52042 72 28 110 255 
-12.5396 -0.297923 -1.4868 72 38 119 255 
-7.60187 -0.174039 -0.974077 72 35 116 255 
-7.57069 -0.167939 -1.0427 72 32 113 255 
-9.75467 -0.233625 -1.4252 72 38 119 255 
-7.67856 -0.17975 -1.19452 71 47 125 255 
-7.67027 -0.174266 -1.26601 67 62 133 255 
-7.63422 -0.169349 -1.33546 69 53 129 255 
-7.539 -0.175302 -1.38404 63 71 136 255 
-7.11391 -0.162806 -1.37286 58 84 140 255 
-6.77515 -0.153929 -1.37508 58 83 139 255 
-6.42606 -0.143669 -1.36976 66 63 133 255 
-6.09613 -0.138563 -1.35295 65 66 135 255 
-5.78049 -0.130271 -1.33912 64 70 136 255 
-5.51862 -0.123454 -1.33441 66 63 133 255 
-5.26754 -0.119605 -1.32932 65 66 135 255 
-5.08874 -0.11123 -1.33058 62 74 137 255 
-4.88421 -0.106662 -1.3255 64 69 136 255 
-4.70837 -0.104506 -1.32734 68 59 132 255 
-4.51879 -0.104179 -1.32431 70 50 126 255 
-18.4785 -0.364565 5.55194 72 22 104 255 
-18.495 -0.380768 5.34994 72 20 103 255 
-18.5068 -0.387633 5.15787 72 22 104 255 
-18.4406 -0.385885 4.95258 72 22 104 255 
-18.4972 -0.374608 4.80191 72 23 105 255 
-18.4344 -0.376301 4.59032 54 92 141 255 
-18.4903 -0.374376 4.41614 71 14 97 255 
-18.4407 -0.369814 4.22434 70 11 94 255 
-18.4495 -0.376859 4.07074 70 10 93 255 
-18.4295 -0.372983 3.87441 71 13 96 255 
-18.3026 -0.360991 3.6679 59 81 139 255 
-18.2868 -0.353975 3.48904 62 73 137 255 
-18.2685 -0.373163 3.33383 60 80 139 255 
-18.2693 -0.366552 3.15301 60 80 139 255 
-18.2763 -0.354091 2.97376 58 83 139 255 
-18.2544 -0.337437 2.80031 60 80 139 255 
-18.2865 -0.370342 2.65522 58 83 139 255 
-18.2568 -0.363115 2.47215 61 78 138 255 
-18.2509 -0.344042 2.29632 60 79 138 255 
-18.2454 -0.33091 2.12755 62 74 137 255 
-18.2502 -0.369606 1.97979 63 72 137 255 
-18.2594 -0.353604 1.80678 58 83 139 255 
-18.2589 -0.341006 1.63306 60 80 139 255 
-18.2298 -0.321093 1.46055 60 79 138 255 
-18.2368 -0.366156 1.3171 60 80 139 255 
-18.2258 -0.349771 1.14369 56 88 140 255 
-27.2049 -0.493835 1.4498 72 31 112 255 
-18.3037 -0.316013 0.802477 53 94 141 255 
-7.57463 -0.149441 0.272507 72 26 108 255 
-26.9657 -0.508084 0.715669 70 7 90 255 
-27.0257 -0.485864 0.462373 70 7 90 255 
-27.1893 -0.459943 0.213579 72 23 105 255 
-27.1738 -0.531377 -0.00474363 72 27 109 255 
-27.1601 -0.502264 -0.260771 72 24 106 255 
-18.2809 -0.322269 -0.344681 68 58 131 255 
-18.2632 -0.302578 -0.516588 71 16 99 255 
-18.3006 -0.348293 -0.664777 72 20 103 255 
-18.284 -0.331737 -0.833607 72 23 105 255 
-18.2696 -0.31888 -1.00559 71 17 100 255 
-7.46449 -0.122368 -0.481463 72 31 112 255 
-7.50593 -0.141542 -0.544713 72 24 106 255 
-7.53061 -0.134003 -0.61658 69 55 129 255 
-7.55843 -0.127968 -0.690631 66 64 134 255 
-7.56559 -0.124025 -0.763251 65 66 135 255 
-7.54604 -0.138352 -0.822566 68 57 131 255 
-7.59266 -0.133782 -0.900134 66 64 134 255 
-7.59585 -0.127276 -0.973188 63 71 136 255 
-7.59733 -0.121897 -1.04624 64 69 136 255 
-7.63477 -0.135986 -1.11533 64 69 136 255 
-7.65581 -0.132222 -1.19083 63 71 136 255 
-7.63667 -0.126627 -1.26031 66 64 134 255 
-7.64595 -0.122677 -1.33736 64 69 136 255 
-7.53305 -0.128922 -1.38278 62 73 137 255 
-7.0922 -0.118774 -1.3685 62 74 137 255 
-6.76421 -0.11216 -1.37269 60 79 138 255 
-6.3926 -0.103682 -1.36247 68 57 131 255 
-6.09589 -0.101139 -1.35273 66 64 134 255 
-5.78702 -0.094896 -1.34048 62 73 137 255 
-5.51247 -0.0894799 -1.33276 67 62 133 255 
-5.25654 -0.0870886 -1.32639 62 73 137 255 
-5.07095 -0.0797146 -1.32577 62 73 137 255 
-4.90793 -0.0770542 -1.33178 63 71 136 255 
-4.70314 -0.0755218 -1.32571 68 59 132 255 
-4.52222 -0.0764994 -1.32515 66 63 133 255 
-18.4 -0.250082 5.52777 65 68 135 255 
-18.4163 -0.266111 5.3266 67 61 132 255 
-18.4298 -0.272901 5.13586 70 50 126 255 
-18.404 -0.272157 4.94221 71 42 122 255 
-18.4643 -0.260613 4.79287 69 56 130 255 
-18.4295 -0.263086 4.58863 52 96 141 255 
-18.4057 -0.259694 4.39547 72 38 119 255 
-18.4066 -0.256155 4.21608 72 31 112 255 
-18.4026 -0.26295 4.05997 72 29 111 255 
-18.3844 -0.259233 3.86454 72 27 109 255 
-18.2868 -0.248442 3.66436 62 74 137 255 
-18.2621 -0.241412 3.48398 65 68 135 255 
-18.2695 -0.261048 3.33365 62 74 137 255 
-18.2811 -0.254584 3.15471 60 80 139 255 
-18.2653 -0.241773 2.97167 62 76 138 255 
-18.2324 -0.225131 2.79667 62 73 137 255 
-18.2924 -0.258186 2.6558 58 84 140 255 
-18.2319 -0.250718 2.46853 59 81 139 255 
-18.2318 -0.231785 2.2937 60 79 138 255 
-18.2352 -0.218809 2.12616 63 72 137 255 
-18.2511 -0.257604 1.97968 65 68 135 255 
-18.2413 -0.241296 1.80481 60 80 139 255 
-18.2119 -0.228353 1.6287 62 73 137 255 
-18.2154 -0.209048 1.45928 61 78 138 255 
-18.1998 -0.253707 1.31429 62 73 137 255 
-18.2266 -0.23792 1.14362 55 91 141 255 
-27.2454 -0.327356 1.45182 71 16 99 255 
-18.2983 -0.20362 0.80217 55 90 140 255 
-7.62037 -0.103572 0.274124 42 119 142 255 
-7.60871 -0.0966639 0.201915 72 41 121 255 
-7.59036 -0.089874 0.129849 72 37 118 255 
-18.2774 -0.197016 0.143561 71 19 101 255 
-7.42433 -0.0996133 -0.00129591 72 26 108 255 
-7.47309 -0.0923323 -0.0717442 48 106 142 255 
-7.50617 -0.0862571 -0.141514 44 114 142 255 
-7.51958 -0.0784338 -0.212679 47 107 142 255 
-7.49643 -0.0966607 -0.272284 68 59 132 255 
-7.48169 -0.0898271 -0.341075 54 92 141 255 
-7.50816 -0.0849696 -0.413225 48 105 142 255 
-7.51399 -0.0770658 -0.484617 44 114 142 255 
-7.51464 -0.0955856 -0.545292 63 72 137 255 
-7.52531 -0.0877241 -0.616091 63 71 136 255 
-7.53717 -0.0813515 -0.688629 67 62 133 255 
-7.56024 -0.0775401 -0.762649 65 66 135 255 
-7.57359 -0.0923754 -0.825491 62 74 137 255 
-7.59929 -0.0872603 -0.90084 60 80 139 255 
-7.59847 -0.0806871 -0.973442 60 79 138 255 
-7.59595 -0.0752584 -1.04597 61 77 138 255 
-7.63743 -0.0891608 -1.11562 62 74 137 255 
-7.64857 -0.0851564 -1.1896 62 73 137 255 
-7.62546 -0.0796428 -1.25835 65 66 135 255 
-7.69778 -0.0762673 -1.34631 66 64 134 255 
-7.53075 -0.0826655 -1.38224 61 78 138 255 
-7.10261 -0.0753592 -1.3704 63 72 137 255 
-6.76183 -0.0706228 -1.3721 61 78 138 255 
-6.40192 -0.0645441 -1.36434 64 70 136 255 
-6.08176 -0.0635802 -1.34948 67 62 133 255 
-5.78749 -0.0593857 -1.34048 60 80 139 255 
-5.51097 -0.0556347 -1.33229 66 64 134 255 
-5.26376 -0.0549042 -1.3281 63 72 137 255 
-5.0578 -0.0484686 -1.32223 66 63 133 255 
-4.88322 -0.0466982 -1.32497 62 74 137 255 
-4.71218 -0.0467483 -1.32815 70 50 126 255 
-4.51973 -0.0487191 -1.32431 70 52 128 255 
-18.4443 -0.137499 5.54072 71 19 101 255 
-18.4464 -0.153346 5.33493 72 26 108 255 
-18.4302 -0.159804 5.13559 72 26 108 255 
-18.4324 -0.15946 4.94947 72 26 108 255 
-18.453 -0.147213 4.7896 72 22 104 255 
-18.4162 -0.149881 4.58501 55 90 140 255 
-18.3894 -0.146614 4.39129 72 24 106 255 
-18.4107 -0.143232 4.21675 72 22 104 255 
-18.3658 -0.149718 4.05157 72 24 106 255 
-18.3133 -0.145847 3.84932 72 31 112 255 
-18.2625 -0.136042 3.65926 61 78 138 255 
-18.2475 -0.129243 3.48098 64 70 136 255 
-18.2845 -0.149056 3.33616 58 83 139 255 
-18.2754 -0.142356 3.15352 59 82 139 255 
-18.2516 -0.12959 2.96927 57 85 140 255 
-18.2374 -0.11328 2.79728 62 76 138 255 
-18.2491 -0.145586 2.64933 58 83 139 255 
-18.2252 -0.138784 2.46745 60 80 139 255 
-18.2269 -0.119873 2.29295 61 78 138 255 
-18.2183 -0.106811 2.12408 62 76 138 255 
-18.2424 -0.145533 1.9786 59 81 139 255 
-18.2196 -0.129203 1.80255 60 79 138 255 
-18.196 -0.116494 1.62719 61 78 138 255 
-18.2034 -0.0972068 1.45824 62 74 137 255 
-18.1951 -0.141984 1.31386 60 80 139 255 
-18.1818 -0.125762 1.14074 58 84 140 255 
-28.2574 -0.166115 1.50566 70 8 92 255 
-7.59561 -0.0379133 0.332964 41 122 142 255 
-7.57689 -0.0564845 0.272543 72 40 120 255 
-7.61216 -0.0499956 0.201995 54 92 141 255 
-7.59976 -0.0433501 0.130003 66 65 134 255 
-7.44369 -0.0345603 0.0584644 42 120 142 255 
-7.4328 -0.0541149 -0.0012973 47 108 142 255 
-7.44351 -0.04629 -0.0714562 43 117 142 255 
-7.43957 -0.0398398 -0.140251 46 110 142 255 
-7.44296 -0.0319625 -0.210503 47 107 142 255 
-7.49789 -0.0506684 -0.27232 39 128 142 255 
-7.45813 -0.0437779 -0.339982 44 114 142 255 
-7.39371 -0.0383039 -0.406906 48 105 142 255 
-7.3347 -0.0302193 -0.473032 51 98 141 255 
-7.34254 -0.048339 -0.532772 61 77 138 255 
-7.35927 -0.0406291 -0.602465 55 90 140 255 
-7.51861 -0.0350147 -0.686901 61 77 138 255 
-7.57151 -0.031195 -0.763753 65 66 135 255 
-7.55612 -0.0457945 -0.823541 66 64 134 255 
-7.62451 -0.0407629 -0.903783 63 71 136 255 
-7.57998 -0.0339777 -0.971028 69 53 129 255 
-7.58736 -0.0286154 -1.04474 72 36 117 255 
-7.6319 -0.0422638 -1.11475 69 56 130 255 
-8.38905 -0.0419225 -1.30471 72 33 115 255 
-8.23555 -0.0354792 -1.35897 70 48 126 255 
-7.99066 -0.0301365 -1.39748 66 64 134 255 
-7.53112 -0.0364561 -1.38224 62 73 137 255 
-7.12061 -0.0318561 -1.37381 62 74 137 255 
-6.75332 -0.0290936 -1.37031 62 76 138 255 
-6.35329 -0.0250685 -1.35392 66 63 133 255 
-6.07325 -0.0262241 -1.34753 68 59 132 255 
-5.76632 -0.0237848 -1.33551 60 80 139 255 
-5.49468 -0.0217536 -1.3283 68 59 132 255 
-5.2543 -0.0225637 -1.32565 65 66 135 255 
-5.0609 -0.0174436 -1.32299 63 71 136 255 
-4.88052 -0.0167245 -1.32419 65 68 135 255 
-4.70468 -0.0178049 -1.32598 69 56 130 255 
-4.51802 -0.0209767 -1.32374 68 57 131 255 
-18.4543 -0.0243371 5.54359 72 26 108 255 
-18.447 -0.0401577 5.33493 72 24 106 255 
-18.3981 -0.0466328 5.12647 72 24 106 255 
-18.4108 -0.0463025 4.94351 72 24 106 255 
-18.4506 -0.0339791 4.78885 72 22 104 255 
-18.3673 -0.036779 4.57269 57 85 140 255 
-18.3958 -0.033787 4.39268 71 19 101 255 
-18.3742 -0.0302023 4.20826 71 14 97 255 
-18.4045 -0.0371017 4.05997 71 16 99 255 
-18.3627 -0.0335653 3.8596 71 16 99 255 
-18.2522 -0.0239683 3.65709 61 77 138 255 
-18.2253 -0.0172542 3.47667 65 68 135 255 
-18.2467 -0.0367837 3.32916 62 73 137 255 
-18.2473 -0.03017 3.14858 60 80 139 255 
-18.2234 -0.0175705 2.96461 58 83 139 255 
-18.2318 -0.0013748 2.79637 62 74 137 255 
-18.2348 -0.0335816 2.64718 57 85 140 255 
-18.2326 -0.026964 2.46839 54 92 141 255 
-18.2105 -0.00802481 2.29083 61 78 138 255 
-18.2097 0.00497358 2.12303 62 73 137 255 
-18.2161 -0.0335472 1.97569 62 76 138 255 
-18.2061 -0.0173935 1.80117 59 81 139 255 
-18.2024 -0.00484489 1.62772 59 81 139 255 
-18.1877 0.0144764 1.45696 61 77 138 255 
-18.2076 -0.0303582 1.31472 61 78 138 255 
-18.1862 -0.0142009 1.14099 57 86 140 255 
-28.211 0.00725987 1.50316 70 7 90 255 
-7.57872 0.00867381 0.332219 54 93 141 255 
-7.5741 -0.00998852 0.272435 53 94 141 255 
-7.60232 -0.00328304 0.201729 43 116 142 255 
-7.59289 0.00327896 0.129883 53 95 141 255 
-7.44776 0.0111199 0.0584959 38 130 142 255 
-7.42499 -0.00849788 -0.00129591 35 136 142 255 
-7.39866 -0.000612891 -0.0710242 35 136 142 255 
-7.38069 0.00576326 -0.139139 47 108 142 255 
-7.37204 0.0135765 -0.208495 43 117 142 255 
-7.34416 -0.00456564 -0.266731 45 113 142 255 
-7.35736 0.00195829 -0.335383 42 118 142 255 
-7.3319 0.00700463 -0.403499 44 115 142 255 
-7.46947 0.0150577 -0.481721 39 127 142 255 
-7.35666 -0.00329136 -0.533785 55 91 141 255 
-7.36337 0.00452974 -0.602791 61 78 138 255 
-7.51071 0.0111075 -0.686173 66 65 134 255 
-7.54569 0.0152114 -0.761143 70 48 126 255 
-7.55128 0.000569417 -0.822999 72 35 116 255 
-12.4727 0.00984934 -1.47845 72 28 110 255 
-11.375 0.0188074 -1.45718 71 44 122 255 
-10.4722 0.0247612 -1.44196 71 46 124 255 
-9.73569 0.00582386 -1.42202 68 57 131 255 
-9.07786 0.0103367 -1.41182 66 65 134 255 
-8.47932 0.0154994 -1.39918 64 70 136 255 
-7.95031 0.0187984 -1.39042 65 68 135 255 
-7.51645 0.0097355 -1.37953 62 74 137 255 
-7.12559 0.0118439 -1.37475 63 71 136 255 
-6.74749 0.0123338 -1.36912 62 73 137 255 
-6.3543 0.0139171 -1.35413 66 65 134 255 
-6.0567 0.011011 -1.34385 65 68 135 255 
-5.77317 0.0116108 -1.33709 57 86 140 255 
-5.47819 0.0119256 -1.3243 67 61 132 255 
-5.22816 0.00962829 -1.31905 64 69 136 255 
-5.07156 0.0136385 -1.32577 61 78 138 255 
-4.9037 0.0132849 -1.33047 63 71 136 255 
-4.68352 0.011013 -1.32001 69 55 129 255 
-4.52574 0.00675718 -1.32599 69 55 129 255 
-18.4417 0.088837 5.53985 72 22 104 255 
-18.4152 0.0729062 5.32576 72 20 103 255 
-18.3787 0.0661872 5.1211 72 22 104 255 
-18.4223 0.0667068 4.94662 71 19 101 255 
-18.434 0.0791618 4.78458 72 23 105 255 
-18.3643 0.0759094 4.57196 60 79 138 255 
-18.4005 0.079109 4.39384 71 19 101 255 
-18.3682 0.0825141 4.20693 71 14 97 255 
-18.3604 0.0756457 4.05027 71 17 100 255 
-18.3939 0.0792419 3.86618 71 16 99 255 
-18.2353 0.0879452 3.65375 61 77 138 255 
-18.229 0.0945951 3.47742 62 74 137 255 
-18.2378 0.0751404 3.32755 62 74 137 255 
-18.2521 0.0818161 3.14943 58 83 139 255 
-18.2084 0.09417 2.9622 63 72 137 255 
-18.2028 0.11032 2.79197 62 76 138 255 
-18.2198 0.078242 2.64502 59 81 139 255 
-18.2047 0.0847807 2.46464 60 80 139 255 
-18.2072 0.103696 2.29046 61 78 138 255 
-18.2103 0.116712 2.12315 63 71 136 255 
-18.21 0.0781999 1.97505 59 81 139 255 
-18.1979 0.0942762 1.80038 60 80 139 255 
-18.1752 0.106685 1.62532 62 74 137 255 
-18.1763 0.125998 1.45608 63 72 137 255 
-18.2014 0.0813352 1.31429 57 86 140 255 
-18.183 0.097372 1.14081 55 91 141 255 
-28.1425 0.179925 1.49954 69 4 87 255 
-7.58152 0.0551976 0.332351 50 102 142 255 
-7.595 0.0365865 0.27319 30 155 138 255 
-7.58221 0.04325 0.201199 48 106 142 255 
-7.57673 0.0497629 0.12961 43 116 142 255 
-7.46455 0.056948 0.0586294 41 121 142 255 
-7.42091 0.0370412 -0.00129521 34 139 141 255 
-7.39952 0.0447905 -0.0710338 38 130 142 255 
-7.38751 0.0510986 -0.139271 47 107 142 255 
-7.38381 0.0589059 -0.208835 49 103 142 255 
-7.34005 0.0404753 -0.266586 46 111 142 255 
-7.38118 0.0472557 -0.336475 46 110 142 255 
-7.50346 0.0532101 -0.412951 41 123 142 255 
-7.48021 0.0609787 -0.482429 35 137 142 255 
-7.46226 0.0424497 -0.541456 57 86 140 255 
-7.4808 0.0505044 -0.612419 58 84 140 255 
-7.5344 0.0573741 -0.688356 69 55 129 255 
-15.3914 0.125471 -1.5526 72 22 104 255 
-13.795 0.0856867 -1.50352 72 35 116 255 
-12.4764 0.0864076 -1.47892 72 36 117 255 
-11.4005 0.0888038 -1.46048 71 46 124 255 
-10.4728 0.0890252 -1.4421 71 47 125 255 
-9.7147 0.0654209 -1.41898 65 66 135 255 
-9.07565 0.0660229 -1.41151 64 70 136 255 
-8.48301 0.0675587 -1.39983 64 69 136 255 
-7.94217 0.0675132 -1.38904 68 59 132 255 
-7.50051 0.0557384 -1.37664 61 77 138 255 
-7.11851 0.0555119 -1.37343 62 76 138 255 
-6.72181 0.0535324 -1.36395 65 68 135 255 
-6.36974 0.0530364 -1.35746 66 63 133 255 
-6.0448 0.0480808 -1.34125 64 69 136 255 
-5.75741 0.0469071 -1.33348 62 74 137 255 
-5.47996 0.0455551 -1.32477 66 64 134 255 
-5.25418 0.0419164 -1.32565 64 70 136 255 
-5.05977 0.0446543 -1.32274 63 71 136 255 
-4.93151 0.0436207 -1.33807 64 69 136 255 
-4.66989 0.039636 -1.31621 69 55 129 255 
-4.52466 0.0345192 -1.32571 66 63 133 255 
-18.4283 0.201855 5.53611 72 24 106 255 
-18.424 0.185995 5.32854 72 22 104 255 
-18.4146 0.179312 5.1313 72 22 104 255 
-18.4138 0.179667 4.94455 72 22 104 255 
-18.4535 0.192481 4.78985 72 24 106 255 
-18.3547 0.188499 4.56979 67 61 132 255 
-18.4006 0.192021 4.39407 72 22 104 255 
-18.3303 0.194824 4.19844 71 13 96 255 
-18.3508 0.188212 4.04833 71 17 100 255 
-18.351 0.191664 3.85734 71 14 97 255 
-18.2276 0.199758 3.65238 62 76 138 255 
-18.2193 0.206345 3.47574 64 70 136 255 
-18.2212 0.186882 3.32468 58 83 139 255 
-18.2256 0.193535 3.14501 58 83 139 255 
-18.2233 0.206071 2.96477 60 80 139 255 
-18.1909 0.221875 2.79031 60 80 139 255 
-18.2071 0.189912 2.6433 58 83 139 255 
-18.2039 0.196481 2.46464 59 81 139 255 
-18.1973 0.215305 2.28933 58 83 139 255 
-18.1754 0.228023 2.11921 61 77 138 255 
-18.1943 0.189778 1.97343 59 82 139 255 
-18.192 0.205878 1.79989 58 84 140 255 
-18.1781 0.218251 1.62567 60 79 138 255 
-18.1702 0.237458 1.45568 62 76 138 255 
-18.1966 0.192973 1.314 59 82 139 255 
-18.1621 0.20871 1.13955 59 81 139 255 
-0 0 0 68 2 86 255 
-7.58303 0.101743 0.332438 70 50 126 255 
-7.58864 0.0831222 0.272974 41 123 142 255 
-7.55181 0.0894176 0.200403 72 37 118 255 
-7.55029 0.0959217 0.129165 50 100 142 255 
-7.48706 0.103065 0.05881 43 117 142 255 
-7.47054 0.0831307 -0.00130394 37 133 142 255 
-7.4531 0.0908504 -0.0715522 37 132 142 255 
-7.47903 0.0976272 -0.141005 40 124 142 255 
-7.48726 0.105678 -0.211775 41 122 142 255 
-7.50154 0.0873983 -0.272466 37 133 142 255 
-7.49163 0.0939351 -0.34153 39 127 142 255 
-7.52396 0.0995267 -0.414105 42 118 142 255 
-7.50165 0.107189 -0.483844 38 130 142 255 
-7.4838 0.0884959 -0.543048 53 95 141 255 
-7.50128 0.0966745 -0.614133 62 76 138 255 
-7.56378 0.104014 -0.691086 62 74 137 255 
-7.56583 0.108106 -0.763251 65 66 135 255 
-13.7774 0.170121 -1.50168 72 20 103 255 
-12.4716 0.162908 -1.47845 72 37 118 255 
-11.365 0.158271 -1.45603 71 45 123 255 
-10.4631 0.153153 -1.44087 71 45 123 255 
-9.72994 0.125232 -1.4213 68 59 132 255 
-9.07113 0.121656 -1.4109 66 65 134 255 
-8.46468 0.119358 -1.3969 65 68 135 255 
-7.95933 0.116504 -1.39214 64 70 136 255 
-7.48626 0.101573 -1.37411 63 72 137 255 
-7.09643 0.0988882 -1.36926 63 72 137 255 
-6.71449 0.0946789 -1.36255 65 66 135 255 
-6.3693 0.0921195 -1.35746 68 59 132 255 
-6.04439 0.0851701 -1.34125 65 68 135 255 
-5.74629 0.08208 -1.331 62 73 137 255 
-5.47763 0.0791505 -1.3243 66 65 134 255 
-5.23735 0.073922 -1.32149 66 65 134 255 
-5.05843 0.0756851 -1.32249 62 76 138 255 
-4.87325 0.0730115 -1.32235 66 64 134 255 
-4.69651 0.0686833 -1.32381 68 58 131 255 
-4.54355 0.0625455 -1.33134 69 56 130 255 
-18.398 0.314434 5.52748 72 20 103 255 
-18.4485 0.299461 5.33604 72 26 108 255 
-18.4054 0.292176 5.12915 72 22 104 255 
-18.4549 0.293325 4.95596 72 24 106 255 
-18.4472 0.305626 4.7886 72 27 109 255 
-18.33 0.300736 4.56399 70 50 126 255 
-18.4195 0.30526 4.39895 72 22 104 255 
-18.358 0.307783 4.20514 71 16 99 255 
-18.3396 0.300646 4.04618 72 22 104 255 
-18.3485 0.304244 3.85713 71 17 100 255 
-18.2113 0.311346 3.64943 60 79 138 255 
-18.201 0.31784 3.47255 62 73 137 255 
-18.1922 0.298231 3.31965 62 76 138 255 
-18.2123 0.305164 3.14297 61 78 138 255 
-18.2177 0.317814 2.96413 59 82 139 255 
-18.1783 0.333289 2.78864 62 76 138 255 
-18.1967 0.301477 2.64201 60 80 139 255 
-18.1865 0.307906 2.46249 58 84 140 255 
-18.1748 0.326584 2.28671 59 81 139 255 
-18.1588 0.339262 2.11748 63 71 136 255 
-18.1948 0.301445 1.97364 59 82 139 255 
-18.1546 0.316874 1.79634 59 81 139 255 
-18.1496 0.329299 1.62327 60 80 139 255 
-18.1595 0.348772 1.45496 63 71 136 255 
-18.1741 0.304271 1.31249 60 80 139 255 
-18.1605 0.320146 1.13955 56 88 140 255 
-0 0 0 68 2 86 255 
-18.248 0.356835 0.800068 48 106 142 255 
-7.568 0.129342 0.272255 63 71 136 255 
-18.1867 0.326957 0.482665 72 38 119 255 
-7.50357 0.141381 0.128378 72 41 121 255 
-7.56427 0.150555 0.0594226 38 130 142 255 
-7.51288 0.12971 -0.00131144 39 128 142 255 
-7.4744 0.136983 -0.0717633 41 122 142 255 
-7.51128 0.144149 -0.141627 39 126 142 255 
-7.52345 0.152366 -0.212821 42 118 142 255 
-7.52984 0.133941 -0.273518 41 122 142 255 
-7.56383 0.141263 -0.344854 41 122 142 255 
-7.56214 0.146445 -0.416248 42 118 142 255 
-7.50783 0.153359 -0.484295 60 80 139 255 
-7.50605 0.134826 -0.544713 62 74 137 255 
-7.52247 0.143117 -0.615928 65 66 135 255 
-7.55404 0.150244 -0.690267 59 81 139 255 
-7.55607 0.154344 -0.762348 62 74 137 255 
-7.54701 0.139509 -0.822674 63 71 136 255 
-7.51301 0.144248 -0.890717 71 47 125 255 
-11.3668 0.228062 -1.45641 71 44 122 255 
-10.462 0.217351 -1.44087 70 50 126 255 
-9.73888 0.185119 -1.42274 70 51 127 255 
-9.06725 0.177255 -1.41044 67 61 132 255 
-8.43814 0.170775 -1.39267 69 55 129 255 
-7.95847 0.165339 -1.39214 66 64 134 255 
-7.48943 0.147583 -1.37483 63 72 137 255 
-7.11827 0.142882 -1.37362 61 77 138 255 
-6.70007 0.135599 -1.35977 64 69 136 255 
-6.35492 0.130917 -1.35455 67 62 133 255 
-6.04473 0.122276 -1.34147 64 69 136 255 
-5.73107 0.117039 -1.32761 59 81 139 255 
-5.46538 0.112519 -1.32149 65 66 135 255 
-5.25327 0.10639 -1.32565 66 63 133 255 
-5.06464 0.106865 -1.32426 62 73 137 255 
-4.86209 0.102688 -1.31947 65 68 135 255 
-4.69696 0.0975192 -1.32408 66 63 133 255 
-4.52389 0.0900411 -1.32571 68 57 131 255 
-18.3814 0.426983 5.52317 72 20 103 255 
-18.4367 0.412438 5.33327 72 28 110 255 
-18.4004 0.405041 5.12835 72 26 108 255 
-18.3639 0.404599 4.9321 72 23 105 255 
-18.4024 0.417843 4.77754 72 22 104 255 
-18.2725 0.411955 4.55022 72 40 120 255 
-18.3745 0.417303 4.38873 72 20 103 255 
-18.3938 0.421291 4.21385 71 17 100 255 
-18.311 0.412576 4.04036 72 20 103 255 
-18.3394 0.416667 3.85569 71 14 97 255 
-18.2032 0.422946 3.64825 60 80 139 255 
-18.2232 0.430093 3.47724 61 77 138 255 
-18.1871 0.409784 3.31911 61 78 138 255 
-18.2071 0.416839 3.14246 56 88 140 255 
-18.17 0.42852 2.95674 60 80 139 255 
-18.1789 0.444895 2.78909 61 78 138 255 
-18.1876 0.412967 2.641 59 81 139 255 
-18.1644 0.419033 2.45981 57 86 140 255 
-18.1576 0.437737 2.28484 59 82 139 255 
-18.1326 0.450085 2.1147 62 74 137 255 
-18.1499 0.41211 1.96901 61 77 138 255 
-18.1453 0.428098 1.79565 61 78 138 255 
-18.1373 0.440414 1.62238 60 79 138 255 
-18.148 0.459963 1.45425 63 71 136 255 
-18.154 0.415369 1.31119 59 81 139 255 
-18.1402 0.431144 1.13843 57 85 140 255 
-19.2907 0.478527 1.02818 71 16 99 255 
-18.2445 0.46877 0.800024 49 104 142 255 
-33.2975 0.77347 1.19801 71 13 96 255 
-18.1843 0.438542 0.482665 71 45 123 255 
-18.1867 0.454316 0.311196 71 13 96 255 
-7.59719 0.197851 0.0596896 47 107 142 255 
-7.59092 0.177654 -0.00132523 37 132 142 255 
-7.58838 0.185655 -0.0728673 38 129 142 255 
-7.56923 0.191728 -0.142739 43 116 142 255 
-7.56134 0.199555 -0.213923 48 105 142 255 
-7.56285 0.180953 -0.274752 44 115 142 255 
-7.59977 0.188588 -0.346539 44 115 142 255 
-7.57906 0.193301 -0.417237 44 114 142 255 
-7.50775 0.19945 -0.484359 64 69 136 255 
-7.51705 0.181168 -0.545581 60 80 139 255 
-7.52344 0.189321 -0.616091 62 76 138 255 
-7.55795 0.196722 -0.690722 61 78 138 255 
-7.56194 0.200889 -0.76305 59 81 139 255 
-7.548 0.185863 -0.822891 64 69 136 255 
-7.51595 0.190445 -0.891188 65 68 135 255 
-7.47136 0.195773 -0.957432 70 52 128 255 
-10.4565 0.281434 -1.44032 70 51 127 255 
-9.73361 0.244773 -1.42216 69 56 130 255 
-9.05315 0.232557 -1.40844 65 66 135 255 
-8.43102 0.222391 -1.39169 67 62 133 255 
-7.93564 0.213585 -1.38835 67 62 133 255 
-7.49035 0.193586 -1.37519 64 69 136 255 
-7.09665 0.186016 -1.36964 62 74 137 255 
-6.69029 0.176475 -1.35798 65 68 135 255 
-6.34716 0.169725 -1.35309 65 66 135 255 
-6.03118 0.159029 -1.33865 64 69 136 255 
-5.7283 0.15215 -1.32716 63 72 137 255 
-5.46847 0.146156 -1.32243 62 73 137 255 
-5.25834 0.138775 -1.32712 64 69 136 255 
-5.06099 0.13786 -1.3235 64 70 136 255 
-4.85558 0.132361 -1.3179 67 61 132 255 
-4.69435 0.126286 -1.32354 68 58 131 255 
-4.50311 0.117273 -1.31981 70 51 127 255 
-18.3689 0.53948 5.52029 72 20 103 255 
-18.3771 0.52394 5.31687 72 24 106 255 
-18.4217 0.518614 5.13506 72 24 106 255 
-18.3833 0.517896 4.93806 72 22 104 255 
-18.352 0.529383 4.76523 72 22 104 255 
-18.3074 0.52515 4.55964 72 36 117 255 
-18.3493 0.529394 4.38339 71 19 101 255 
-18.3733 0.533636 4.20983 71 13 96 255 
-18.2984 0.524643 4.03821 71 16 99 255 
-18.3228 0.528792 3.85281 71 13 96 255 
-18.1856 0.534199 3.64531 61 78 138 255 
-18.2016 0.541346 3.47367 61 77 138 255 
-18.1813 0.521285 3.31857 59 82 139 255 
-18.1875 0.528061 3.13957 59 81 139 255 
-18.1661 0.539971 2.95658 60 79 138 255 
-18.164 0.556068 2.78727 61 77 138 255 
-18.1699 0.524129 2.63884 56 88 140 255 
-18.1704 0.53074 2.46102 61 77 138 255 
-18.1655 0.549472 2.28621 58 83 139 255 
-18.1473 0.561889 2.11678 61 78 138 255 
-18.141 0.523296 1.96836 61 78 138 255 
-18.1513 0.539694 1.79654 59 81 139 255 
-18.1382 0.551815 1.62273 59 82 139 255 
-18.1259 0.570712 1.45273 63 72 137 255 
-18.1262 0.526029 1.30939 59 81 139 255 
-18.1312 0.542263 1.13805 58 83 139 255 
-0 0 0 68 1 84 255 
-18.1783 0.578704 0.797265 59 82 139 255 
-33.2831 0.977501 1.19769 70 11 94 255 
-33.2601 1.00635 0.882967 70 11 94 255 
-33.285 1.03588 0.569646 70 10 93 255 
-7.56785 0.243562 0.0594697 71 14 97 255 
-7.62867 0.225379 -0.00133204 46 111 142 255 
-7.63507 0.233682 -0.073328 46 110 142 255 
-7.64685 0.240653 -0.144228 61 78 138 255 
-7.61992 0.247897 -0.21562 71 16 99 255 
-7.58357 0.228015 -0.275551 62 73 137 255 
-7.59946 0.235246 -0.346585 69 55 129 255 
-7.56376 0.239359 -0.416467 72 38 119 255 
-7.52434 0.2461 -0.485518 70 48 126 255 
-7.53374 0.227831 -0.546884 66 65 134 255 
-7.52712 0.235637 -0.616499 60 79 138 255 
-7.55163 0.242933 -0.690267 70 50 126 255 
-7.58742 0.248163 -0.76576 71 45 123 255 
-7.5646 0.232723 -0.824841 63 71 136 255 
-7.53747 0.237277 -0.893895 64 70 136 255 
-7.48885 0.242222 -0.959846 64 69 136 255 
-7.46941 0.24691 -1.02906 68 58 131 255 
-9.72995 0.304431 -1.42188 69 53 129 255 
-9.05747 0.288291 -1.40936 66 65 134 255 
-8.42949 0.274118 -1.39169 67 62 133 255 
-7.92729 0.262045 -1.38714 67 62 133 255 
-7.47427 0.23907 -1.37249 62 74 137 255 
-7.09145 0.22943 -1.36888 65 66 135 255 
-6.69104 0.217586 -1.35838 64 70 136 255 
-6.33524 0.208313 -1.35079 67 61 132 255 
-6.01838 0.195652 -1.33605 66 64 134 255 
-5.72628 0.187263 -1.32694 64 70 136 255 
-5.47525 0.179962 -1.3243 65 68 135 255 
-5.25157 0.170848 -1.32565 66 65 134 255 
-5.04361 0.168362 -1.3192 64 69 136 255 
-4.83732 0.161572 -1.31319 66 64 134 255 
-4.68772 0.154897 -1.32191 68 59 132 255 
-4.49559 0.144685 -1.31784 68 59 132 255 
-18.3413 0.651329 5.5131 72 20 103 255 
-18.3611 0.636258 5.31326 72 23 105 255 
-18.3575 0.629557 5.11815 72 22 104 255 
-18.3682 0.630286 4.93495 72 24 106 255 
-18.3871 0.643333 4.77528 72 27 109 255 
-18.3077 0.637607 4.56061 72 24 106 255 
-18.335 0.641599 4.38084 71 19 101 255 
-18.3619 0.646088 4.20804 71 17 100 255 
-18.3495 0.638812 4.05027 71 16 99 255 
-18.3427 0.642031 3.85775 71 16 99 255 
-18.1516 0.644694 3.63922 62 76 138 255 
-18.1744 0.652173 3.46918 63 71 136 255 
-18.1797 0.632902 3.31893 62 74 137 255 
-18.1593 0.638782 3.13532 58 83 139 255 
-18.1683 0.651638 2.95754 57 85 140 255 
-18.1513 0.667183 2.78591 61 77 138 255 
-18.1594 0.635365 2.63784 58 84 140 255 
-18.1777 0.642607 2.46249 55 90 140 255 
-18.1389 0.660093 2.28334 59 82 139 255 
-18.1435 0.673228 2.11678 61 78 138 255 
-18.1504 0.635049 1.96976 61 77 138 255 
-18.1427 0.65088 1.79605 55 91 141 255 
-18.1146 0.662371 1.62095 61 78 138 255 
-18.1201 0.681845 1.45257 64 70 136 255 
-18.1116 0.636853 1.3086 60 80 139 255 
-18.1375 0.653863 1.13868 60 80 139 255 
-18.1717 0.673986 0.968907 69 4 87 255 
-18.1495 0.689286 0.79617 61 78 138 255 
-33.2815 1.18188 1.19787 70 11 94 255 
-33.2213 1.20925 0.882119 70 11 94 255 
-33.283 1.24028 0.569731 70 10 93 255 
-18.0742 0.692735 0.142061 71 17 100 255 
-7.63514 0.272469 -0.00133343 72 36 117 255 
-33.263 1.22239 -0.319527 71 14 97 255 
-18.1779 0.683746 -0.342928 52 97 141 255 
-18.1402 0.701597 -0.513422 72 40 120 255 
-18.1681 0.657861 -0.660276 72 31 112 255 
-18.1247 0.672403 -0.826776 72 32 113 255 
-18.1516 0.685927 -0.999654 72 31 112 255 
-18.1426 0.704857 -1.17093 72 29 111 255 
-7.5332 0.274089 -0.546956 72 38 119 255 
-17.5529 0.657326 -1.43795 72 36 117 255 
-17.3301 0.663969 -1.58442 72 26 108 255 
-15.2829 0.593754 -1.54276 72 27 109 255 
-13.6667 0.504407 -1.49052 72 27 109 255 
-7.5458 0.283895 -0.895072 66 65 134 255 
-7.46939 0.287481 -0.957559 67 62 133 255 
-7.42815 0.291184 -1.0236 69 56 130 255 
-7.3953 0.276815 -1.08093 68 59 132 255 
-9.02394 0.342661 -1.40444 69 55 129 255 
-8.41089 0.325188 -1.38893 67 61 132 255 
-7.91765 0.310373 -1.38576 65 68 135 255 
-7.4707 0.284852 -1.37213 63 72 137 255 
-7.09481 0.273127 -1.36983 62 74 137 255 
-6.67587 0.258107 -1.35559 66 63 133 255 
-6.3231 0.246762 -1.3485 69 53 129 255 
-6.01414 0.232463 -1.3354 68 58 131 255 
-5.6929 0.221148 -1.31949 68 58 131 255 
-5.4721 0.213479 -1.32383 64 69 136 255 
-5.22911 0.202243 -1.32027 69 53 129 255 
-5.05699 0.199879 -1.32299 61 78 138 255 
-4.8507 0.191822 -1.31712 67 61 132 255 
-4.65879 0.182564 -1.31404 68 59 132 255 
-4.49462 0.172267 -1.31784 70 52 128 255 
-18.3503 0.764415 5.51712 72 26 108 255 
-18.376 0.74969 5.31882 72 23 105 255 
-18.3562 0.742301 5.11895 72 23 105 255 
-18.3447 0.742199 4.92976 72 22 104 255 
-18.3103 0.753158 4.75644 72 26 108 255 
-18.2977 0.749691 4.55916 72 27 109 255 
-18.3132 0.753368 4.37666 71 17 100 255 
-18.3303 0.757615 4.20179 71 17 100 255 
-18.3325 0.750871 4.04747 72 20 103 255 
-18.3463 0.754889 3.8594 70 11 94 255 
-18.1482 0.756099 3.63941 61 77 138 255 
-18.1524 0.762934 3.4658 63 71 136 255 
-18.1617 0.743875 3.31642 58 83 139 255 
-18.1491 0.749949 3.1343 57 85 140 255 
-18.16 0.762939 2.9569 60 79 138 255 
-18.1469 0.778545 2.78591 62 76 138 255 
-18.1542 0.746737 2.6377 58 83 139 255 
-18.1576 0.753474 2.46034 57 86 140 255 
-18.1256 0.770999 2.28222 59 81 139 255 
-18.1391 0.784542 2.11678 60 80 139 255 
-18.1452 0.746365 1.96965 60 79 138 255 
-18.1225 0.76152 1.79447 59 81 139 255 
-18.1191 0.77389 1.62175 61 77 138 255 
-18.0966 0.792187 1.45105 62 73 137 255 
-18.1024 0.747766 1.30824 60 79 138 255 
-18.1043 0.763921 1.13686 62 76 138 255 
-18.1144 0.783187 0.966087 72 33 115 255 
-18.1609 0.80134 0.796871 48 105 142 255 
-18.1585 0.756424 0.653715 56 88 140 255 
-18.1492 0.772162 0.482029 49 104 142 255 
-18.1572 0.788216 0.310888 50 102 142 255 
-18.1495 0.807177 0.14269 53 95 141 255 
-18.1531 0.759369 -0.00317109 56 89 140 255 
-18.1794 0.779806 -0.174676 50 101 142 255 
-18.1764 0.795402 -0.342985 47 108 142 255 
-18.1435 0.813248 -0.513648 50 100 142 255 
-18.1278 0.767804 -0.65897 59 82 139 255 
-18.1152 0.783386 -0.826548 56 88 140 255 
-18.134 0.79672 -0.998939 55 91 141 255 
-18.1309 0.815851 -1.17048 57 86 140 255 
-18.0651 0.768304 -1.31196 71 44 122 255 
-17.5496 0.76506 -1.43803 71 42 122 255 
-17.3177 0.769938 -1.58369 72 20 103 255 
-15.2123 0.68452 -1.53604 72 24 106 255 
-13.6395 0.587228 -1.48792 72 35 116 255 
-12.3655 0.541227 -1.46715 72 29 111 255 
-7.48433 0.334059 -0.959719 70 51 127 255 
-7.41138 0.336084 -1.02155 68 57 131 255 
-7.37962 0.321583 -1.07891 64 70 136 255 
-7.36817 0.325074 -1.14704 64 70 136 255 
-7.9021 0.354088 -1.30524 72 35 116 255 
-7.88805 0.357699 -1.38094 67 62 133 255 
-7.36465 0.326074 -1.35299 72 36 117 255 
-7.06554 0.315428 -1.36452 64 69 136 255 
-6.63206 0.297178 -1.34704 64 69 136 255 
-6.32928 0.285908 -1.35017 68 57 131 255 
-6.0126 0.269361 -1.3354 66 65 134 255 
-5.68365 0.255724 -1.31769 65 66 135 255 
-5.47165 0.247095 -1.32407 61 77 138 255 
-5.23261 0.234542 -1.32149 69 53 129 255 
-5.05083 0.230684 -1.32173 66 65 134 255 
-4.87546 0.222771 -1.32419 69 55 129 255 
-4.66623 0.211539 -1.31649 67 61 132 255 
-4.51936 0.200993 -1.32543 70 50 126 255 
-18.3405 0.876767 5.51569 72 24 106 255 
-18.3749 0.86261 5.31993 72 22 104 255 
-18.3253 0.853708 5.1117 72 24 106 255 
-18.3523 0.85533 4.93314 72 23 105 255 
-18.3779 0.868923 4.77528 72 23 105 255 
-18.285 0.861584 4.55723 71 19 101 255 
-18.317 0.866135 4.37875 72 20 103 255 
-18.339 0.870721 4.20492 71 16 99 255 
-18.311 0.862562 4.04381 71 14 97 255 
-18.3227 0.866567 3.85549 70 11 94 255 
-18.1403 0.867299 3.63882 60 79 138 255 
-18.1621 0.875009 3.46862 62 74 137 255 
-18.1578 0.855346 3.3166 57 85 140 255 
-18.154 0.861762 3.136 59 82 139 255 
-18.1343 0.873355 2.95353 59 81 139 255 
-18.1289 0.889248 2.78394 61 77 138 255 
-18.1394 0.857647 2.63626 58 84 140 255 
-18.1219 0.863411 2.45619 57 86 140 255 
-18.1146 0.881912 2.28147 58 84 140 255 
-18.1309 0.89568 2.11643 63 71 136 255 
-18.1392 0.857641 1.96955 58 84 140 255 
-18.1135 0.872512 1.79408 57 85 140 255 
-18.1309 0.885878 1.62327 59 82 139 255 
-18.0964 0.903459 1.45145 61 77 138 255 
-18.0955 0.858732 1.30809 60 80 139 255 
-18.0873 0.874414 1.13611 60 79 138 255 
-18.1002 0.893877 0.965608 71 14 97 255 
-33.2999 1.67413 1.46157 70 10 93 255 
-18.1166 0.866063 0.652385 68 58 131 255 
-18.0862 0.880689 0.48049 71 44 122 255 
-18.0432 0.894217 0.309024 72 24 106 255 
-18.1312 0.917868 0.142588 70 10 93 255 
-18.1202 0.869399 -0.0031662 61 77 138 255 
-18.0894 0.887174 -0.17386 69 53 129 255 
-18.1102 0.903875 -0.341835 64 70 136 255 
-18.1052 0.92288 -0.512715 71 46 124 255 
-18.1277 0.879262 -0.659151 58 84 140 255 
-18.1121 0.894622 -0.826639 61 78 138 255 
-18.1238 0.907724 -0.998665 68 58 131 255 
-18.0847 0.924995 -1.16784 70 48 126 255 
-18.0451 0.878408 -1.31087 70 48 126 255 
-17.5475 0.872876 -1.43828 72 37 118 255 
-17.3703 0.879103 -1.58897 72 20 103 255 
-15.176 0.776222 -1.53282 72 27 109 255 
-13.6148 0.669882 -1.48565 72 38 119 255 
-12.3639 0.617189 -1.46738 71 47 125 255 
-11.2564 0.571649 -1.44384 72 40 120 255 
-7.40522 0.381349 -1.02101 72 38 119 255 
-7.38245 0.367103 -1.07963 62 73 137 255 
-7.37492 0.370725 -1.14842 64 70 136 255 
-7.32334 0.373192 -1.21 65 66 135 255 
-7.3112 0.376507 -1.28033 71 45 123 255 
-7.28884 0.367542 -1.33945 70 48 126 255 
-7.07033 0.359125 -1.36585 63 71 136 255 
-6.66633 0.339712 -1.3544 65 66 135 255 
-6.30201 0.323435 -1.34475 68 57 131 255 
-6.01376 0.306397 -1.33605 63 71 136 255 
-5.70144 0.291589 -1.3222 67 62 133 255 
-5.45839 0.280066 -1.32125 63 72 137 255 
-5.24657 0.267434 -1.32541 66 64 134 255 
-5.03579 0.260969 -1.31819 66 65 134 255 
-4.87304 0.252633 -1.32393 67 61 132 255 
-4.65043 0.239424 -1.31242 69 56 130 255 
-4.53913 0.229787 -1.33162 70 51 127 255 
-18.3281 0.988925 5.51367 72 24 106 255 
-18.3626 0.974984 5.31799 72 26 108 255 
-18.3139 0.96583 5.11009 72 26 108 255 
-18.3448 0.96782 4.93262 72 24 106 255 
-18.2929 0.977436 4.75468 72 26 108 255 
-18.29 0.97433 4.55988 72 20 103 255 
-18.3036 0.978095 4.37689 71 17 100 255 
-18.3021 0.98156 4.19777 71 14 97 255 
-18.2868 0.973913 4.03972 71 14 97 255 
-18.2721 0.976574 3.84603 71 13 96 255 
-18.1513 0.979488 3.64216 57 86 140 255 
-18.1406 0.985581 3.46562 61 78 138 255 
-18.1257 0.965331 3.31175 60 80 139 255 
-18.1336 0.972345 3.13345 58 83 139 255 
-18.1227 0.984288 2.95257 59 81 139 255 
-18.1153 1.00003 2.78273 59 81 139 255 
-18.115 0.967929 2.63353 55 90 140 255 
-18.1123 0.974375 2.45565 60 80 139 255 
-18.1118 0.993207 2.28184 57 86 140 255 
-18.0983 1.00542 2.11331 61 78 138 255 
-18.1307 0.968766 1.96922 57 85 140 255 
-18.1167 0.984123 1.79497 56 89 140 255 
-18.1063 0.996071 1.62157 59 81 139 255 
-18.0846 1.01414 1.45097 62 74 137 255 
-18.0919 0.969854 1.30824 58 83 139 255 
-18.0875 0.985704 1.13649 63 72 137 255 
-28.7459 1.59648 1.53402 69 4 87 255 
-33.2352 1.87538 1.45921 70 10 93 255 
-33.2012 1.79143 1.19596 70 11 94 255 
-33.1734 1.81944 0.881588 70 11 94 255 
-33.1977 1.84953 0.568756 70 7 90 255 
-33.3133 1.89144 0.262069 70 11 94 255 
-33.3032 1.80276 -0.00582102 70 8 92 255 
-33.2878 1.83737 -0.320036 70 7 90 255 
-18.0854 1.01392 -0.341477 69 55 129 255 
-18.1142 1.03481 -0.513139 72 22 104 255 
-18.13 0.990911 -0.659442 72 31 112 255 
-18.1302 1.00707 -0.827732 72 29 111 255 
-18.1638 1.02149 -1.00119 72 27 109 255 
-18.0817 1.03611 -1.16804 72 28 110 255 
-18.0195 0.988022 -1.30942 72 41 121 255 
-17.5598 0.98153 -1.43975 71 46 124 255 
-17.2344 0.978275 -1.57705 72 20 103 255 
-15.1591 0.868643 -1.53162 72 27 109 255 
-13.5767 0.75154 -1.48196 72 41 121 255 
-12.352 0.692596 -1.46644 71 45 123 255 
-11.2507 0.640593 -1.44358 71 47 125 255 
-10.3272 0.595382 -1.42436 72 40 120 255 
-9.60198 0.536554 -1.40468 72 27 109 255 
-7.31923 0.412964 -1.14012 70 52 128 255 
-7.27363 0.41542 -1.20218 64 70 136 255 
-7.28515 0.42 -1.2762 72 37 118 255 
-7.39545 0.418426 -1.35949 69 56 130 255 
-7.04839 0.401384 -1.36206 65 68 135 255 
-6.66412 0.380609 -1.3544 65 66 135 255 
-6.29405 0.361761 -1.3435 70 50 126 255 
-6.01372 0.343403 -1.33648 67 62 133 255 
-5.7044 0.326845 -1.32333 61 77 138 255 
-5.45754 0.313608 -1.32149 62 74 137 255 
-5.23418 0.299013 -1.32272 67 62 133 255 
-5.02637 0.291416 -1.31616 67 61 132 255 
-4.86562 0.282193 -1.32235 69 56 130 255 
-4.6556 0.268341 -1.31432 68 59 132 255 
-4.51272 0.25622 -1.32431 68 57 131 255 
-18.3112 1.10073 5.51051 72 22 104 255 
-18.2556 1.08167 5.28882 72 27 109 255 
-18.3384 1.08 5.11868 72 27 109 255 
-18.3356 1.08019 4.93184 72 24 106 255 
-18.2827 1.08943 4.75368 72 23 105 255 
-18.2701 1.08573 4.5565 71 19 101 255 
-18.2817 1.08946 4.37317 71 17 100 255 
-18.2977 1.09396 4.19822 71 16 99 255 
-18.2737 1.08569 4.03821 71 14 97 255 
-18.2648 1.08861 3.84582 70 10 93 255 
-18.145 1.09084 3.64216 58 83 139 255 
-18.1225 1.09616 3.46337 61 78 138 255 
-18.1214 1.07665 3.31211 58 84 140 255 
-18.1086 1.08248 3.13022 58 83 139 255 
-18.1163 1.09547 2.95257 60 80 139 255 
-18.1038 1.11086 2.78197 59 81 139 255 
-18.0959 1.0783 2.63166 57 86 140 255 
-18.1011 1.0852 2.45498 55 90 140 255 
-18.1024 1.10414 2.28147 57 86 140 255 
-18.0958 1.1167 2.11377 59 81 139 255 
-18.0966 1.07834 1.9662 57 86 140 255 
-18.1103 1.09527 1.79497 56 89 140 255 
-18.075 1.10563 1.61935 60 80 139 255 
-18.0661 1.12435 1.45001 62 73 137 255 
-18.0856 1.08085 1.30824 60 80 139 255 
-18.0831 1.09679 1.13661 61 78 138 255 
-28.6618 1.76828 1.53009 69 5 89 255 
-33.1512 2.07478 1.45605 70 11 94 255 
-33.1597 1.99332 1.19488 71 13 96 255 
-33.1936 2.0249 0.882437 71 13 96 255 
-33.2865 2.05943 0.570484 70 10 93 255 
