ply
format ascii 1.0
comment VTK generated PLY File
obj_info vtkPolyData points and polygons: vtk4.0
element vertex 1245
property float x
property float y
property float z
property uchar red
property uchar green
property uchar blue
property uchar alpha
element face 0
property list uchar int vertex_indices
end_header
-0 -0 0 68 2 86 255 
-33.7237 -48.7228 13.0715 70 8 92 255 
-33.7122 -48.6866 12.447 70 10 93 255 
-33.7394 -48.6724 11.8662 71 19 101 255 
-33.7377 -48.632 11.2908 71 16 99 255 
-33.6651 -48.6382 10.7925 71 14 97 255 
-13.8869 -20.0477 4.20809 67 61 132 255 
-0 -0 0 69 4 87 255 
-13.7702 -19.8125 3.7007 71 46 124 255 
-13.7472 -19.854 3.50572 72 37 118 255 
-13.7588 -19.8554 3.2704 72 37 118 255 
-13.7981 -19.868 3.04296 72 36 117 255 
-13.8104 -19.8556 2.81983 72 36 117 255 
-13.7837 -19.9068 2.6261 72 41 121 255 
-13.8216 -19.9238 2.39896 71 45 123 255 
-13.7988 -19.8616 2.16266 72 36 117 255 
-13.7806 -19.7905 1.93183 72 40 120 255 
-14.827 -21.4056 1.88022 71 19 101 255 
-16.719 -24.0914 1.83979 72 29 111 255 
-18.8679 -27.1278 1.76069 72 27 109 255 
-21.9684 -31.5258 1.6844 71 16 99 255 
-21.9135 -31.6127 1.38356 70 11 94 255 
-21.9269 -31.5722 1.02 71 16 99 255 
-21.9404 -31.5335 0.657129 71 13 96 255 
-21.8254 -31.2973 0.299681 70 11 94 255 
-21.8676 -31.5349 -0.0066977 70 10 93 255 
-21.8601 -31.4527 -0.367696 71 14 97 255 
-19.8408 -28.4947 -0.654569 72 20 103 255 
-19.3129 -27.6738 -0.954414 72 22 104 255 
-19.0299 -27.412 -1.21196 72 22 104 255 
-18.1355 -26.0742 -1.44781 71 14 97 255 
-18.1192 -26.0125 -1.74461 70 8 92 255 
-18.0931 -25.9164 -2.03842 70 10 93 255 
-15.0405 -21.6573 -1.91319 70 8 92 255 
-12.4922 -17.9472 -1.7901 71 17 100 255 
-10.8137 -15.5072 -1.72717 72 22 104 255 
-9.56835 -13.7056 -1.68608 71 17 100 255 
-8.4186 -12.1087 -1.60732 72 22 104 255 
-7.55965 -10.8567 -1.56814 72 24 106 255 
-6.86391 -9.8394 -1.53685 72 27 109 255 
-6.30005 -9.01743 -1.51467 71 42 122 255 
-5.86019 -8.41949 -1.49833 63 72 137 255 
-5.41875 -7.77629 -1.47406 66 65 134 255 
-5.05188 -7.23916 -1.45666 56 89 140 255 
-4.72877 -6.76842 -1.44399 59 82 139 255 
-4.45179 -6.3865 -1.42881 48 105 142 255 
-4.20721 -6.03091 -1.4187 56 89 140 255 
-3.9641 -5.68041 -1.40551 57 86 140 255 
-3.77778 -5.40925 -1.40603 56 88 140 255 
-3.60017 -5.15903 -1.39583 55 90 140 255 
-3.42019 -4.89909 -1.3838 57 85 140 255 
-3.25295 -4.6579 -1.37341 54 93 141 255 
-3.1058 -4.45036 -1.3692 59 82 139 255 
-2.99797 -4.28811 -1.36776 61 77 138 255 
-2.8845 -4.12563 -1.36582 57 86 140 255 
-2.77161 -3.96719 -1.36396 59 82 139 255 
-2.64694 -3.79568 -1.3558 59 81 139 255 
-0 -0 0 68 2 86 255 
-0 -0 0 68 2 86 255 
-0 -0 0 68 2 86 255 
-0 -0 0 68 2 86 255 
-0 -0 0 68 2 86 255 
-0 -0 0 69 4 87 255 
-0 -0 0 68 2 86 255 
-0 -0 0 68 2 86 255 
-34.0612 -48.5709 13.0866 70 10 93 255 
-34.0395 -48.5205 12.4577 70 10 93 255 
-34.0464 -48.4773 11.8693 71 14 97 255 
-34.0728 -48.4771 11.3032 71 13 96 255 
-34.0403 -48.5411 10.8171 71 14 97 255 
-13.9434 -19.8678 4.18819 72 41 121 255 
-34.3379 -48.856 9.71466 69 4 87 255 
-13.8329 -19.6444 3.68508 66 64 134 255 
-13.8176 -19.6964 3.49279 70 10 93 255 
-13.8428 -19.7171 3.26154 72 40 120 255 
-13.8992 -19.7538 3.03847 72 33 115 255 
-13.8542 -19.66 2.80408 72 38 119 255 
-13.8194 -19.6989 2.60982 72 32 113 255 
-13.8372 -19.6872 2.38065 71 45 123 255 
-13.8435 -19.6674 2.15073 71 44 122 255 
-13.8684 -19.6584 1.9272 72 36 117 255 
-14.9472 -21.2987 1.87885 71 17 100 255 
-16.8515 -23.9671 1.83816 72 27 109 255 
-19.0875 -27.0874 1.76563 72 32 113 255 
-21.8877 -31.0028 1.66359 71 14 97 255 
-21.8572 -31.1219 1.36793 71 14 97 255 
-21.8832 -31.1003 1.00907 71 17 100 255 
-21.8996 -31.0665 0.650185 71 19 101 255 
-21.7712 -30.8149 0.296336 70 11 94 255 
-21.7762 -30.9951 -0.00661131 71 19 101 255 
-21.8126 -30.977 -0.363693 71 13 96 255 
-19.8435 -28.129 -0.648952 72 23 105 255 
-19.4858 -27.5597 -0.954584 72 24 106 255 
-18.9425 -26.9318 -1.19584 71 13 96 255 
-18.0414 -25.6023 -1.42773 71 16 99 255 
-18.0511 -25.5786 -1.72291 70 10 93 255 
-18.0565 -25.5287 -2.0166 70 8 92 255 
-15.1605 -21.5467 -1.9116 70 10 93 255 
-12.6446 -17.9305 -1.79614 71 13 96 255 
-10.9788 -15.5398 -1.73827 72 24 106 255 
-9.63158 -13.6174 -1.68246 72 20 103 255 
-8.50648 -12.0763 -1.60992 71 19 101 255 
-7.64502 -10.8369 -1.57203 72 26 108 255 
-6.92988 -9.8052 -1.53812 72 20 103 255 
-6.35068 -8.97213 -1.51357 72 27 109 255 
-5.90775 -8.37771 -1.49732 66 63 133 255 
-5.47377 -7.75339 -1.47606 68 59 132 255 
-5.08823 -7.19675 -1.45438 54 93 141 255 
-4.77704 -6.74893 -1.44606 58 83 139 255 
-4.49713 -6.3679 -1.43079 49 103 142 255 
-4.24357 -6.00418 -1.41851 56 89 140 255 
-4.00341 -5.66238 -1.4071 57 85 140 255 
-3.81429 -5.39076 -1.40728 59 82 139 255 
-3.63007 -5.13445 -1.39518 54 92 141 255 
-3.46425 -4.8979 -1.38944 56 88 140 255 
-3.27754 -4.6323 -1.37177 59 82 139 255 
-3.13248 -4.43043 -1.36895 58 83 139 255 
-3.03373 -4.28305 -1.37206 64 69 136 255 
-2.90809 -4.10549 -1.36504 57 86 140 255 
-2.79312 -3.94618 -1.3626 56 88 140 255 
-2.6652 -3.77231 -1.35327 62 73 137 255 
-0 -0 0 68 2 86 255 
-0 -0 0 68 2 86 255 
-0 -0 0 69 4 87 255 
-0 -0 0 68 2 86 255 
-0 -0 0 69 4 87 255 
-0 -0 0 68 2 86 255 
-0 -0 0 68 2 86 255 
-0 -0 0 68 2 86 255 
-34.3829 -48.3953 13.0959 70 8 92 255 
-34.3575 -48.3402 12.4653 70 11 94 255 
-34.3524 -48.2803 11.8724 71 13 96 255 
-34.3685 -48.2655 11.3028 71 13 96 255 
-34.3529 -48.353 10.8219 71 13 96 255 
-13.9537 -19.6252 4.15504 72 27 109 255 
-13.8946 -19.5137 3.89704 71 42 122 255 
-13.8981 -19.4819 3.67053 69 55 129 255 
-13.855 -19.4943 3.47196 72 35 116 255 
-13.898 -19.5397 3.24625 70 51 127 255 
-13.9078 -19.5106 3.01413 72 40 120 255 
-13.9342 -19.5181 2.79597 72 33 115 255 
-13.906 -19.566 2.60346 72 41 121 255 
-13.9058 -19.529 2.37179 72 40 120 255 
-13.8963 -19.4872 2.14031 72 37 118 255 
-13.9036 -19.4537 1.91547 72 33 115 255 
-15.055 -21.1749 1.87604 72 20 103 255 
-16.9329 -23.7714 1.83109 72 28 110 255 
-19.2789 -27.0055 1.76798 72 20 103 255 
-21.7684 -30.4356 1.6403 71 19 101 255 
-21.8357 -30.6892 1.35477 71 19 101 255 
-21.8316 -30.626 0.99801 71 17 100 255 
-21.8236 -30.5589 0.642352 71 17 100 255 
-21.7474 -30.3839 0.293469 71 17 100 255 
-21.7624 -30.5749 -0.00655005 71 19 101 255 
-21.7845 -30.5373 -0.360093 71 14 97 255 
-19.8245 -27.739 -0.642751 71 19 101 255 
-19.7307 -27.5461 -0.958287 71 16 99 255 
-18.905 -26.531 -1.18318 72 20 103 255 
-18.0037 -25.2188 -1.41248 71 17 100 255 
-18.016 -25.1993 -1.70477 70 10 93 255 
-18.0111 -25.136 -1.99427 70 10 93 255 
-15.3161 -21.4865 -1.91456 70 10 93 255 
-12.8245 -17.9507 -1.80601 71 13 96 255 
-11.0588 -15.4511 -1.7359 72 28 110 255 
-9.66917 -13.4942 -1.67454 71 14 97 255 
-8.58446 -12.0296 -1.61068 72 24 106 255 
-7.70097 -10.7752 -1.56991 72 23 105 255 
-7.02745 -9.81492 -1.54638 72 38 119 255 
-6.41138 -8.94105 -1.51494 72 22 104 255 
-5.96365 -8.34775 -1.49848 66 63 133 255 
-5.53044 -7.73252 -1.47851 66 64 134 255 
-5.13804 -7.17342 -1.456 55 90 140 255 
-4.83214 -6.7387 -1.45019 54 93 141 255 
-4.52925 -6.33059 -1.42863 49 103 142 255 
-4.2809 -5.97882 -1.4187 52 97 141 255 
-4.03922 -5.63931 -1.40749 58 84 140 255 
-3.84388 -5.36248 -1.40603 57 85 140 255 
-3.6598 -5.1097 -1.39454 55 91 141 255 
-3.4931 -4.87497 -1.38899 55 90 140 255 
-3.3059 -4.6121 -1.37177 57 85 140 255 
-3.16864 -4.42374 -1.37287 59 81 139 255 
-3.0577 -4.26122 -1.37105 62 73 137 255 
-2.94166 -4.09933 -1.36896 54 92 141 255 
-2.81391 -3.92427 -1.36097 60 80 139 255 
-2.69109 -3.75979 -1.35467 60 80 139 255 
-0 -0 0 69 4 87 255 
-0 -0 0 68 2 86 255 
-0 -0 0 69 4 87 255 
-0 -0 0 68 2 86 255 
-0 -0 0 68 2 86 255 
-0 -0 0 68 2 86 255 
-0 -0 0 68 2 86 255 
-0 -0 0 68 2 86 255 
-34.6707 -48.1715 13.0926 70 10 93 255 
-34.6615 -48.1396 12.4682 70 10 93 255 
-34.6995 -48.1402 11.8901 71 14 97 255 
-34.7582 -48.1843 11.3336 70 8 92 255 
-34.6995 -48.2115 10.8377 71 13 96 255 
-14.0421 -19.4953 4.14568 70 11 94 255 
-13.9287 -19.3096 3.87328 71 46 124 255 
-13.9826 -19.3482 3.66143 72 27 109 255 
-30.5382 -42.4142 7.58725 71 13 96 255 
-13.9835 -19.4067 3.23833 72 35 116 255 
-13.9831 -19.3637 3.00464 72 37 118 255 
-13.9943 -19.3501 2.78416 72 35 116 255 
-13.9636 -19.3939 2.59192 72 41 121 255 
-13.9642 -19.3585 2.36145 71 45 123 255 
-13.9905 -19.3669 2.13648 71 44 122 255 
-13.9607 -19.2824 1.907 72 35 116 255 
-15.162 -21.0506 1.87323 71 16 99 255 
-17.0644 -23.6476 1.82959 72 28 110 255 
-0 -0 0 68 1 84 255 
-21.7607 -30.0337 1.6258 71 17 100 255 
-21.7688 -30.2012 1.3391 71 17 100 255 
-21.7452 -30.1121 0.985596 72 20 103 255 
-21.7206 -30.0234 0.633886 71 16 99 255 
-21.6875 -29.9107 0.290178 71 17 100 255 
-21.6724 -30.0563 -0.00646732 71 19 101 255 
-21.746 -30.0911 -0.356398 71 16 99 255 
-19.8126 -27.3658 -0.636908 71 17 100 255 
-19.7714 -27.2481 -0.952124 70 10 93 255 
-18.865 -26.1342 -1.17062 71 19 101 255 
-17.9977 -24.8861 -1.4 71 17 100 255 
-17.9647 -24.8044 -1.68549 70 11 94 255 
-17.968 -24.7537 -1.97264 70 10 93 255 
-15.4623 -21.4124 -1.91637 70 8 92 255 
-12.9373 -17.8757 -1.80642 71 14 97 255 
-11.1371 -15.3603 -1.73335 72 26 108 255 
-9.7664 -13.4547 -1.67704 71 16 99 255 
-8.64996 -11.9654 -1.60916 72 27 109 255 
-7.74598 -10.6988 -1.56567 72 23 105 255 
-7.0823 -9.76439 -1.54523 72 28 110 255 
-6.47195 -8.90956 -1.5163 72 20 103 255 
-6.02288 -8.32222 -1.5005 66 63 133 255 
-5.58184 -7.70404 -1.47959 66 63 133 255 
-5.17906 -7.13776 -1.45519 57 86 140 255 
-4.8624 -6.69378 -1.44692 60 80 139 255 
-4.56916 -6.30427 -1.42899 50 102 142 255 
-4.32096 -5.95721 -1.41984 51 98 141 255 
-4.07662 -5.61838 -1.40849 58 84 140 255 
-3.87268 -5.33326 -1.40457 60 79 138 255 
-3.68535 -5.07924 -1.39237 55 91 141 255 
-3.52009 -4.8495 -1.38786 56 89 140 255 
-3.33186 -4.58858 -1.37083 57 85 140 255 
-3.19971 -4.40971 -1.37458 61 77 138 255 
-3.08265 -4.24081 -1.37054 64 70 136 255 
-2.96563 -4.07965 -1.36844 58 83 139 255 
-2.8419 -3.91239 -1.36287 61 78 138 255 
-2.71692 -3.74709 -1.35608 62 73 137 255 
-0 -0 0 69 4 87 255 
-0 -0 0 68 2 86 255 
-0 -0 0 68 2 86 255 
-0 -0 0 68 2 86 255 
-0 -0 0 68 2 86 255 
-0 -0 0 68 2 86 255 
-0 -0 0 69 4 87 255 
-0 -0 0 68 2 86 255 
-34.961 -47.9515 13.0909 70 10 93 255 
-35.0179 -48.0106 12.4902 70 7 90 255 
-35.0041 -47.9398 11.8935 71 17 100 255 
-35.0208 -47.9258 11.3231 71 13 96 255 
-34.9895 -47.9906 10.8361 71 14 97 255 
-35.0271 -48.0056 10.2539 71 13 96 255 
-14.0003 -19.16 3.86043 66 65 134 255 
-31.0351 -42.3938 8.05846 71 14 97 255 
-30.8906 -42.3531 7.6101 71 13 96 255 
-14.0474 -19.2453 3.22572 72 41 121 255 
-14.0132 -19.1567 2.98579 72 36 117 255 
-14.0106 -19.1244 2.76401 72 32 113 255 
-14.0044 -19.2011 2.57758 72 36 117 255 
-14.0381 -19.2114 2.35397 71 45 123 255 
-14.0332 -19.177 2.12499 72 40 120 255 
-14.0375 -19.1401 1.90141 72 40 120 255 
-15.2832 -20.9467 1.8723 71 13 96 255 
-17.218 -23.5545 1.83053 72 27 109 255 
-21.7729 -29.7209 1.96309 70 8 92 255 
-21.7909 -29.6902 1.61441 70 11 94 255 
-21.7092 -29.7321 1.32418 71 14 97 255 
-21.7537 -29.7377 0.977691 71 19 101 255 
-21.7821 -29.7226 0.630346 70 8 92 255 
-21.6261 -29.4442 0.286934 71 17 100 255 
-21.6293 -29.6119 -0.00640012 72 20 103 255 
-21.6355 -29.5544 -0.351608 71 16 99 255 
-19.7329 -26.9067 -0.629029 71 17 100 255 
-19.2343 -26.1686 -0.918511 70 8 92 255 
-18.7891 -25.6953 -1.1561 72 22 104 255 
-17.9576 -24.5125 -1.38515 71 16 99 255 
-17.9175 -24.4224 -1.66697 71 16 99 255 
-17.97 -24.4395 -1.95636 70 10 93 255 
-15.6022 -21.3292 -1.91746 70 11 94 255 
-13.0344 -17.7791 -1.8047 71 13 96 255 
-11.217 -15.2725 -1.73117 72 24 106 255 
-9.88178 -13.4394 -1.68266 72 28 110 255 
-8.70383 -11.8856 -1.60558 72 24 106 255 
-7.79562 -10.6295 -1.56249 72 24 106 255 
-7.13327 -9.70876 -1.54333 72 37 118 255 
-6.52415 -8.86648 -1.51576 72 27 109 255 
-6.06915 -8.27872 -1.49934 67 62 133 255 
-5.60445 -7.63619 -1.47314 65 66 135 255 
-5.22626 -7.11062 -1.45617 60 80 139 255 
-4.90163 -6.66144 -1.4464 53 95 141 255 
-4.61183 -6.28166 -1.43025 50 101 142 255 
-4.35627 -5.929 -1.41946 51 99 141 255 
-4.10695 -5.58774 -1.4071 56 88 140 255 
-3.90823 -5.31333 -1.40561 56 89 140 255 
-3.71066 -5.04867 -1.3902 57 86 140 255 
-3.55381 -4.8333 -1.38944 55 91 141 255 
-3.37608 -4.58998 -1.37741 58 83 139 255 
-3.22958 -4.3939 -1.3758 58 84 140 255 
-3.10632 -4.2187 -1.36953 64 70 136 255 
-2.97916 -4.04583 -1.3632 60 80 139 255 
-2.8573 -3.88325 -1.3588 61 78 138 255 
-2.74214 -3.73345 -1.3572 62 73 137 255 
-0 -0 0 69 4 87 255 
-0 -0 0 69 4 87 255 
-0 -0 0 68 2 86 255 
-0 -0 0 68 2 86 255 
-0 -0 0 68 2 86 255 
-0 -0 0 68 2 86 255 
-0 -0 0 68 2 86 255 
-0 -0 0 68 2 86 255 
-35.3265 -47.8335 13.1176 70 11 94 255 
-35.306 -47.787 12.4882 70 8 92 255 
-35.311 -47.7423 11.898 71 14 97 255 
-35.3124 -47.7076 11.3225 70 8 92 255 
-35.3043 -47.8035 10.8426 70 11 94 255 
-14.0437 -19.0013 4.07699 72 22 104 255 
-14.0876 -19.0333 3.85224 68 57 131 255 
-31.4206 -42.3725 8.0909 71 13 96 255 
-25.7086 -34.7978 6.28076 70 8 92 255 
-14.0986 -19.0687 3.21056 72 33 115 255 
-14.0927 -19.0193 2.97781 71 42 122 255 
-14.0999 -19.0006 2.75857 72 33 115 255 
-14.0617 -19.0332 2.56658 72 38 119 255 
-14.0782 -19.0201 2.34107 71 45 123 255 
-14.1079 -19.0329 2.11857 72 40 120 255 
-14.0738 -18.9448 1.89055 72 36 117 255 
-15.4031 -20.8413 1.87129 71 13 96 255 
-17.2779 -23.3346 1.82163 72 28 110 255 
-0 -0 0 68 1 84 255 
-0 -0 0 68 1 84 255 
-0 -0 0 68 1 84 255 
-0 -0 0 68 1 84 255 
-0 -0 0 68 1 84 255 
-21.5903 -29.0205 0.284091 71 19 101 255 
-21.5994 -29.1932 -0.00633816 71 19 101 255 
-21.6205 -29.1569 -0.34845 71 16 99 255 
-19.6753 -26.4858 -0.621998 72 22 104 255 
-18.9242 -25.4183 -0.896233 72 20 103 255 
-18.7876 -25.3651 -1.14641 72 22 104 255 
-18.0487 -24.3224 -1.38065 70 8 92 255 
-17.8812 -24.062 -1.64982 70 10 93 255 
-17.8943 -24.0263 -1.93203 71 13 96 255 
-15.6971 -21.1849 -1.91312 70 10 93 255 
-13.1349 -17.6876 -1.80356 71 14 97 255 
-11.3128 -15.2065 -1.73154 72 26 108 255 
-9.94266 -13.3498 -1.67905 72 28 110 255 
-8.79614 -11.8583 -1.60916 72 26 108 255 
-7.89682 -10.6301 -1.56967 72 20 103 255 
-7.2081 -9.68549 -1.54663 72 20 103 255 
-6.56718 -8.8112 -1.51317 72 37 118 255 
-6.1098 -8.22782 -1.49689 67 61 132 255 
-5.63411 -7.57866 -1.46868 66 64 134 255 
-5.2751 -7.08554 -1.45763 53 95 141 255 
-4.93947 -6.62729 -1.44554 52 96 141 255 
-4.64736 -6.2493 -1.42935 50 101 142 255 
-4.38846 -5.89665 -1.41813 52 97 141 255 
-4.13472 -5.55378 -1.40491 61 78 138 255 
-3.94485 -5.29474 -1.40707 56 88 140 255 
-3.75323 -5.04147 -1.39454 59 82 139 255 
-3.57817 -4.80438 -1.38741 56 89 140 255 
-3.39314 -4.55437 -1.37294 56 88 140 255 
-3.25243 -4.36856 -1.37409 60 79 138 255 
-3.1252 -4.19025 -1.36649 63 71 136 255 
-3.00796 -4.03289 -1.36504 58 84 140 255 
-2.88509 -3.87104 -1.3607 62 76 138 255 
-2.76442 -3.71578 -1.35692 65 66 135 255 
-0 -0 0 68 2 86 255 
-0 -0 0 68 2 86 255 
-0 -0 0 68 2 86 255 
-0 -0 0 68 2 86 255 
-0 -0 0 68 2 86 255 
-0 -0 0 68 2 86 255 
-0 -0 0 68 2 86 255 
-0 -0 0 68 2 86 255 
-35.658 -47.6675 13.1318 70 8 92 255 
-35.6144 -47.5906 12.4937 70 10 93 255 
-35.5992 -47.5192 11.8966 71 13 96 255 
-35.6769 -47.5867 11.3456 70 10 93 255 
-35.6129 -47.6072 10.8474 71 16 99 255 
-14.1169 -18.8572 4.06458 70 50 126 255 
-14.1361 -18.8557 3.83378 72 29 111 255 
-31.8231 -42.3693 8.12744 70 11 94 255 
-25.921 -34.6386 6.28062 71 19 101 255 
-14.1613 -18.9096 3.19835 72 35 116 255 
-14.1942 -18.9126 2.97469 72 37 118 255 
-14.1816 -18.8677 2.75185 72 35 116 255 
-14.1586 -18.9203 2.56302 72 38 119 255 
-14.1522 -18.8769 2.33408 71 45 123 255 
-14.1527 -18.8504 2.10789 71 42 122 255 
-14.1287 -18.7769 1.88241 72 31 112 255 
-15.5218 -20.7344 1.87021 71 13 96 255 
-17.3878 -23.1842 1.81819 72 26 108 255 
-18.4263 -24.5159 1.63411 69 4 87 255 
-0 -0 0 68 1 84 255 
-0 -0 0 68 1 84 255 
-0 -0 0 68 1 84 255 
-0 -0 0 68 2 86 255 
-21.5568 -28.6072 0.281335 71 19 101 255 
-21.6108 -28.8369 -0.00628947 71 17 100 255 
-21.2213 -28.2545 -0.339215 71 13 96 255 
-19.6655 -26.1361 -0.616608 72 22 104 255 
-18.6789 -24.7702 -0.877405 71 16 99 255 
-18.7444 -24.9847 -1.1344 72 26 108 255 
-17.8921 -23.8047 -1.35747 70 8 92 255 
-17.7673 -23.6048 -1.62592 70 10 93 255 
-17.7745 -23.5623 -1.90346 70 10 93 255 
-15.9472 -21.2486 -1.92766 70 8 92 255 
-13.2564 -17.6242 -1.80536 71 16 99 255 
-11.4185 -15.1535 -1.73345 72 27 109 255 
-10.022 -13.2854 -1.67865 72 28 110 255 
-8.86336 -11.797 -1.60819 71 19 101 255 
-8.03474 -10.6782 -1.58403 72 29 111 255 
-7.25068 -9.6189 -1.54307 71 19 101 255 
-6.65753 -8.81896 -1.52149 72 37 118 255 
-6.17028 -8.20362 -1.49934 67 61 132 255 
-5.67753 -7.54 -1.46791 64 70 136 255 
-5.306 -7.0365 -1.45421 58 84 140 255 
-4.98004 -6.59686 -1.44554 55 90 140 255 
-4.68325 -6.21753 -1.42863 51 99 141 255 
-4.43284 -5.88059 -1.42079 52 97 141 255 
-4.16695 -5.52596 -1.40431 57 86 140 255 
-3.98257 -5.27746 -1.40894 54 92 141 255 
-3.77998 -5.01288 -1.39302 58 83 139 255 
-3.60758 -4.78233 -1.38741 57 86 140 255 
-3.42044 -4.53269 -1.37271 55 91 141 255 
-3.278 -4.34697 -1.3736 57 86 140 255 
-3.15552 -4.17717 -1.36852 60 79 138 255 
-3.04545 -4.0313 -1.3708 58 83 139 255 
-2.90879 -3.85327 -1.3607 60 79 138 255 
-2.79236 -3.70565 -1.35945 66 65 134 255 
-0 -0 0 68 2 86 255 
-0 -0 0 68 2 86 255 
-0 -0 0 68 2 86 255 
-0 -0 0 68 2 86 255 
-0 -0 0 69 4 87 255 
-0 -0 0 68 2 86 255 
-0 -0 0 68 2 86 255 
-51.349 -67.7199 19.4645 69 4 87 255 
-35.9421 -47.4377 13.129 70 8 92 255 
-35.982 -47.4718 12.5203 70 11 94 255 
-35.995 -47.4382 11.9314 71 13 96 255 
-35.9665 -47.3645 11.345 71 14 97 255 
-35.9209 -47.4097 10.8524 71 14 97 255 
-14.1692 -18.687 4.04655 66 65 134 255 
-14.1888 -18.6861 3.81692 70 11 94 255 
-32.0956 -42.1906 8.13077 70 11 94 255 
-26.249 -34.6319 6.30849 72 20 103 255 
-14.2274 -18.7568 3.18722 72 37 118 255 
-14.2301 -18.7201 2.95809 72 38 119 255 
-14.2574 -18.7282 2.74421 72 32 113 255 
-14.1843 -18.7142 2.54685 72 35 116 255 
-14.2004 -18.7009 2.32306 71 44 122 255 
-14.206 -18.6816 2.09871 71 44 122 255 
-14.2237 -18.6637 1.87977 72 35 116 255 
-15.6095 -20.5871 1.86553 71 13 96 255 
-17.5291 -23.0763 1.81813 72 29 111 255 
-18.5909 -24.4214 1.63538 69 4 87 255 
-0 -0 0 68 2 86 255 
-0 -0 0 68 2 86 255 
-0 -0 0 68 1 84 255 
-0 -0 0 68 2 86 255 
-21.582 -28.278 0.279395 71 16 99 255 
-21.5092 -28.3373 -0.00620918 72 22 104 255 
-21.0849 -27.7171 -0.33431 71 19 101 255 
-19.5849 -25.6992 -0.609125 72 22 104 255 
-18.8318 -24.6567 -0.877462 71 19 101 255 
-18.7171 -24.6321 -1.12358 72 22 104 255 
-17.9695 -23.6047 -1.35232 70 11 94 255 
-17.792 -23.3381 -1.61504 71 13 96 255 
-17.7728 -23.2617 -1.88795 71 16 99 255 
-16.0447 -21.1074 -1.92375 70 11 94 255 
-13.383 -17.5671 -1.80788 71 13 96 255 
-11.5167 -15.0903 -1.73426 72 27 109 255 
-10.1063 -13.2276 -1.67915 72 28 110 255 
-8.93558 -11.7424 -1.60819 71 16 99 255 
-8.09529 -10.6224 -1.58309 72 24 106 255 
-7.32822 -9.59867 -1.54701 72 24 106 255 
-6.73498 -8.80864 -1.52681 72 38 119 255 
-6.2271 -8.17427 -1.50093 67 61 132 255 
-5.7165 -7.49559 -1.46607 68 58 131 255 
-5.34009 -6.99204 -1.45177 59 82 139 255 
-5.02281 -6.56931 -1.44623 52 97 141 255 
-4.71892 -6.18554 -1.42791 54 93 141 255 
-4.46407 -5.84703 -1.41927 52 96 141 255 
-4.21089 -5.51353 -1.40769 54 93 141 255 
-4.00419 -5.23894 -1.40519 56 89 140 255 
-3.82193 -5.00434 -1.39713 55 91 141 255 
-3.64218 -4.76707 -1.38944 55 90 140 255 
-3.44759 -4.51084 -1.37247 57 86 140 255 
-3.31992 -4.34681 -1.37996 58 84 140 255 
-3.18168 -4.1585 -1.36877 61 77 138 255 
-3.06778 -4.00947 -1.36975 60 80 139 255 
-2.93764 -3.84223 -1.36314 59 81 139 255 
-2.82087 -3.69607 -1.36226 66 63 133 255 
-0 -0 0 68 2 86 255 
-0 -0 0 68 2 86 255 
-0 -0 0 68 2 86 255 
-0 -0 0 68 2 86 255 
-0 -0 0 68 2 86 255 
-0 -0 0 68 2 86 255 
-0 -0 0 69 4 87 255 
-0 -0 0 69 4 87 255 
-36.2438 -47.2309 13.1331 70 11 94 255 
-36.2971 -47.282 12.5287 70 10 93 255 
-36.3445 -47.2934 11.9508 71 13 96 255 
-36.2924 -47.1897 11.3562 71 13 96 255 
-36.2214 -47.2017 10.8555 71 14 97 255 
-14.2596 -18.5684 4.03975 68 58 131 255 
-32.4808 -42.2352 8.66775 70 10 93 255 
-26.7176 -34.6773 6.71432 70 10 93 255 
-26.5279 -34.5573 6.32444 71 16 99 255 
-14.2619 -18.5647 3.16938 71 42 122 255 
-14.2503 -18.5098 2.93861 72 37 118 255 
-14.2938 -18.5389 2.72927 72 40 120 255 
-14.2668 -18.585 2.54113 71 44 122 255 
-14.2681 -18.5527 2.31548 71 47 125 255 
-14.3003 -18.568 2.09577 71 42 122 255 
-14.2831 -18.505 1.87259 72 36 117 255 
-15.7179 -20.468 1.86344 70 10 93 255 
-17.6691 -22.9667 1.818 72 29 111 255 
-18.755 -24.3259 1.63666 70 7 90 255 
-0 -0 0 68 1 84 255 
-0 -0 0 68 1 84 255 
-0 -0 0 68 2 86 255 
-0 -0 0 68 1 84 255 
-21.4799 -27.7891 0.27586 71 19 101 255 
-21.4517 -27.9043 -0.00614304 72 20 103 255 
-21.2021 -27.5191 -0.333485 71 16 99 255 
-19.551 -25.3308 -0.603225 72 23 105 255 
-19.3393 -25.0016 -0.893944 72 20 103 255 
-18.6784 -24.2705 -1.11229 71 13 96 255 
-18.0542 -23.4164 -1.34786 70 11 94 255 
-17.7701 -23.0151 -1.6002 72 24 106 255 
-17.7533 -22.9431 -1.87089 71 19 101 255 
-16.1812 -21.0181 -1.92462 70 10 93 255 
-13.4905 -17.4847 -1.80788 70 10 93 255 
-11.5652 -14.9626 -1.72771 72 22 104 255 
-10.2202 -13.2078 -1.68457 72 29 111 255 
-9.0111 -11.6921 -1.60884 71 19 101 255 
-8.13484 -10.5395 -1.57815 72 20 103 255 
-7.38273 -9.54803 -1.54612 72 22 104 255 
-6.79376 -8.77342 -1.5279 72 29 111 255 
-6.27714 -8.1359 -1.50093 66 65 134 255 
-5.75815 -7.4549 -1.46499 69 56 130 255 
-5.39195 -6.97085 -1.45421 60 80 139 255 
-5.06363 -6.53914 -1.4464 52 97 141 255 
-4.7628 -6.16426 -1.42971 53 94 141 255 
-4.48425 -5.79934 -1.41435 51 98 141 255 
-4.24824 -5.49224 -1.40889 56 88 140 255 
-4.01829 -5.19107 -1.39894 57 86 140 255 
-3.85913 -4.98929 -1.39952 57 85 140 255 
-3.66719 -4.73924 -1.38786 53 94 141 255 
-3.47461 -4.48883 -1.37224 56 88 140 255 
-3.33941 -4.31715 -1.37703 55 91 141 255 
-3.21365 -4.14731 -1.37155 61 77 138 255 
-3.09883 -3.99896 -1.37263 61 78 138 255 
-2.9535 -3.81424 -1.35962 59 81 139 255 
-2.83763 -3.6711 -1.35945 62 73 137 255 
-0 -0 0 68 2 86 255 
-0 -0 0 68 2 86 255 
-0 -0 0 68 2 86 255 
-0 -0 0 69 4 87 255 
-0 -0 0 68 2 86 255 
-0 -0 0 68 2 86 255 
-0 -0 0 68 2 86 255 
-0 -0 0 69 4 87 255 
-36.6162 -47.1148 13.1631 70 11 94 255 
-36.6243 -47.107 12.5416 70 10 93 255 
-36.616 -47.0463 11.9449 71 13 96 255 
-36.6259 -47.0235 11.3701 70 10 93 255 
-36.5507 -47.0306 10.8675 71 16 99 255 
-14.3158 -18.4067 4.0236 72 28 110 255 
-32.8637 -42.1948 8.70066 70 10 93 255 
-26.9329 -34.5166 6.71508 71 16 99 255 
-26.8288 -34.5087 6.34555 71 14 97 255 
-14.35 -18.444 3.16374 72 38 119 255 
-14.2971 -18.3367 2.92501 72 38 119 255 
-14.3143 -18.3318 2.71167 72 36 117 255 
-14.3159 -18.414 2.5297 71 42 122 255 
-14.3426 -18.4145 2.30918 70 48 126 255 
-14.3282 -18.37 2.0833 70 48 126 255 
-14.3264 -18.3275 1.86348 72 31 112 255 
-15.8224 -20.3444 1.86099 70 10 93 255 
-17.7459 -22.776 1.81149 72 29 111 255 
-18.8609 -24.1552 1.63294 70 11 94 255 
-21.1531 -27.0413 1.50497 71 14 97 255 
-0 -0 0 68 1 84 255 
-0 -0 0 68 2 86 255 
-21.1424 -27.0674 0.587519 70 7 90 255 
-21.2229 -27.1111 0.270418 71 16 99 255 
-21.394 -27.4787 -0.00607811 71 19 101 255 
-21.3225 -27.327 -0.332736 71 19 101 255 
-19.517 -24.9685 -0.597439 72 23 105 255 
-19.4985 -24.8904 -0.894226 71 14 97 255 
-18.6267 -23.8985 -1.10046 70 11 94 255 
-18.2449 -23.3658 -1.35137 71 13 96 255 
-17.7197 -22.661 -1.58311 72 24 106 255 
-17.7387 -22.6358 -1.85467 71 13 96 255 
-16.3779 -21.0057 -1.93266 71 13 96 255 
-13.6147 -17.4236 -1.81017 71 14 97 255 
-11.6881 -14.9314 -1.73235 72 35 116 255 
-10.2955 -13.1378 -1.68367 72 29 111 255 
-9.13466 -11.7032 -1.61804 71 17 100 255 
-8.20424 -10.4957 -1.57909 72 23 105 255 
-7.41611 -9.47054 -1.54091 72 28 110 255 
-6.85541 -8.7417 -1.52967 72 28 110 255 
-6.33425 -8.10659 -1.50267 66 63 133 255 
-5.80257 -7.41787 -1.46468 66 64 134 255 
-5.44618 -6.95239 -1.45731 59 81 139 255 
-5.10791 -6.51337 -1.44761 52 96 141 255 
-4.81266 -6.15041 -1.43332 50 100 142 255 
-4.52943 -5.78408 -1.41738 53 94 141 255 
-4.29093 -5.47764 -1.41187 54 93 141 255 
-4.05731 -5.17555 -1.40144 55 91 141 255 
-3.88967 -4.96551 -1.39952 53 95 141 255 
-3.6962 -4.71665 -1.38786 55 91 141 255 
-3.51169 -4.47967 -1.376 53 94 141 255 
-3.35806 -4.28666 -1.37384 58 83 139 255 
-3.23785 -4.12599 -1.37105 61 78 138 255 
-3.10246 -3.9533 -1.36346 62 73 137 255 
-2.97447 -3.79301 -1.35853 62 76 138 255 
-2.86779 -3.66344 -1.36311 62 76 138 255 
-0 -0 0 69 4 87 255 
-0 -0 0 69 4 87 255 
-0 -0 0 68 2 86 255 
-0 -0 0 68 2 86 255 
-0 -0 0 69 4 87 255 
-0 -0 0 68 2 86 255 
-0 -0 0 69 4 87 255 
-0 -0 0 68 2 86 255 
-36.8871 -46.867 13.1568 70 7 90 255 
-36.9139 -46.883 12.5421 71 13 96 255 
-36.9161 -46.8361 11.9489 71 13 96 255 
-36.9253 -46.8125 11.3737 71 13 96 255 
-14.4508 -18.3606 4.26304 71 19 101 255 
-14.3193 -18.1799 3.99316 70 8 92 255 
-33.1532 -42.0318 8.70885 70 7 90 255 
-14.3059 -18.1041 3.53909 72 20 103 255 
-14.4019 -18.2918 3.37973 72 20 103 255 
-14.4003 -18.2762 3.15006 72 40 120 255 
-14.4057 -18.244 2.92426 72 36 117 255 
-14.4075 -18.2195 2.70808 72 33 115 255 
-14.3671 -18.2477 2.51892 72 41 121 255 
-14.3727 -18.2215 2.29598 70 50 126 255 
-14.3665 -18.1879 2.07262 70 48 126 255 
-14.425 -18.2221 1.86173 72 28 110 255 
-15.9334 -20.2297 1.8594 71 13 96 255 
-17.8594 -22.6337 1.80886 72 29 111 255 
-19.0627 -24.1072 1.63756 71 14 97 255 
-21.2461 -26.8194 1.49985 72 26 108 255 
-21.2633 -26.9774 1.23554 72 23 105 255 
-21.2643 -26.9296 0.910501 72 27 109 255 
-21.2833 -26.9058 0.586834 72 22 104 255 
-21.295 -26.862 0.269232 72 22 104 255 
-21.2254 -26.9197 -0.00598316 72 22 104 255 
-21.2344 -26.8724 -0.328781 71 17 100 255 
-19.5017 -24.6359 -0.592331 72 24 106 255 
-19.5005 -24.5807 -0.887385 71 13 96 255 
-18.5519 -23.5037 -1.0875 71 14 97 255 
-18.3136 -23.1594 -1.3459 71 14 97 255 
-17.6551 -22.2951 -1.56509 72 22 104 255 
-17.6663 -22.2607 -1.83279 72 20 103 255 
-16.4855 -20.8782 -1.9302 71 13 96 255 
-13.8191 -17.4632 -1.82306 71 13 96 255 
-11.7777 -14.857 -1.73208 72 23 105 255 
-10.3667 -13.0627 -1.68216 72 26 108 255 
-9.18657 -11.6219 -1.61458 71 19 101 255 
-8.29623 -10.4802 -1.58439 72 27 109 255 
-7.49811 -9.45516 -1.54587 72 24 106 255 
-6.90152 -8.69016 -1.52803 72 29 111 255 
-6.38756 -8.07223 -1.50353 68 59 132 255 
-5.84982 -7.38445 -1.46514 69 56 130 255 
-5.47709 -6.90416 -1.45421 68 57 131 255 
-5.14472 -6.47805 -1.44675 52 97 141 255 
-4.84725 -6.11691 -1.43242 53 94 141 255 
-4.57277 -5.76618 -1.41984 53 95 141 255 
-4.32263 -5.44891 -1.41127 51 98 141 255 
-4.10359 -5.16894 -1.40644 53 94 141 255 
-3.92249 -4.94461 -1.40038 53 94 141 255 
-3.72083 -4.68854 -1.38628 56 89 140 255 
-3.54938 -4.47098 -1.37999 54 93 141 255 
-3.39575 -4.2804 -1.37849 60 80 139 255 
-3.26371 -4.10681 -1.3713 62 76 138 255 
-3.12605 -3.93343 -1.3632 62 76 138 255 
-3.01385 -3.79504 -1.36586 59 82 139 255 
-2.89141 -3.64728 -1.36367 60 80 139 255 
-0 -0 0 69 4 87 255 
-0 -0 0 68 2 86 255 
-0 -0 0 68 2 86 255 
-0 -0 0 68 2 86 255 
-0 -0 0 68 2 86 255 
-0 -0 0 68 2 86 255 
-0 -0 0 68 2 86 255 
-50.975 -63.9063 18.7224 69 5 89 255 
-37.2768 -46.7689 13.1932 70 7 90 255 
-37.2332 -46.6961 12.553 70 10 93 255 
-37.2921 -46.7206 11.9776 71 13 96 255 
-37.2915 -46.6848 11.398 70 11 94 255 
-14.5387 -18.2408 4.25587 71 42 122 255 
-33.5688 -42.0854 9.28898 71 13 96 255 
-27.5972 -34.5498 7.19355 70 11 94 255 
-14.3816 -17.972 3.53045 72 40 120 255 
-14.4015 -18.0622 3.35358 72 29 111 255 
-14.4362 -18.0922 3.13356 72 37 118 255 
-14.4603 -18.084 2.91278 71 42 122 255 
-14.4848 -18.0881 2.70171 72 41 121 255 
-14.4627 -18.139 2.51612 71 44 122 255 
-14.4352 -18.0715 2.28821 70 48 126 255 
-14.4611 -18.0784 2.07021 71 44 122 255 
-14.4792 -18.0616 1.85438 72 23 105 255 
-16.0423 -20.1128 1.85768 70 11 94 255 
-17.9525 -22.4668 1.80429 72 28 110 255 
-19.2321 -24.0171 1.63943 70 11 94 255 
-21.519 -26.8241 1.50747 72 29 111 255 
-21.434 -26.8535 1.23586 72 28 110 255 
-21.4417 -26.8142 0.911032 72 27 109 255 
-21.4855 -26.8215 0.587861 72 20 103 255 
-21.5333 -26.8229 0.270158 72 22 104 255 
-21.4338 -26.8437 -0.00599538 72 27 109 255 
-21.4145 -26.7611 -0.329021 70 10 93 255 
-19.4255 -24.2326 -0.585489 72 23 105 255 
-19.3955 -24.1427 -0.87585 71 14 97 255 
-18.5473 -23.2037 -1.07887 71 13 96 255 
-18.4285 -23.0131 -1.34394 70 10 93 255 
-17.6135 -21.9644 -1.54943 72 20 103 255 
-17.6356 -21.9442 -1.81561 71 16 99 255 
-16.6295 -20.7969 -1.93208 70 11 94 255 
-13.9235 -17.375 -1.82273 71 13 96 255 
-11.863 -14.7775 -1.73126 71 13 96 255 
-10.4796 -13.0399 -1.68748 72 29 111 255 
-9.26392 -11.5731 -1.61566 72 23 105 255 
-8.34298 -10.4074 -1.58109 72 24 106 255 
-7.5386 -9.38732 -1.54231 72 24 106 255 
-6.95658 -8.64997 -1.52844 72 28 110 255 
-6.43697 -8.03288 -1.50353 67 62 133 255 
-5.8845 -7.33532 -1.46253 69 56 130 255 
-5.50266 -6.84966 -1.44982 68 58 131 255 
-5.18622 -6.44867 -1.44727 56 89 140 255 
-4.88531 -6.08782 -1.4326 53 95 141 255 
-4.60806 -5.73802 -1.41984 53 95 141 255 
-4.35782 -5.42457 -1.41187 52 96 141 255 
-4.13523 -5.14367 -1.40644 56 88 140 255 
-3.94542 -4.91132 -1.39778 54 93 141 255 
-3.74648 -4.66182 -1.38515 52 96 141 255 
-3.57187 -4.44306 -1.37811 55 91 141 255 
-3.42559 -4.26402 -1.37996 56 89 140 255 
-3.29248 -4.09123 -1.37282 61 78 138 255 
-3.15316 -3.91794 -1.36451 60 79 138 255 
-3.03588 -3.77498 -1.36531 58 84 140 255 
-2.91614 -3.63247 -1.3648 60 80 139 255 
-0 -0 0 68 2 86 255 
-0 -0 0 68 2 86 255 
-0 -0 0 68 2 86 255 
-0 -0 0 68 2 86 255 
-0 -0 0 69 4 87 255 
-0 -0 0 68 2 86 255 
-0 -0 0 68 2 86 255 
-0 -0 0 69 4 87 255 
-37.6496 -46.6464 13.2236 69 5 89 255 
-37.5602 -46.5178 12.5667 70 11 94 255 
-37.5959 -46.513 11.9832 71 16 99 255 
-37.6415 -46.5345 11.4175 70 10 93 255 
-14.6071 -18.0976 4.2433 68 57 131 255 
-33.993 -42.0848 9.33472 70 11 94 255 
-27.8086 -34.3798 7.19355 71 13 96 255 
-14.4804 -17.8696 3.52772 67 61 132 255 
-14.4935 -17.9504 3.34927 72 38 119 255 
-14.5046 -17.9509 3.12443 72 37 118 255 
-14.5186 -17.9301 2.90229 72 36 117 255 
-14.5123 -17.8963 2.68631 72 40 120 255 
-14.4801 -17.9338 2.49994 71 42 122 255 
-14.4995 -17.9254 2.28092 71 47 125 255 
-14.4777 -17.8732 2.05685 71 44 122 255 
-14.5263 -17.8943 1.84631 71 16 99 255 
-16.1428 -19.9861 1.85508 70 11 94 255 
-18.0793 -22.3431 1.80323 72 29 111 255 
-19.3841 -23.9048 1.63985 71 17 100 255 
-21.0703 -25.9371 1.46486 72 24 106 255 
-21.2849 -26.3336 1.21792 71 16 99 255 
-21.0742 -26.0257 0.888617 72 22 104 255 
-21.084 -25.9919 0.572502 72 20 103 255 
-21.0913 -25.9446 0.262611 72 22 104 255 
-21.1209 -26.1214 -0.00586291 71 17 100 255 
-20.1769 -24.8998 -0.307653 70 8 92 255 
-19.4024 -23.9018 -0.580362 72 23 105 255 
-19.3591 -23.7968 -0.867595 71 17 100 255 
-18.4781 -22.8284 -1.06667 71 14 97 255 
-18.4246 -22.7211 -1.33347 71 14 97 255 
-17.5969 -21.6699 -1.53624 72 23 105 255 
-17.5514 -21.567 -1.79328 71 13 96 255 
-16.7385 -20.672 -1.92998 70 11 94 255 
-14.0556 -17.3209 -1.82608 71 16 99 255 
-11.9547 -14.706 -1.73144 71 16 99 255 
-10.5978 -13.0225 -1.6936 72 28 110 255 
-9.34227 -11.5253 -1.61696 72 22 104 255 
-8.43735 -10.3938 -1.58686 72 29 111 255 
-7.6505 -9.40784 -1.55336 72 32 113 255 
-7.01765 -8.6171 -1.53022 72 23 105 255 
-6.46993 -7.97326 -1.49978 68 57 131 255 
-5.94622 -7.31978 -1.46668 70 52 128 255 
-5.52715 -6.79433 -1.44526 68 57 131 255 
-5.21947 -6.40909 -1.44554 56 88 140 255 
-4.92319 -6.05849 -1.43278 54 92 141 255 
-4.63761 -5.70278 -1.41813 51 98 141 255 
-4.38299 -5.38785 -1.40928 51 99 141 255 
-4.16547 -5.11668 -1.40603 55 90 140 255 
-3.98226 -4.89535 -1.40017 49 103 142 255 
-3.78239 -4.64782 -1.38786 51 98 141 255 
-3.58741 -4.40673 -1.37365 57 86 140 255 
-3.44925 -4.23992 -1.37898 55 90 140 255 
-3.31875 -4.07245 -1.37332 60 79 138 255 
-3.18384 -3.90675 -1.36739 58 84 140 255 
-3.06628 -3.76524 -1.36857 58 83 139 255 
-2.93837 -3.6145 -1.3648 60 79 138 255 
-0 -0 0 68 2 86 255 
-0 -0 0 68 2 86 255 
-0 -0 0 68 2 86 255 
-0 -0 0 69 4 87 255 
-0 -0 0 68 2 86 255 
-0 -0 0 68 2 86 255 
-0 -0 0 68 2 86 255 
-0 -0 0 69 4 87 255 
-37.8838 -46.3518 13.2057 70 7 90 255 
-37.8871 -46.338 12.5807 70 11 94 255 
-37.9377 -46.3513 12.0013 71 13 96 255 
-37.9388 -46.3179 11.4213 71 14 97 255 
-14.6413 -17.914 4.22122 68 57 131 255 
-14.5361 -17.7722 3.9617 72 28 110 255 
-14.5186 -17.7258 3.72748 71 44 122 255 
-14.5289 -17.7062 3.51301 71 45 123 255 
-14.5319 -17.7738 3.33289 71 45 123 255 
-14.546 -17.7779 3.10981 68 59 132 255 
-14.5679 -17.767 2.89031 72 38 119 255 
-14.591 -17.7693 2.68063 71 44 122 255 
-14.5527 -17.7992 2.49358 71 45 123 255 
-14.5178 -17.7244 2.26665 70 48 126 255 
-14.5422 -17.7294 2.05053 71 42 122 255 
-14.7073 -17.8918 1.85534 71 16 99 255 
-18.1848 -22.2337 2.07402 70 11 94 255 
-18.2091 -22.2232 1.80254 72 27 109 255 
-19.6502 -23.9313 1.64991 71 17 100 255 
-21.1319 -25.6893 1.45816 72 32 113 255 
-21.0929 -25.771 1.19787 72 33 115 255 
-21.1036 -25.7374 0.88318 72 28 110 255 
-21.094 -25.6805 0.568483 72 29 111 255 
-21.1065 -25.6402 0.260836 72 28 110 255 
-21.0508 -25.7105 -0.00579955 72 27 109 255 
-21.0315 -25.6313 -0.318279 71 13 96 255 
-19.3494 -23.5398 -0.574444 72 20 103 255 
-19.3719 -23.5163 -0.861687 71 19 101 255 
-18.4512 -22.5113 -1.05712 72 20 103 255 
-18.416 -22.4278 -1.32286 71 13 96 255 
-17.5304 -21.3193 -1.51899 72 20 103 255 
-17.5501 -21.2972 -1.77976 71 14 97 255 
-16.9416 -20.6622 -1.93873 70 11 94 255 
-14.1363 -17.2036 -1.82282 70 10 93 255 
-12.0814 -14.6769 -1.73672 71 19 101 255 
-10.6541 -12.9288 -1.68989 72 26 108 255 
-9.42732 -11.4855 -1.61945 72 29 111 255 
-8.47196 -10.3065 -1.58144 72 29 111 255 
-7.70808 -9.36072 -1.55336 72 32 113 255 
-7.08237 -8.5884 -1.53281 72 20 103 255 
-6.51496 -7.92882 -1.49891 68 59 132 255 
-6.0017 -7.29613 -1.46929 70 50 126 255 
-5.56184 -6.75191 -1.44347 68 59 132 255 
-5.2681 -6.38834 -1.44813 55 90 140 255 
-4.96652 -6.03576 -1.43459 52 97 141 255 
-4.66502 -5.66512 -1.41586 51 98 141 255 
-4.41534 -5.3601 -1.40909 54 92 141 255 
-4.1943 -5.08801 -1.40519 57 86 140 255 
-4.02029 -4.88062 -1.40298 51 99 141 255 
-3.81331 -4.62753 -1.38876 51 98 141 255 
-3.62427 -4.39664 -1.37741 55 91 141 255 
-3.47026 -4.21268 -1.37703 54 93 141 255 
-3.34121 -4.04902 -1.37231 60 80 139 255 
-3.20223 -3.88044 -1.36504 59 81 139 255 
-3.07279 -3.7263 -1.36125 58 84 140 255 
-2.955 -3.58974 -1.36226 59 81 139 255 
-0 -0 0 68 2 86 255 
-0 -0 0 68 2 86 255 
-0 -0 0 68 2 86 255 
-0 -0 0 69 4 87 255 
-0 -0 0 68 2 86 255 
-50.6924 -61.2508 19.7939 69 5 89 255 
-50.652 -61.1814 18.9664 70 7 90 255 
-50.7699 -61.2996 18.2295 69 5 89 255 
-38.1893 -46.1448 13.2133 69 5 89 255 
-38.2137 -46.1567 12.5949 70 11 94 255 
-38.279 -46.1871 12.0194 71 14 97 255 
-38.2286 -46.0918 11.4231 70 10 93 255 
-14.675 -17.7321 4.19951 72 36 117 255 
-14.5299 -17.5437 3.93059 72 31 112 255 
-14.5389 -17.53 3.705 71 47 125 255 
-14.5627 -17.5271 3.49512 70 50 126 255 
-14.5738 -17.6035 3.31766 70 50 126 255 
-14.6017 -17.6242 3.09854 68 58 131 255 
-14.6177 -17.6063 2.8787 72 40 120 255 
-14.6077 -17.5687 2.66384 71 42 122 255 
-14.583 -17.6147 2.48021 72 38 119 255 
-14.5881 -17.5891 2.26074 71 45 123 255 
-14.5935 -17.5709 2.04251 71 44 122 255 
-14.8289 -17.8158 1.85685 72 20 103 255 
-16.3684 -19.7642 1.85299 70 10 93 255 
-18.3152 -22.075 1.79959 72 27 109 255 
-19.8433 -23.8663 1.65379 71 14 97 255 
-21.277 -25.5446 1.45732 72 28 110 255 
-21.2187 -25.6026 1.19607 72 32 113 255 
-21.2356 -25.5767 0.882119 72 31 112 255 
-21.2607 -25.5621 0.568739 72 31 112 255 
-21.2762 -25.5255 0.260993 72 23 105 255 
-21.1654 -25.5292 -0.00578786 72 28 110 255 
-21.1826 -25.4948 -0.318193 71 16 99 255 
-19.3105 -23.2008 -0.569053 72 24 106 255 
-19.2412 -23.0677 -0.849559 71 17 100 255 
-18.4332 -22.2101 -1.04827 71 13 96 255 
-18.4351 -22.1722 -1.31444 70 11 94 255 
-17.5171 -21.0387 -1.50662 72 26 108 255 
-17.4733 -20.9408 -1.75891 72 22 104 255 
-17.1598 -20.6684 -1.94916 71 14 97 255 
-14.2442 -17.1196 -1.82314 70 11 94 255 
-12.2325 -14.676 -1.74546 71 16 99 255 
-10.7632 -12.8991 -1.69461 72 31 112 255 
-9.50588 -11.4373 -1.62086 72 26 108 255 
-8.53568 -10.2551 -1.58156 72 29 111 255 
-7.73425 -9.27592 -1.54714 72 24 106 255 
-7.13621 -8.54631 -1.53308 72 26 108 255 
-6.55716 -7.88109 -1.49746 68 59 132 255 
-6.04129 -7.25309 -1.46806 69 56 130 255 
-5.6 -6.71387 -1.44265 66 63 133 255 
-5.28763 -6.33245 -1.44279 57 86 140 255 
-4.98457 -5.98251 -1.42917 51 98 141 255 
-4.69655 -5.63262 -1.41491 52 96 141 255 
-4.43496 -5.3171 -1.40491 55 90 140 255 
-4.2198 -5.05542 -1.40332 58 83 139 255 
-4.05454 -4.86111 -1.4045 50 102 142 255 
-3.84101 -4.60329 -1.38853 54 92 141 255 
-3.65679 -4.38103 -1.37952 55 90 140 255 
-3.5035 -4.20025 -1.37996 56 89 140 255 
-3.35668 -4.01731 -1.36852 57 85 140 255 
-3.22474 -3.85924 -1.36451 59 81 139 255 
-3.09374 -3.70516 -1.36043 57 86 140 255 
-2.96837 -3.56122 -1.35833 63 72 137 255 
-0 -0 0 68 2 86 255 
-0 -0 0 68 2 86 255 
-0 -0 0 68 2 86 255 
-0 -0 0 68 2 86 255 
-0 -0 0 69 4 87 255 
-51.1402 -61.0256 19.8221 69 4 87 255 
-0 -0 0 69 4 87 255 
-51.2954 -61.1662 18.2831 69 4 87 255 
-0 -0 0 68 2 86 255 
-38.5723 -46.0121 12.6198 70 8 92 255 
-38.5793 -45.9723 12.0249 71 16 99 255 
-35.239 -41.9607 10.4527 70 7 90 255 
-14.7324 -17.5806 4.18497 72 27 109 255 
-28.8217 -34.3686 7.7396 71 13 96 255 
-14.6341 -17.4261 3.70195 64 70 136 255 
-14.6401 -17.4018 3.488 72 31 112 255 
-14.672 -17.5024 3.31551 71 44 122 255 
-14.679 -17.4979 3.0921 71 45 123 255 
-14.6399 -17.4145 2.86198 71 46 124 255 
-14.6755 -17.4316 2.65666 72 40 120 255 
-14.6429 -17.4677 2.47212 70 50 126 255 
-14.6631 -17.4604 2.25572 71 46 124 255 
-14.6792 -17.4551 2.03948 71 44 122 255 
-14.9078 -17.6887 1.8531 71 17 100 255 
-18.4171 -21.9622 2.06963 70 7 90 255 
-18.4304 -21.9385 1.79765 72 27 109 255 
-20.0749 -23.8457 1.66087 71 16 99 255 
-26.5216 -31.4467 1.8033 69 4 87 255 
-21.3786 -25.4758 1.19625 71 13 96 255 
-21.394 -25.4482 0.882198 70 7 90 255 
-35.3387 -41.9618 0.938429 69 4 87 255 
-0 -0 0 68 1 84 255 
-21.3249 -25.4027 -0.00578873 70 7 90 255 
-0 -0 -0 68 2 86 255 
-19.2186 -22.8044 -0.562211 72 20 103 255 
-19.2359 -22.7758 -0.843141 71 16 99 255 
-18.3898 -21.8831 -1.03814 71 17 100 255 
-18.3945 -21.8493 -1.30196 70 10 93 255 
-17.456 -20.7056 -1.49041 71 17 100 255 
-17.492 -20.7036 -1.74797 71 14 97 255 
-17.2857 -20.562 -1.94908 71 13 96 255 
-14.3849 -17.0745 -1.82771 70 11 94 255 
-12.3435 -14.6258 -1.74846 70 11 94 255 
-10.844 -12.8351 -1.69491 72 29 111 255 
-9.5874 -11.3925 -1.62281 72 36 117 255 
-8.61444 -10.2215 -1.5845 72 27 109 255 
-7.81789 -9.26012 -1.55248 72 29 111 255 
-7.12583 -8.42822 -1.51971 72 22 104 255 
-6.6073 -7.84298 -1.4979 68 57 131 255 
-6.08632 -7.21664 -1.46822 67 62 133 255 
-5.66528 -6.70803 -1.44884 67 61 132 255 
-5.35755 -6.33675 -1.45123 62 73 137 255 
-5.02119 -5.95181 -1.42917 52 96 141 255 
-4.73673 -5.61045 -1.41662 56 89 140 255 
-4.47193 -5.29503 -1.4063 55 91 141 255 
-4.26021 -5.04064 -1.40644 58 84 140 255 
-4.08177 -4.83315 -1.40363 48 105 142 255 
-3.86856 -4.5789 -1.38831 51 98 141 255 
-3.68423 -4.35926 -1.37976 58 83 139 255 
-3.52232 -4.17052 -1.37727 57 86 140 255 
-3.37815 -3.99294 -1.36725 58 84 140 255 
-3.25272 -3.84453 -1.36635 59 81 139 255 
-3.1245 -3.69566 -1.36396 58 84 140 255 
-2.98088 -3.53194 -1.35411 61 78 138 255 
-0 -0 0 68 1 84 255 
-0 -0 0 69 4 87 255 
-0 -0 0 69 4 87 255 
-0 -0 0 68 2 86 255 
-0 -0 0 68 2 86 255 
-0 -0 0 68 2 86 255 
-51.8988 -61.144 19.1508 69 5 89 255 
-51.7719 -60.9707 18.3192 69 4 87 255 
-51.7486 -60.9892 17.6444 69 4 87 255 
-38.8704 -45.7939 12.6252 70 11 94 255 
-38.8994 -45.7803 12.0369 71 13 96 255 
-35.7395 -42.0303 10.5245 69 5 89 255 
-35.5629 -41.9132 10.029 71 13 96 255 
-14.6586 -17.2635 3.9078 72 28 110 255 
-14.6909 -17.2774 3.68942 64 69 136 255 
-22.8182 -26.7873 5.39717 71 13 96 255 
-14.7266 -17.3502 3.30373 72 41 121 255 
-14.7168 -17.3259 3.07761 72 35 116 255 
-14.6983 -17.2677 2.85262 71 45 123 255 
-14.7378 -17.2891 2.64867 72 41 121 255 
-14.7209 -17.3434 2.46727 71 47 125 255 
-14.7049 -17.2935 2.24577 69 53 129 255 
-14.7408 -17.3116 2.03325 71 47 125 255 
-14.974 -17.5476 1.84791 71 14 97 255 
-18.5574 -21.8557 2.07028 71 14 97 255 
-18.52 -21.7725 1.79333 72 28 110 255 
-20.316 -23.8338 1.66869 71 14 97 255 
-26.3793 -30.8914 1.7807 69 4 87 255 
-0 -0 0 68 1 84 255 
-0 -0 0 68 1 84 255 
-0 -0 0 68 2 86 255 
-0 -0 0 68 2 86 255 
-0 -0 -0 68 1 84 255 
-20.6529 -24.2457 -0.305743 70 7 90 255 
-19.1992 -22.4997 -0.557593 71 19 101 255 
-19.2428 -22.5024 -0.837374 71 19 101 255 
-18.3657 -21.5841 -1.02929 71 16 99 255 
-18.3325 -21.5064 -1.28821 71 13 96 255 
-17.4252 -20.4136 -1.47706 72 20 103 255 
-17.4637 -20.4147 -1.73259 71 17 100 255 
-17.3895 -20.4297 -1.94662 70 10 93 255 
-14.5373 -17.042 -1.83375 70 7 90 255 
-12.4369 -14.5543 -1.749 71 16 99 255 
-10.9265 -12.7728 -1.69551 72 29 111 255 
-9.65325 -11.3289 -1.62216 72 35 116 255 
-8.7363 -10.238 -1.59533 72 24 106 255 
-7.8707 -9.20745 -1.55171 72 26 108 255 
-7.19416 -8.40391 -1.52326 72 22 104 255 
-6.6598 -7.80756 -1.49891 68 59 132 255 
-6.14332 -7.19419 -1.47129 69 55 129 255 
-5.71852 -6.68739 -1.45193 66 63 133 255 
-5.35917 -6.26036 -1.44124 66 63 133 255 
-5.06272 -5.92687 -1.43061 51 99 141 255 
-4.76978 -5.57978 -1.41624 53 94 141 255 
-4.51134 -5.27568 -1.40849 53 94 141 255 
-4.28979 -5.01291 -1.40603 53 94 141 255 
-4.10691 -4.80282 -1.40212 46 110 142 255 
-3.90481 -4.5647 -1.39124 52 96 141 255 
-3.6989 -4.32254 -1.37529 58 84 140 255 
-3.55667 -4.15915 -1.38069 58 83 139 255 
-3.40384 -3.97361 -1.36776 59 81 139 255 
-3.27499 -3.82304 -1.36582 59 81 139 255 
-3.14837 -3.67788 -1.3645 57 85 140 255 
-3.00561 -3.51723 -1.35552 62 73 137 255 
-0 -0 0 69 4 87 255 
-0 -0 0 68 2 86 255 
-0 -0 0 68 2 86 255 
-0 -0 0 68 2 86 255 
-0 -0 0 68 2 86 255 
-0 -0 0 68 2 86 255 
-0 -0 0 69 4 87 255 
-52.3986 -60.9468 18.4083 69 5 89 255 
-52.4209 -61.0187 17.7456 69 5 89 255 
-39.1678 -45.5746 12.6307 71 13 96 255 
-39.2237 -45.5921 12.0504 71 14 97 255 
-36.0134 -41.8295 10.5293 71 13 96 255 
-29.6171 -34.4747 8.29239 70 7 90 255 
-14.7392 -17.144 3.90117 68 58 131 255 
-14.7709 -17.157 3.683 70 50 126 255 
-23.0274 -26.6992 5.40778 71 19 101 255 
-14.7863 -17.2054 3.29338 71 44 122 255 
-14.777 -17.1819 3.06809 72 41 121 255 
-14.7858 -17.1562 2.84912 71 45 123 255 
-14.7968 -17.1442 2.64033 71 45 123 255 
-14.7525 -17.1661 2.45487 71 44 122 255 
-14.7614 -17.1456 2.23829 70 48 126 255 
-14.7772 -17.1401 2.02372 71 45 123 255 
-16.5483 -19.1532 2.02766 71 16 99 255 
-18.5936 -21.6279 2.05948 71 16 99 255 
-18.6376 -21.6403 1.79183 72 24 106 255 
-20.5467 -23.807 1.67561 71 19 101 255 
-20.768 -24.0203 1.39194 69 5 89 255 
-0 -0 0 68 2 86 255 
-0 -0 0 68 1 84 255 
-0 -0 0 68 2 86 255 
-20.7643 -23.9991 0.249251 69 5 89 255 
-0 -0 -0 68 1 84 255 
-20.7248 -24.0299 -0.30462 72 23 105 255 
-19.1891 -22.2105 -0.553334 72 22 104 255 
-19.1698 -22.1406 -0.828271 71 17 100 255 
-18.3034 -21.2454 -1.01847 71 19 101 255 
-18.2631 -21.1606 -1.27418 71 17 100 255 
-17.4215 -20.1574 -1.46624 72 24 106 255 
-17.4128 -20.1042 -1.71527 72 26 108 255 
-17.4065 -20.1972 -1.93461 71 17 100 255 
-14.6383 -16.9488 -1.83334 70 10 93 255 
-12.5175 -14.4679 -1.74782 71 17 100 255 
-11.0216 -12.7251 -1.69812 72 32 113 255 
-9.72129 -11.268 -1.62195 71 44 122 255 
-8.74831 -10.1255 -1.58615 72 28 110 255 
-7.93224 -9.16499 -1.55273 72 26 108 255 
-7.25922 -8.37533 -1.52612 72 22 104 255 
-6.72245 -7.78377 -1.50223 68 59 132 255 
-6.19122 -7.16085 -1.47221 68 57 131 255 
-5.76849 -6.66262 -1.45421 68 59 132 255 
-5.3962 -6.22587 -1.44089 68 57 131 255 
-5.09835 -5.89495 -1.43043 53 94 141 255 
-4.80265 -5.54893 -1.41586 57 86 140 255 
-4.55582 -5.26198 -1.41227 53 95 141 255 
-4.32111 -4.98724 -1.40624 57 85 140 255 
-4.12735 -4.7672 -1.39908 50 101 142 255 
-3.92318 -4.5296 -1.38786 53 95 141 255 
-3.72726 -4.30196 -1.376 57 85 140 255 
-3.58212 -4.13725 -1.38069 60 80 139 255 
-3.42689 -3.95119 -1.36725 57 85 140 255 
-3.28827 -3.7912 -1.36163 59 82 139 255 
-3.17781 -3.6665 -1.36748 57 85 140 255 
-3.03719 -3.51033 -1.36002 62 73 137 255 
-0 -0 0 68 2 86 255 
-0 -0 0 69 4 87 255 
-0 -0 0 68 2 86 255 
-0 -0 0 68 2 86 255 
-0 -0 0 68 2 86 255 
-0 -0 0 68 2 86 255 
-52.9466 -60.8489 19.2604 69 4 87 255 
-52.9789 -60.8624 18.4806 69 5 89 255 
-52.9379 -60.8609 17.7939 69 5 89 255 
-39.547 -45.4486 12.6628 70 11 94 255 
-36.4365 -41.8305 11.1151 69 5 89 255 
-36.4662 -41.8336 10.5865 70 8 92 255 
-14.7726 -16.9836 4.10689 70 10 93 255 
-14.8118 -17.0161 3.89267 62 73 137 255 
-14.8 -16.979 3.66421 72 33 115 255 
-23.2694 -26.6475 5.42613 72 22 104 255 
-14.8221 -17.0345 3.27801 70 50 126 255 
-14.8066 -17.0043 3.05252 72 41 121 255 
-14.8164 -16.9799 2.83489 71 45 123 255 
-14.8233 -16.9633 2.62643 72 40 120 255 
-14.7949 -17.0032 2.44452 71 46 124 255 
-14.8114 -16.9917 2.23002 70 52 128 255 
-14.8271 -16.9861 2.01624 69 56 130 255 
-16.7062 -19.0979 2.03261 71 19 101 255 
-18.724 -21.5112 2.05926 72 20 103 255 
-18.7353 -21.4857 1.78851 72 26 108 255 
-20.7975 -23.8007 1.68412 72 20 103 255 
-20.9111 -23.8879 1.39168 72 20 103 255 
-20.8318 -23.9159 1.14082 71 16 99 255 
-20.8683 -23.915 0.842224 72 22 104 255 
-20.9137 -23.9253 0.54358 71 17 100 255 
-20.8802 -23.8359 0.248882 72 22 104 255 
-20.7818 -23.8501 -0.00552117 72 22 104 255 
-20.6174 -23.6108 -0.300905 71 19 101 255 
-19.1802 -21.9267 -0.549187 72 22 104 255 
-19.1419 -21.8361 -0.82126 71 16 99 255 
-18.3125 -20.9941 -1.01179 72 23 105 255 
-18.3361 -20.9835 -1.27026 71 19 101 255 
-17.4318 -19.9209 -1.45678 72 23 105 255 
-17.4049 -19.8477 -1.70247 72 26 108 255 
-17.3864 -19.9254 -1.91876 72 24 106 255 
-14.7131 -16.8256 -1.82975 71 13 96 255 
-12.6244 -14.4118 -1.75037 70 11 94 255 
-11.0935 -12.6505 -1.69722 72 32 113 255 
-9.78174 -11.1984 -1.62054 72 33 115 255 
-8.81355 -10.0754 -1.58674 72 23 105 255 
-7.97329 -9.09899 -1.54981 72 29 111 255 
-7.30132 -8.3202 -1.52421 72 23 105 255 
-6.79484 -7.77068 -1.50773 66 64 134 255 
-6.24871 -7.13834 -1.47544 68 58 131 255 
-5.81511 -6.63377 -1.45568 68 57 131 255 
-5.43819 -6.19708 -1.44192 68 59 132 255 
-5.12795 -5.85616 -1.42863 52 97 141 255 
-4.83855 -5.52157 -1.41643 55 91 141 255 
-4.58673 -5.23245 -1.41187 51 99 141 255 
-4.37549 -4.98783 -1.41395 50 101 142 255 
-4.15331 -4.73811 -1.398 48 106 142 255 
-3.94704 -4.50105 -1.3865 53 95 141 255 
-3.75936 -4.28559 -1.37811 57 85 140 255 
-3.62534 -4.1356 -1.38754 59 82 139 255 
-3.42937 -3.90537 -1.35865 59 82 139 255 
-3.30892 -3.76806 -1.36058 61 78 138 255 
-3.19961 -3.64621 -1.36721 56 89 140 255 
-3.07574 -3.51112 -1.36761 64 70 136 255 
-0 -0 0 69 4 87 255 
-0 -0 0 68 2 86 255 
-0 -0 0 68 2 86 255 
-0 -0 0 69 4 87 255 
-0 -0 0 68 2 86 255 
-0 -0 0 68 2 86 255 
-53.6616 -60.9119 19.3842 69 5 89 255 
-53.5409 -60.7511 18.5463 69 5 89 255 
-53.4768 -60.724 17.8495 69 4 87 255 
-39.8445 -45.2271 12.669 71 13 96 255 
-36.7548 -41.6767 11.134 70 10 93 255 
-36.8002 -41.6974 10.609 70 8 92 255 
-14.8154 -16.8232 4.09002 72 37 118 255 
-14.841 -16.8399 3.87311 66 65 134 255 
-23.6079 -26.7504 5.80413 71 16 99 255 
-23.5019 -26.5827 5.4422 72 24 106 255 
-14.8969 -16.9098 3.27155 71 46 124 255 
-14.8864 -16.8856 3.04756 71 44 122 255 
-14.8816 -16.8448 2.82753 71 45 123 255 
-14.8883 -16.8281 2.6196 72 38 119 255 
-14.8589 -16.8666 2.43794 71 46 124 255 
-14.8686 -16.8475 2.22303 70 50 126 255 
-14.8848 -16.8425 2.01 70 50 126 255 
-16.7563 -18.9196 2.02454 72 27 109 255 
-18.8589 -21.3996 2.05962 71 19 101 255 
-18.8489 -21.3501 1.78682 72 24 106 255 
-21.0001 -23.737 1.6887 72 20 103 255 
-21.0235 -23.721 1.38944 72 20 103 255 
-20.922 -23.724 1.13776 71 17 100 255 
-21.0246 -23.7978 0.842622 71 19 101 255 
-21.0263 -23.7583 0.542708 72 20 103 255 
-21.0446 -23.7282 0.249102 72 23 105 255 
-20.9449 -23.7416 -0.00552571 72 26 108 255 
-20.6347 -23.34 -0.299062 72 27 109 255 
-19.0851 -21.5497 -0.542665 72 24 106 255 
-19.113 -21.5351 -0.814334 72 20 103 255 
