ply
format ascii 1.0
comment VTK generated PLY File
obj_info vtkPolyData points and polygons: vtk4.0
element vertex 1245
property float x
property float y
property float z
property uchar red
property uchar green
property uchar blue
property uchar alpha
element face 0
property list uchar int vertex_indices
end_header
12.4633 5.97392 -0.76062 71 44 122 255 
11.5011 5.4977 -0.822111 72 40 120 255 
10.6678 5.13169 -0.858934 68 59 132 255 
9.85774 4.72914 -0.895049 66 65 134 255 
9.10554 4.3586 -0.922266 70 51 127 255 
8.38598 4.00864 -0.937579 70 52 128 255 
7.80392 3.74902 -0.943589 60 80 139 255 
7.3541 3.52646 -0.966758 57 85 140 255 
6.94775 3.32423 -0.986657 60 79 138 255 
6.55076 3.12857 -0.999592 60 79 138 255 
6.22715 2.98753 -1.00881 52 96 141 255 
5.86897 2.81179 -1.01211 60 79 138 255 
5.59073 2.67375 -1.02261 54 93 141 255 
5.32528 2.54329 -1.03209 56 89 140 255 
5.07949 2.43258 -1.03365 53 95 141 255 
4.88836 2.33884 -1.04551 57 85 140 255 
4.6717 2.23423 -1.05075 63 72 137 255 
4.49447 2.14747 -1.0615 65 66 135 255 
4.31111 2.06183 -1.06031 62 73 137 255 
4.1636 1.99029 -1.06882 62 76 138 255 
4.02556 1.92348 -1.07852 62 76 138 255 
3.86458 1.84816 -1.08078 66 65 134 255 
3.7555 1.79208 -1.08778 63 71 136 255 
3.62783 1.73107 -1.09061 66 63 133 255 
3.45761 1.65137 -1.07994 69 55 129 255 
3.38625 1.62086 -1.09993 69 53 129 255 
14.5186 6.89021 4.82752 72 38 119 255 
10.1108 4.80901 3.23797 51 99 141 255 
10.4172 4.95933 3.21481 62 74 137 255 
10.4364 4.96819 3.1036 70 50 126 255 
10.267 4.87909 2.95038 61 78 138 255 
10.3159 4.90435 2.84368 58 84 140 255 
10.6027 5.03854 2.80311 51 98 141 255 
10.3898 4.9349 2.63435 72 29 111 255 
10.5372 5.00975 2.5738 51 98 141 255 
10.5882 5.03153 2.46398 66 65 134 255 
10.7291 5.09172 2.37952 59 81 139 255 
25.6652 12.1685 5.41832 71 14 97 255 
23.3807 11.116 4.72343 72 20 103 255 
24.0637 11.43 4.59679 72 38 119 255 
23.8472 11.3071 4.29349 72 31 112 255 
23.4993 11.1165 3.98723 72 35 116 255 
23.9439 11.3786 3.84851 72 28 110 255 
23.1093 10.9717 3.46332 72 35 116 255 
23.5375 11.1451 3.27611 72 20 103 255 
23.5058 11.1095 3.03117 72 31 112 255 
23.8285 11.3238 2.86137 71 13 96 255 
24.6064 11.6667 2.69412 71 13 96 255 
24.8955 11.7828 2.463 72 23 105 255 
25.088 11.8413 2.22233 72 20 103 255 
25.0386 11.8935 2.00157 72 22 104 255 
25.9219 12.2849 1.79972 71 14 97 255 
26.086 12.3296 1.53737 69 5 89 255 
0 0 0 68 2 86 255 
32.1565 15.2608 1.28029 69 5 89 255 
32.1686 15.2316 0.944454 69 4 87 255 
0 0 0 68 2 86 255 
0 0 0 68 2 86 255 
12.3147 5.84167 -0.00237888 66 63 133 255 
12.2932 5.8155 -0.130549 64 69 136 255 
12.236 5.77552 -0.255076 72 20 103 255 
12.2648 5.77318 -0.383377 63 72 137 255 
12.2509 5.80358 -0.49234 59 81 139 255 
12.256 5.79264 -0.617942 63 71 136 255 
12.7436 6.01237 -0.775457 72 36 117 255 
11.5572 5.43765 -0.82372 72 38 119 255 
10.7045 5.06869 -0.859368 64 69 136 255 
9.91181 4.68048 -0.897334 64 70 136 255 
9.14652 4.30944 -0.923722 70 48 126 255 
8.40232 3.95329 -0.936676 70 52 128 255 
7.83127 3.70319 -0.94413 62 73 137 255 
7.38997 3.48806 -0.968642 55 91 141 255 
6.98058 3.28746 -0.988436 62 76 138 255 
6.56894 3.08789 -0.999456 59 82 139 255 
6.23462 2.9442 -1.00708 51 99 141 255 
5.88165 2.77362 -1.01134 60 79 138 255 
5.60525 2.63856 -1.02228 54 93 141 255 
5.34791 2.51392 -1.03347 53 95 141 255 
5.10233 2.40514 -1.03528 50 100 142 255 
4.89907 2.30713 -1.04475 63 71 136 255 
4.68355 2.20469 -1.05035 64 70 136 255 
4.50137 2.11694 -1.06004 65 68 135 255 
4.33251 2.03949 -1.06247 61 77 138 255 
4.17838 1.96595 -1.06949 61 77 138 255 
4.0408 1.9004 -1.07946 61 78 138 255 
3.87848 1.82565 -1.08151 67 62 133 255 
3.74891 1.76078 -1.08272 66 64 134 255 
3.60694 1.69401 -1.08119 66 65 134 255 
3.47029 1.63135 -1.08075 68 58 131 255 
3.38051 1.59269 -1.09487 68 58 131 255 
15.6661 7.31735 5.19404 70 51 127 255 
10.2776 4.81123 3.28186 56 88 140 255 
15.7667 7.38773 4.85161 70 51 127 255 
10.3853 4.86595 3.07948 70 50 126 255 
10.2029 4.77212 2.9235 54 92 141 255 
10.5875 4.95406 2.91011 57 85 140 255 
10.5136 4.91734 2.77153 58 84 140 255 
10.6715 4.98871 2.69798 72 29 111 255 
10.5978 4.95907 2.58113 69 55 129 255 
10.6658 4.98844 2.47488 62 74 137 255 
23.8105 11.1213 5.26551 72 28 110 255 
23.701 11.0596 4.98921 71 16 99 255 
27.426 12.8335 5.52467 72 22 104 255 
24.1128 11.2725 4.59288 72 33 115 255 
23.5611 10.9948 4.22974 72 36 117 255 
23.2104 10.8061 3.92689 72 26 108 255 
23.5741 11.0261 3.77811 72 28 110 255 
23.0137 10.7538 3.43904 72 37 118 255 
23.8356 11.1077 3.30806 72 24 106 255 
23.9202 11.1264 3.07575 70 11 94 255 
25.4095 11.8846 3.04241 70 11 94 255 
24.6017 11.4802 2.68585 72 20 103 255 
24.7037 11.507 2.43699 72 22 104 255 
25.8934 12.0277 2.28709 71 14 97 255 
26.3219 12.3057 2.09808 69 5 89 255 
55.1556 25.7262 3.81834 69 4 87 255 
0 0 0 68 2 86 255 
0 0 0 68 2 86 255 
0 0 0 68 2 86 255 
0 0 0 69 4 87 255 
51.5047 23.9472 0.97161 69 5 89 255 
49.9357 23.1533 0.43231 70 7 90 255 
12.3313 5.75712 -0.00237522 63 71 136 255 
12.3486 5.74925 -0.13076 62 76 138 255 
12.2903 5.70918 -0.255472 68 57 131 255 
12.2936 5.69488 -0.383179 65 68 135 255 
12.3026 5.7359 -0.492993 60 79 138 255 
12.4625 5.79696 -0.626548 70 50 126 255 
12.8491 5.96602 -0.779633 72 41 121 255 
11.6066 5.37418 -0.824878 72 40 120 255 
10.7317 5.00123 -0.859079 67 61 132 255 
9.95751 4.62755 -0.898884 58 83 139 255 
9.17189 4.25282 -0.923631 70 51 127 255 
8.41288 3.89539 -0.93517 70 51 127 255 
7.83762 3.64752 -0.94218 62 73 137 255 
7.40763 3.44097 -0.968171 57 85 140 255 
7.01052 3.24915 -0.989833 59 81 139 255 
6.58057 3.0442 -0.998364 59 82 139 255 
6.25796 2.90839 -1.00794 52 97 141 255 
5.89856 2.73748 -1.01134 59 82 139 255 
5.6464 2.61573 -1.02684 55 91 141 255 
5.36503 2.48188 -1.03381 54 93 141 255 
5.13394 2.38165 -1.03871 46 109 142 255 
4.93184 2.2857 -1.04873 59 82 139 255 
4.70499 2.17962 -1.05214 62 74 137 255 
4.5196 2.09174 -1.06129 63 71 136 255 
4.35114 2.01574 -1.06399 62 76 138 255 
4.1939 1.94191 -1.07039 63 71 136 255 
4.0418 1.87067 -1.07664 63 71 136 255 
3.89664 1.80508 -1.08347 67 62 133 255 
3.77457 1.74465 -1.08702 61 77 138 255 
3.6234 1.67468 -1.08302 69 55 129 255 
3.51081 1.62417 -1.09024 66 63 133 255 
3.41198 1.58201 -1.1019 67 61 132 255 
15.7838 7.25469 5.21821 70 8 92 255 
15.9066 7.32771 5.06489 72 37 118 255 
15.8074 7.28883 4.85027 69 55 129 255 
10.2106 4.70792 3.01906 51 98 141 255 
10.2426 4.71428 2.92652 57 85 140 255 
10.2581 4.72341 2.81155 55 91 141 255 
10.6549 4.90398 2.80079 72 36 117 255 
10.9277 5.02701 2.75491 72 32 113 255 
24.1885 11.1382 5.87442 71 16 99 255 
10.754 4.9495 2.48825 63 71 136 255 
23.3865 10.749 5.15706 71 44 122 255 
23.7827 10.9205 4.99221 72 23 105 255 
25.8029 11.8816 5.18293 70 8 92 255 
24.4161 11.2323 4.63743 71 19 101 255 
22.8648 10.4995 4.0931 72 24 106 255 
23.2349 10.6445 3.91992 72 35 116 255 
23.0318 10.6007 3.68071 72 40 120 255 
22.7974 10.4828 3.39704 71 46 124 255 
23.6661 10.8525 3.27524 72 28 110 255 
23.9311 10.9534 3.06846 71 13 96 255 
24.1156 11.0995 2.87927 71 19 101 255 
24.5143 11.2567 2.66872 72 31 112 255 
24.5004 11.2299 2.41009 72 23 105 255 
25.2931 11.5607 2.22776 70 8 92 255 
36.385 16.739 2.89195 70 7 90 255 
27.2889 12.525 1.88381 71 13 96 255 
27.7889 12.7196 1.62841 71 13 96 255 
0 0 0 68 2 86 255 
0 0 0 68 2 86 255 
0 0 0 69 4 87 255 
0 0 0 69 4 87 255 
50.3016 22.949 0.43425 70 7 90 255 
12.3727 5.68427 -0.00237644 71 46 124 255 
12.3964 5.6792 -0.130894 58 84 140 255 
12.4106 5.67273 -0.257244 53 95 141 255 
12.4766 5.68691 -0.387787 72 37 118 255 
12.9779 5.95409 -0.518581 71 46 124 255 
12.4905 5.71706 -0.626184 63 71 136 255 
12.8999 5.89371 -0.780512 72 36 117 255 
11.6602 5.31238 -0.826358 72 32 113 255 
10.7432 4.92656 -0.857559 65 68 135 255 
10.0111 4.57797 -0.901168 55 91 141 255 
9.20053 4.1977 -0.923904 67 61 132 255 
8.42847 3.83999 -0.934267 69 55 129 255 
7.85714 3.59812 -0.941855 63 72 137 255 
7.41867 3.39092 -0.966876 58 84 140 255 
7.04205 3.21142 -0.991485 57 85 140 255 
6.59912 3.00376 -0.998364 59 81 139 255 
6.27388 2.86911 -1.00766 54 92 141 255 
5.93322 2.70944 -1.01441 57 86 140 255 
5.64618 2.57367 -1.02391 52 96 141 255 
5.36043 2.43994 -1.03002 54 93 141 255 
5.13951 2.34602 -1.0369 50 102 142 255 
4.95113 2.25784 -1.04987 60 80 139 255 
4.71382 2.14867 -1.05115 60 80 139 255 
4.527 2.06154 -1.06004 64 70 136 255 
4.35988 1.98739 -1.06312 64 69 136 255 
4.19775 1.91251 -1.06836 62 74 137 255 
4.06116 1.84946 -1.07876 62 73 137 255 
3.91382 1.78395 -1.08518 64 69 136 255 
3.78961 1.72345 -1.08829 62 76 138 255 
3.64415 1.65721 -1.08616 66 64 134 255 
3.52684 1.60539 -1.09214 67 61 132 255 
3.40242 1.55228 -1.09572 67 62 133 255 
15.8288 7.1581 5.2185 70 10 93 255 
12.3631 5.60361 3.92556 71 45 123 255 
12.4463 5.6467 3.80828 61 77 138 255 
10.5208 4.77286 3.10204 56 88 140 255 
10.2687 4.65015 2.92576 47 108 142 255 
10.2983 4.66558 2.81469 62 76 138 255 
10.3622 4.69246 2.71625 58 83 139 255 
10.4273 4.71951 2.6214 71 46 124 255 
10.8242 4.904 2.62141 72 23 105 255 
10.8011 4.89109 2.49216 59 82 139 255 
23.5949 10.6699 5.1885 72 33 115 255 
23.9432 10.8169 5.01189 71 14 97 255 
27.37 12.4002 5.48231 70 11 94 255 
24.63 11.1481 4.66498 72 20 103 255 
22.8523 10.3245 4.07945 72 40 120 255 
23.2746 10.4904 3.91568 72 36 117 255 
22.9693 10.4016 3.66045 71 45 123 255 
23.0925 10.4473 3.43139 72 29 111 255 
23.5207 10.6116 3.24603 71 14 97 255 
24.2216 10.9071 3.09706 72 26 108 255 
24.4178 11.0576 2.9072 72 22 104 255 
24.5331 11.0836 2.66331 72 33 115 255 
25.5976 11.5433 2.51101 71 17 100 255 
24.7226 11.1171 2.17147 71 14 97 255 
36.3234 16.4414 2.87899 69 5 89 255 
27.5881 12.458 1.89915 72 22 104 255 
28.3554 12.7691 1.65699 71 17 100 255 
0 0 0 69 4 87 255 
0 0 0 68 2 86 255 
0 0 0 69 4 87 255 
71.1302 32.0165 1.33432 69 5 89 255 
50.6941 22.7534 0.436426 70 7 90 255 
13.7032 6.19395 -0.00262463 71 14 97 255 
12.4027 5.59029 -0.130597 71 44 122 255 
12.3913 5.57228 -0.256131 72 32 113 255 
19.0026 8.5211 -0.588989 72 26 108 255 
16.4308 7.41653 -0.654723 72 36 117 255 
14.4992 6.52916 -0.724863 72 28 110 255 
12.3876 5.56801 -0.747432 70 51 127 255 
11.7136 5.25012 -0.827839 71 45 123 255 
10.7559 4.85275 -0.856184 68 59 132 255 
10.0454 4.51932 -0.901739 57 85 140 255 
9.23611 4.14566 -0.924905 68 57 131 255 
8.44643 3.78576 -0.933665 70 52 128 255 
7.89086 3.55515 -0.943264 63 72 137 255 
7.43571 3.3437 -0.966405 59 81 139 255 
7.03629 3.15678 -0.987927 59 81 139 255 
6.62647 2.96726 -0.999728 60 80 139 255 
6.29137 2.83056 -1.00766 54 93 141 255 
5.95244 2.6742 -1.01487 56 89 140 255 
5.66547 2.54059 -1.02456 52 96 141 255 
5.39058 2.41385 -1.03295 55 90 140 255 
5.16547 2.31968 -1.03925 47 108 142 255 
4.964 2.22701 -1.04968 55 91 141 255 
4.72423 2.11851 -1.05055 59 81 139 255 
4.54314 2.03532 -1.06088 65 66 135 255 
4.37644 1.9626 -1.0642 63 71 136 255 
4.21385 1.88871 -1.06949 60 80 139 255 
4.06711 1.82213 -1.07735 64 70 136 255 
3.9185 1.75712 -1.08347 64 69 136 255 
3.79305 1.69701 -1.08626 63 71 136 255 
3.70006 1.65532 -1.09978 64 70 136 255 
3.54014 1.58529 -1.09323 68 58 131 255 
3.41188 1.53137 -1.09572 67 61 132 255 
16.0247 7.12857 5.26856 71 44 122 255 
16.1357 7.19455 5.10934 72 41 121 255 
12.4623 5.56198 3.80264 72 37 118 255 
12.4293 5.54697 3.65466 71 47 125 255 
10.3403 4.60635 2.93807 70 48 126 255 
10.3055 4.59282 2.80889 71 45 123 255 
10.3606 4.61533 2.70835 61 78 138 255 
10.4303 4.64394 2.61493 61 78 138 255 
24.1423 10.7598 5.8307 72 23 105 255 
10.8497 4.83308 2.49648 72 24 106 255 
23.6806 10.5341 5.19302 71 16 99 255 
24.4382 10.8604 5.10146 70 10 93 255 
27.4375 12.2284 5.4807 71 13 96 255 
28.0882 12.5063 5.30534 71 16 99 255 
22.9757 10.2109 4.09021 72 38 119 255 
22.9373 10.1695 3.84836 72 31 112 255 
23.067 10.2758 3.66591 72 40 120 255 
23.0919 10.2768 3.42186 72 31 112 255 
25.6829 11.398 3.53473 71 19 101 255 
24.8302 10.9984 3.1662 72 22 104 255 
24.7049 11.0054 2.93329 72 29 111 255 
24.5342 10.9033 2.65612 72 20 103 255 
22.9074 10.1614 2.24095 72 22 104 255 
24.7721 10.9572 2.16987 72 24 106 255 
27.6391 12.3068 2.18465 71 13 96 255 
27.954 12.4173 1.91907 72 22 104 255 
28.3958 12.5782 1.6548 70 8 92 255 
0 0 0 68 2 86 255 
0 0 0 68 2 86 255 
0 0 0 69 4 87 255 
0 0 0 68 2 86 255 
51.4201 22.7012 0.441468 70 7 90 255 
12.373 5.50154 -0.00236335 66 63 133 255 
12.413 5.50355 -0.130347 71 14 97 255 
20.7149 9.16294 -0.427011 70 7 90 255 
18.782 8.28413 -0.580564 72 28 110 255 
16.6486 7.39222 -0.661583 72 37 118 255 
14.9126 6.60554 -0.743488 72 28 110 255 
12.5969 5.56942 -0.757983 71 46 124 255 
11.7447 5.17774 -0.827774 71 44 122 255 
10.8047 4.79516 -0.857704 66 63 133 255 
10.0592 4.45155 -0.900516 61 78 138 255 
9.26592 4.09092 -0.92536 66 63 133 255 
8.48679 3.74149 -0.935572 68 58 131 255 
7.93524 3.51674 -0.945972 62 76 138 255 
7.47153 3.30484 -0.968406 59 82 139 255 
7.03828 3.10594 -0.985513 60 79 138 255 
6.65362 2.93054 -1.00109 57 85 140 255 
6.31043 2.79271 -1.00794 56 89 140 255 
5.96783 2.63723 -1.01472 57 85 140 255 
5.6972 2.51295 -1.02749 54 92 141 255 
5.41431 2.3847 -1.03467 56 89 140 255 
5.17781 2.28715 -1.03889 49 103 142 255 
4.96589 2.19136 -1.04721 59 82 139 255 
4.75418 2.09699 -1.05433 60 79 138 255 
4.54122 2.0011 -1.05754 65 68 135 255 
4.41877 1.9491 -1.07157 61 77 138 255 
4.23339 1.86635 -1.07152 61 78 138 255 
4.06932 1.79322 -1.075 64 70 136 255 
3.91768 1.72796 -1.08029 66 64 134 255 
3.77948 1.66318 -1.07944 64 69 136 255 
3.70131 1.62869 -1.09716 64 70 136 255 
3.56566 1.57053 -1.09811 64 70 136 255 
3.42472 1.51196 -1.09684 69 55 129 255 
9.09795 3.98052 2.98311 62 76 138 255 
12.4204 5.44685 3.92223 71 17 100 255 
14.5664 6.39416 4.43261 72 26 108 255 
12.5206 5.49583 3.67152 72 41 121 255 
10.7017 4.68887 3.03253 65 68 135 255 
10.4855 4.59612 2.8502 64 70 136 255 
10.3522 4.53567 2.69883 50 102 142 255 
11.0497 4.8387 2.76272 72 36 117 255 
10.7458 4.71043 2.58824 62 76 138 255 
10.8567 4.7566 2.49134 62 76 138 255 
11.1973 4.89895 2.44887 72 29 111 255 
27.2622 11.9156 5.67559 70 11 94 255 
24.5405 10.7573 4.88874 71 19 101 255 
23.1925 10.1564 4.36877 72 35 116 255 
22.8615 9.99267 4.0589 71 46 124 255 
22.896 9.9835 3.83108 72 36 117 255 
23.1614 10.1479 3.67094 72 33 115 255 
22.9675 10.0531 3.39423 72 32 113 255 
25.8542 11.2847 3.5487 71 17 100 255 
25.4054 11.0672 3.23082 70 11 94 255 
24.5926 10.775 2.91205 72 27 109 255 
22.9822 10.0452 2.48137 72 31 112 255 
25.0681 10.9363 2.44572 72 29 111 255 
24.8636 10.8157 2.17203 71 16 99 255 
27.5488 12.0645 2.17161 72 23 105 255 
28.1312 12.2899 1.92602 70 11 94 255 
28.3617 12.3555 1.64837 71 19 101 255 
0 0 0 68 2 86 255 
0 0 0 68 2 86 255 
0 0 0 68 2 86 255 
0 0 0 68 2 86 255 
52.6591 22.8631 0.450892 69 5 89 255 
13.6966 5.98966 -0.00260909 70 10 93 255 
32.5889 14.2103 -0.341289 70 11 94 255 
21.098 9.17805 -0.43374 71 14 97 255 
14.2509 6.18144 -0.439325 72 20 103 255 
16.8237 7.34672 -0.666737 72 35 116 255 
14.4372 6.2893 -0.717851 72 29 111 255 
12.9403 5.6266 -0.776556 72 38 119 255 
11.7854 5.10955 -0.828418 70 51 127 255 
10.8567 4.73875 -0.859513 67 61 132 255 
10.0918 4.39213 -0.901005 62 76 138 255 
9.31095 4.04271 -0.927361 67 62 133 255 
8.5242 3.69567 -0.937178 68 57 131 255 
7.96032 3.46957 -0.946406 59 81 139 255 
7.50988 3.26686 -0.97076 59 81 139 255 
7.06358 3.06546 -0.986403 60 80 139 255 
6.65693 2.88336 -0.99891 57 85 140 255 
6.32382 2.75235 -1.00737 57 86 140 255 
5.99115 2.60371 -1.01595 57 86 140 255 
5.71885 2.48069 -1.02863 55 91 141 255 
5.42341 2.34908 -1.03364 57 86 140 255 
5.21249 2.26435 -1.04304 50 101 142 255 
4.96483 2.15459 -1.04418 60 80 139 255 
4.76516 2.067 -1.05393 61 78 138 255 
4.56418 1.97786 -1.06004 63 71 136 255 
4.43602 1.92428 -1.07287 62 76 138 255 
4.24744 1.84151 -1.0722 62 76 138 255 
4.08025 1.76821 -1.075 62 76 138 255 
3.9202 1.70042 -1.07809 65 66 135 255 
3.79938 1.64419 -1.08222 63 72 137 255 
3.69706 1.59982 -1.09297 66 63 133 255 
3.57876 1.55015 -1.0992 66 64 134 255 
3.44362 1.49512 -1.09993 68 58 131 255 
9.14596 3.93484 2.99088 51 99 141 255 
13.8799 5.98565 4.37146 72 24 106 255 
14.3993 6.21571 4.37007 72 22 104 255 
23.7373 10.2461 6.94212 71 16 99 255 
16.1697 6.96666 4.56978 72 32 113 255 
12.5016 5.38864 3.38917 70 50 126 255 
10.3629 4.46475 2.69442 54 93 141 255 
10.8822 4.686 2.71361 70 48 126 255 
23.8098 10.2633 5.71954 72 27 109 255 
10.8057 4.65543 2.47303 71 44 122 255 
24.8348 10.6845 5.41698 70 10 93 255 
24.5579 10.5547 5.09902 70 11 94 255 
24.7153 10.6536 4.91046 72 23 105 255 
22.8987 9.86071 4.30195 72 22 104 255 
23.0303 9.89859 4.078 72 33 115 255 
23.2121 9.95228 3.87368 72 37 118 255 
22.9987 9.90891 3.63545 71 42 122 255 
24.4978 10.5443 3.61076 71 14 97 255 
26.0643 11.1865 3.56805 71 14 97 255 
23.7307 10.1649 3.00986 71 13 96 255 
25.0609 10.7974 2.9596 71 14 97 255 
23.1467 9.94836 2.49249 72 28 110 255 
23.0468 9.88664 2.24256 72 23 105 255 
23.0333 9.85186 2.00681 72 35 116 255 
27.4464 11.8195 2.15778 71 14 97 255 
28.2409 12.132 1.9284 72 20 103 255 
28.4406 12.1828 1.64858 71 14 97 255 
0 0 0 68 2 86 255 
0 0 0 68 2 86 255 
0 0 0 68 2 86 255 
0 0 0 68 2 86 255 
53.2619 22.7375 0.454851 70 7 90 255 
40.8198 17.5534 -0.0077552 69 5 89 255 
28.3615 12.1604 -0.29623 71 13 96 255 
21.0161 8.98944 -0.430913 70 11 94 255 
14.3364 6.11428 -0.440795 72 24 106 255 
14.3304 6.1535 -0.566418 72 32 113 255 
15.279 6.54477 -0.757696 72 35 116 255 
12.9829 5.55062 -0.77705 71 47 125 255 
11.8036 5.03166 -0.827517 72 38 119 255 
10.8819 4.67047 -0.859223 66 65 134 255 
10.1177 4.32973 -0.900924 62 76 138 255 
9.34565 3.9898 -0.928362 66 65 134 255 
8.5577 3.64798 -0.938382 68 57 131 255 
7.98054 3.42027 -0.946297 61 78 138 255 
7.52065 3.21681 -0.969583 62 73 137 255 
7.09685 3.02829 -0.988436 59 82 139 255 
6.66629 2.83897 -0.997682 56 89 140 255 
6.3515 2.71817 -1.0091 57 86 140 255 
5.99974 2.5638 -1.01472 58 84 140 255 
5.7267 2.44246 -1.02733 54 92 141 255 
5.43501 2.3146 -1.03312 55 90 140 255 
5.21182 2.22614 -1.04015 50 101 142 255 
4.98067 2.12525 -1.04475 53 95 141 255 
4.77054 2.03465 -1.05234 60 79 138 255 
4.58703 1.95442 -1.06254 63 71 136 255 
4.44236 1.89473 -1.07157 63 71 136 255 
4.26224 1.81694 -1.0731 63 71 136 255 
4.09907 1.74657 -1.07711 62 74 137 255 
3.97337 1.69459 -1.08983 64 69 136 255 
3.79693 1.61554 -1.07868 64 70 136 255 
3.68105 1.56615 -1.08538 64 70 136 255 
3.54835 1.51119 -1.08699 66 64 134 255 
3.4642 1.47886 -1.10359 67 62 133 255 
9.31018 3.93797 3.03662 50 102 142 255 
13.9217 5.90262 4.37313 64 70 136 255 
14.5072 6.15697 4.39128 72 32 113 255 
25.1973 10.6933 7.34978 72 26 108 255 
16.1613 6.84579 4.55546 69 53 129 255 
10.5473 4.46975 2.85189 62 74 137 255 
10.3731 4.39388 2.69 53 94 141 255 
10.8739 4.60356 2.70445 72 32 113 255 
10.9593 4.64451 2.62572 58 84 140 255 
11.199 4.74363 2.55634 61 78 138 255 
11.2457 4.75659 2.44651 71 13 96 255 
24.6675 10.4229 5.10839 71 16 99 255 
25.0375 10.6108 4.96144 70 8 92 255 
25.074 10.6156 4.69831 71 17 100 255 
23.6452 9.99144 4.17595 72 33 115 255 
23.6935 9.98704 3.94372 72 33 115 255 
23.3024 9.87067 3.67381 72 31 112 255 
24.0492 10.1767 3.53536 70 10 93 255 
25.4999 10.7594 3.48168 70 8 92 255 
23.0905 9.7234 2.92104 72 35 116 255 
23.088 9.77988 2.71948 72 32 113 255 
23.1752 9.79259 2.48905 72 36 117 255 
23.1355 9.75704 2.24532 72 24 106 255 
27.0674 11.3814 2.35217 70 10 93 255 
25.1102 10.6313 1.96895 71 16 99 255 
28.3259 11.9632 1.92915 72 23 105 255 
0 0 0 69 4 87 255 
46.1264 19.3765 2.19315 70 8 92 255 
0 0 0 68 2 86 255 
0 0 0 68 2 86 255 
0 0 0 69 4 87 255 
0 0 0 68 2 86 255 
28.532 12.0624 -0.00540651 72 22 104 255 
14.5265 6.12318 -0.151331 72 20 103 255 
14.5206 6.10595 -0.296957 72 20 103 255 
19.3286 8.10359 -0.592749 72 28 110 255 
17.0645 7.20384 -0.672725 72 40 120 255 
14.6229 6.15779 -0.72327 72 36 117 255 
12.9688 5.45074 -0.774193 71 42 122 255 
11.8637 4.97148 -0.829576 72 38 119 255 
10.8929 4.59625 -0.857848 67 62 133 255 
10.1422 4.2668 -0.90076 61 77 138 255 
9.36904 3.932 -0.928271 69 56 130 255 
8.59277 3.60079 -0.939787 66 65 134 255 
8.01329 3.37625 -0.947706 61 78 138 255 
7.5494 3.17446 -0.97076 59 82 139 255 
7.12353 2.98814 -0.989579 59 82 139 255 
6.68359 2.79801 -0.997682 59 82 139 255 
6.35803 2.67493 -1.00751 58 83 139 255 
5.99258 2.51737 -1.01088 57 85 140 255 
5.7434 2.40803 -1.02765 52 96 141 255 
5.46274 2.28691 -1.0357 52 97 141 255 
5.21903 2.19145 -1.03889 47 108 142 255 
4.99814 2.09654 -1.0457 50 101 142 255 
4.78745 2.00723 -1.05333 60 80 139 255 
4.60435 1.9285 -1.0638 62 73 137 255 
4.4584 1.86933 -1.07265 63 71 136 255 
4.2814 1.79414 -1.07513 61 77 138 255 
4.1124 1.72252 -1.07782 62 74 137 255 
3.97922 1.6683 -1.08861 66 64 134 255 
3.82463 1.59968 -1.08374 64 70 136 255 
3.67991 1.53906 -1.08224 67 61 132 255 
3.58775 1.50203 -1.09621 64 69 136 255 
3.46259 1.45312 -1.10022 68 59 132 255 
9.36865 3.89511 3.04784 71 46 124 255 
9.44521 3.93644 2.95931 66 65 134 255 
14.5793 6.0823 4.40175 64 69 136 255 
14.6046 6.09251 4.24904 72 22 104 255 
14.7081 6.12405 4.13516 72 24 106 255 
10.3399 4.30719 2.78859 72 38 119 255 
10.3127 4.29388 2.66747 72 29 111 255 
10.7337 4.46672 2.6627 62 76 138 255 
10.9732 4.57117 2.62227 61 78 138 255 
11.04 4.59658 2.51355 56 88 140 255 
23.6504 9.83271 5.13192 72 31 112 255 
24.2003 10.0509 4.99877 70 10 93 255 
27.3851 11.408 5.41267 70 11 94 255 
25.1096 10.4494 4.69287 72 22 104 255 
25.1281 10.4368 4.42644 72 20 103 255 
24.0173 9.95043 3.98739 72 29 111 255 
23.516 9.79141 3.69795 72 29 111 255 
25.91 10.7772 3.79912 71 13 96 255 
23.9946 9.95126 3.26775 71 17 100 255 
23.036 9.53444 2.90668 71 42 122 255 
23.3945 9.74083 2.74848 72 37 118 255 
23.1815 9.62806 2.48334 71 19 101 255 
26.6463 11.0456 2.57941 71 13 96 255 
25.5062 10.5412 2.21083 70 11 94 255 
25.2099 10.4916 1.97168 72 29 111 255 
25.3237 10.5126 1.72026 71 19 101 255 
46.1104 19.0856 2.65904 70 7 90 255 
46.3405 19.1328 2.1977 70 7 90 255 
0 0 0 69 4 87 255 
0 0 0 69 4 87 255 
46.1872 19.108 0.855016 70 8 92 255 
46.2026 19.057 0.392538 70 8 92 255 
14.6208 6.07576 -0.00276338 71 42 122 255 
13.761 5.70133 -0.142989 71 42 122 255 
13.6902 5.65814 -0.279258 69 53 129 255 
13.7162 5.65188 -0.419563 72 35 116 255 
13.66 5.66809 -0.537128 71 42 122 255 
13.6718 5.65879 -0.674499 71 45 123 255 
12.9992 5.36992 -0.774028 71 42 122 255 
11.8774 4.89176 -0.828418 71 45 123 255 
10.9126 4.52588 -0.857197 68 59 132 255 
10.1526 4.19801 -0.899373 61 78 138 255 
9.40127 3.87786 -0.92909 68 57 131 255 
8.63218 3.55519 -0.941694 66 65 134 255 
8.04212 3.33044 -0.948681 58 83 139 255 
7.57608 3.13111 -0.971702 60 80 139 255 
7.14998 2.94778 -0.990723 58 84 140 255 
6.71346 2.76223 -0.999592 56 89 140 255 
6.36518 2.63208 -1.00607 59 81 139 255 
6.00426 2.47904 -1.01026 57 85 140 255 
5.75989 2.3735 -1.02798 54 92 141 255 
5.47029 2.25073 -1.0345 59 82 139 255 
5.22783 2.15751 -1.03799 51 98 141 255 
5.01545 2.06771 -1.04665 50 102 142 255 
4.8033 1.97931 -1.05413 60 79 138 255 
4.62333 1.90319 -1.06546 61 78 138 255 
4.47159 1.84268 -1.07309 61 78 138 255 
4.28062 1.76301 -1.0722 62 74 137 255 
4.10132 1.68837 -1.07218 65 66 135 255 
3.96966 1.63573 -1.08322 64 70 136 255 
3.84153 1.57912 -1.08576 62 73 137 255 
3.69464 1.51866 -1.08381 65 68 135 255 
3.59956 1.48108 -1.09703 65 66 135 255 
3.46168 1.42782 -1.09712 65 68 135 255 
11.1744 4.56565 3.62611 68 57 131 255 
9.47185 3.87951 2.96015 70 52 128 255 
14.5085 5.94851 4.36927 64 69 136 255 
25.1014 10.291 7.28443 71 16 99 255 
14.7149 6.02122 4.12662 72 22 104 255 
14.463 5.92083 3.8907 66 64 134 255 
24.744 10.1249 6.38405 71 19 101 255 
10.7573 4.3993 2.66181 71 19 101 255 
10.8862 4.45676 2.59491 72 22 104 255 
11.1812 4.57508 2.53927 57 85 140 255 
10.9974 4.49325 2.3803 54 93 141 255 
23.8968 9.75341 4.92363 72 28 110 255 
24.1325 9.87971 4.75772 72 29 111 255 
23.7184 9.70016 4.42166 72 29 111 255 
24.6982 10.081 4.33973 72 28 110 255 
24.0587 9.79505 3.9842 72 31 112 255 
23.9136 9.78523 3.75096 72 32 113 255 
25.5794 10.456 3.74116 71 17 100 255 
24.2123 9.86788 3.28909 72 27 109 255 
23.1474 9.41462 2.9134 72 40 120 255 
23.4538 9.5971 2.74848 71 19 101 255 
23.2918 9.5067 2.48885 72 28 110 255 
27.1508 11.06 2.62163 71 17 100 255 
25.3192 10.2825 2.18911 72 24 106 255 
25.2461 10.3254 1.96952 72 29 111 255 
26.2638 10.7144 1.77962 72 24 106 255 
0 0 0 68 2 86 255 
46.657 18.9292 2.20716 69 5 89 255 
46.4065 18.9608 1.80316 70 7 90 255 
46.3518 18.8905 1.32818 69 5 89 255 
0 0 0 68 2 86 255 
0 0 0 68 2 86 255 
14.5792 5.9538 -0.00274854 72 36 117 255 
14.5181 5.9109 -0.150476 71 42 122 255 
14.4361 5.86297 -0.293734 72 27 109 255 
14.188 5.74469 -0.432907 72 24 106 255 
14.134 5.7634 -0.554368 72 26 108 255 
14.8185 6.02719 -0.729235 72 29 111 255 
13.0403 5.29343 -0.774523 68 59 132 255 
11.9618 4.84087 -0.832215 71 46 124 255 
10.942 4.45959 -0.857342 67 62 133 255 
10.1763 4.13489 -0.89921 62 76 138 255 
9.4415 3.82683 -0.930727 63 71 136 255 
8.66028 3.50477 -0.942397 66 63 133 255 
8.05688 3.27879 -0.948031 61 78 138 255 
7.59239 3.08344 -0.971349 60 79 138 255 
7.15966 2.9005 -0.989579 56 88 140 255 
6.72569 2.71912 -0.99891 62 74 137 255 
6.37846 2.59186 -1.00563 58 84 140 255 
6.03401 2.4481 -1.01272 56 88 140 255 
5.77709 2.33922 -1.02847 52 97 141 255 
5.48491 2.21749 -1.03467 52 97 141 255 
5.23095 2.12133 -1.036 52 96 141 255 
5.0244 2.03542 -1.04589 50 102 142 255 
4.81808 1.95091 -1.05473 59 81 139 255 
4.61135 1.86525 -1.06004 62 73 137 255 
4.47829 1.81337 -1.072 57 85 140 255 
4.304 1.74183 -1.07536 60 79 138 255 
4.13593 1.67301 -1.07852 66 65 134 255 
3.98591 1.61389 -1.08494 66 64 134 255 
3.85563 1.55733 -1.08702 62 76 138 255 
3.71194 1.49921 -1.08616 62 73 137 255 
3.61305 1.46077 -1.09838 65 66 135 255 
3.47394 1.408 -1.09825 67 61 132 255 
14.4667 5.80749 4.68281 72 33 115 255 
11.2351 4.52138 3.50245 63 72 137 255 
11.2316 4.52466 3.37398 66 63 133 255 
12.4145 5.00092 3.59372 72 24 106 255 
25.6595 10.3163 7.17799 71 14 97 255 
11.1176 4.47185 2.98331 67 61 132 255 
25.099 10.0908 6.45954 72 29 111 255 
25.5342 10.2601 6.30257 71 19 101 255 
10.8454 4.36255 2.57876 62 74 137 255 
10.9085 4.38556 2.47118 72 26 108 255 
11.1367 4.47061 2.40447 53 95 141 255 
23.8769 9.57479 4.90733 72 22 104 255 
23.8823 9.60663 4.69669 72 33 115 255 
23.7802 9.55555 4.42217 72 37 118 255 
24.5232 9.83446 4.29831 70 11 94 255 
23.6778 9.47103 3.91143 72 29 111 255 
24.0898 9.6852 3.7692 72 33 115 255 
24.1791 9.71092 3.52758 72 20 103 255 
24.2595 9.71397 3.28734 72 22 104 255 
23.3191 9.31811 2.92776 72 33 115 255 
23.1082 9.29058 2.70125 72 33 115 255 
23.3524 9.36472 2.48915 72 26 108 255 
27.4068 10.9687 2.6398 71 16 99 255 
25.616 10.2204 2.20932 72 26 108 255 
25.2433 10.1439 1.96441 72 35 116 255 
26.468 10.6088 1.78901 72 23 105 255 
0 0 0 68 2 86 255 
46.3277 18.4654 2.18618 69 5 89 255 
0 0 0 68 2 86 255 
0 0 0 68 2 86 255 
0 0 0 69 4 87 255 
0 0 0 69 4 87 255 
14.5495 5.8378 -0.00273615 72 32 113 255 
14.5318 5.81279 -0.150246 70 51 127 255 
14.4365 5.7602 -0.293018 72 36 117 255 
19.2646 7.66295 -0.58636 72 27 109 255 
14.2897 5.72489 -0.559086 72 27 109 255 
15.1224 6.04291 -0.74235 71 47 125 255 
13.2023 5.2651 -0.782216 72 37 118 255 
11.9959 4.76923 -0.832537 71 44 122 255 
10.9692 4.39237 -0.857342 67 61 132 255 
10.1996 4.07163 -0.899047 61 78 138 255 
9.47221 3.77178 -0.931455 65 68 135 255 
8.66868 3.44642 -0.940991 65 66 135 255 
8.07131 3.22708 -0.947381 61 78 138 255 
7.61301 3.03753 -0.971584 58 83 139 255 
7.17364 2.85505 -0.989071 56 89 140 255 
6.74225 2.67781 -0.99891 59 82 139 255 
6.39608 2.55341 -1.00592 56 88 140 255 
6.08196 2.4242 -1.01826 58 84 140 255 
5.79684 2.30592 -1.02944 53 95 141 255 
5.51123 2.18888 -1.03708 56 88 140 255 
5.24935 2.09137 -1.03708 52 97 141 255 
5.03953 2.00564 -1.04646 49 104 142 255 
4.8163 1.91588 -1.05174 60 79 138 255 
4.62907 1.83945 -1.0615 63 72 137 255 
4.47119 1.77864 -1.06767 58 83 139 255 
4.31098 1.71395 -1.07446 61 78 138 255 
4.15244 1.65012 -1.08017 63 71 136 255 
3.99214 1.58797 -1.08396 61 77 138 255 
3.86062 1.53186 -1.08576 64 70 136 255 
3.72107 1.47641 -1.08616 64 69 136 255 
3.61836 1.43715 -1.0973 62 76 138 255 
3.50747 1.3966 -1.10612 65 68 135 255 
14.5733 5.74672 4.70582 72 32 113 255 
12.1354 4.7974 3.77388 72 33 115 255 
11.1866 4.42695 3.35224 72 41 121 255 
11.2407 4.4481 3.24597 67 62 133 255 
14.3592 5.67096 4.00704 72 37 118 255 
14.5436 5.74647 3.89311 70 50 126 255 
24.6701 9.74295 6.33365 72 20 103 255 
24.535 9.68413 6.04115 72 23 105 255 
10.8983 4.30633 2.58501 65 66 135 255 
10.9425 4.32142 2.47283 70 51 127 255 
23.7389 9.36083 5.11286 72 35 116 255 
23.9635 9.43926 4.91314 71 19 101 255 
24.0543 9.50474 4.71895 72 20 103 255 
23.8613 9.4185 4.42642 71 19 101 255 
23.6849 9.33001 4.14127 72 26 108 255 
23.5856 9.26665 3.88672 72 36 117 255 
23.8662 9.42561 3.7251 72 35 116 255 
24.2253 9.55729 3.5257 72 27 109 255 
24.1663 9.50501 3.26675 72 22 104 255 
23.6514 9.283 2.96227 72 33 115 255 
23.6632 9.34545 2.75937 72 20 103 255 
26.151 10.3012 2.78066 71 13 96 255 
23.5756 9.26795 2.26527 72 24 106 255 
25.6365 10.0467 2.20572 72 27 109 255 
24.8764 9.81958 1.93114 72 27 109 255 
0 0 0 68 2 86 255 
46.3107 18.1775 2.65085 69 5 89 255 
0 0 0 68 2 86 255 
0 0 0 69 4 87 255 
0 0 0 68 1 84 255 
0 0 0 68 1 84 255 
0 0 0 68 2 86 255 
14.5683 5.74181 -0.00273301 71 45 123 255 
14.53 5.70889 -0.149862 72 29 111 255 
25.2847 9.90928 -0.511961 71 13 96 255 
19.3606 7.56388 -0.587858 72 32 113 255 
17.4733 6.87621 -0.681981 72 40 120 255 
14.8486 5.8281 -0.72714 72 32 113 255 
13.3097 5.21349 -0.786667 72 40 120 255 
12.0519 4.70606 -0.834403 72 41 121 255 
11.0117 4.33119 -0.858572 70 52 128 255 
10.23 4.01115 -0.899536 62 74 137 255 
9.49332 3.71286 -0.931273 66 64 134 255 
8.68225 3.39027 -0.940189 68 59 132 255 
8.09651 3.17967 -0.948031 59 81 139 255 
7.63798 2.9933 -0.972408 59 82 139 255 
7.19102 2.81098 -0.989071 55 90 140 255 
6.7567 2.63566 -0.998637 62 74 137 255 
6.41255 2.51448 -1.00607 55 90 140 255 
6.09396 2.38575 -1.01779 58 83 139 255 
5.8072 2.26887 -1.02879 53 94 141 255 
5.50437 2.14715 -1.03329 60 79 138 255 
5.27124 2.06271 -1.03889 53 95 141 255 
5.06821 1.98112 -1.04987 49 103 142 255 
4.82432 1.88486 -1.05095 62 73 137 255 
4.66396 1.82026 -1.06692 64 69 136 255 
4.49111 1.75473 -1.06984 62 74 137 255 
4.33866 1.6942 -1.07874 58 84 140 255 
4.16249 1.62461 -1.08017 62 76 138 255 
4.00271 1.56379 -1.0842 63 71 136 255 
3.86634 1.50674 -1.08475 62 73 137 255 
3.72197 1.45039 -1.08381 67 61 132 255 
3.6047 1.40618 -1.09052 65 68 135 255 
3.50436 1.37051 -1.10246 64 70 136 255 
9.70434 3.75809 3.12609 55 91 141 255 
14.4867 5.62438 4.49426 72 37 118 255 
9.65753 3.75347 2.88708 59 81 139 255 
11.2453 4.3703 3.23949 72 38 119 255 
11.3291 4.39409 3.15388 64 70 136 255 
11.2259 4.35614 2.99781 71 44 122 255 
14.6318 5.675 3.74747 72 24 106 255 
24.5703 9.52424 6.03534 72 23 105 255 
24.714 9.59053 5.84793 72 26 108 255 
10.9625 4.25172 2.47139 72 31 112 255 
23.5883 9.13462 5.06826 72 27 109 255 
25.0095 9.67443 5.11532 71 17 100 255 
24.5203 9.51534 4.79882 71 14 97 255 
23.8948 9.26265 4.422 72 38 119 255 
23.1176 8.94306 4.0324 71 44 122 255 
23.5442 9.08405 3.87065 72 29 111 255 
23.93 9.28149 3.7261 72 29 111 255 
24.7012 9.57028 3.58634 72 27 109 255 
24.2982 9.38515 3.27674 72 26 108 255 
23.732 9.14699 2.96528 72 32 113 255 
23.4661 9.10157 2.72983 71 45 123 255 
23.8628 9.23111 2.53128 72 20 103 255 
23.7129 9.15433 2.27302 72 22 104 255 
23.837 9.17317 2.04602 70 11 94 255 
23.9291 9.27632 1.85314 72 22 104 255 
24.8834 9.62091 1.6738 70 11 94 255 
51.7893 19.962 2.95737 70 7 90 255 
57.8463 22.2378 2.71666 69 5 89 255 
0 0 0 68 2 86 255 
0 0 0 68 2 86 255 
0 0 0 68 1 84 255 
0 0 0 68 2 86 255 
46.0042 17.8063 -0.00860971 70 8 92 255 
36.7757 14.1895 -0.378399 70 7 90 255 
25.6875 9.88574 -0.518879 71 13 96 255 
19.4234 7.45138 -0.588367 72 33 115 255 
17.5879 6.79696 -0.684812 72 32 113 255 
15.7603 6.0746 -0.769945 72 37 118 255 
13.307 5.11847 -0.784634 72 31 112 255 
12.0889 4.63524 -0.834982 72 38 119 255 
11.0502 4.26821 -0.859513 68 58 131 255 
10.2655 3.9526 -0.900516 62 74 137 255 
9.53823 3.66311 -0.933457 67 62 133 255 
8.70847 3.33907 -0.940791 68 58 131 255 
8.11958 3.13136 -0.948464 60 80 139 255 
7.64879 2.94353 -0.971467 57 85 140 255 
7.21091 2.76787 -0.989452 58 84 140 255 
6.77737 2.59593 -0.999319 61 77 138 255 
6.41493 2.4701 -1.00404 57 86 140 255 
6.13339 2.35789 -1.02194 58 84 140 255 
5.80535 2.22719 -1.02602 51 98 141 255 
5.51652 2.11298 -1.03312 54 93 141 255 
5.26452 2.02292 -1.0351 53 94 141 255 
5.06652 1.9447 -1.04702 51 99 141 255 
4.8669 1.86716 -1.05771 60 80 139 255 
4.67412 1.79126 -1.06671 62 74 137 255 
4.48174 1.71945 -1.06507 65 68 135 255 
4.3517 1.66859 -1.07942 58 84 140 255 
4.17147 1.59869 -1.07993 61 77 138 255 
4.01857 1.54164 -1.08591 64 69 136 255 
3.86738 1.47988 -1.08247 60 79 138 255 
3.75513 1.43684 -1.09088 66 65 134 255 
3.61056 1.383 -1.0897 66 65 134 255 
3.48851 1.33969 -1.09487 68 59 132 255 
9.59652 3.64878 3.08409 65 66 135 255 
9.69705 3.69653 3.00126 50 100 142 255 
9.63898 3.67834 2.87473 68 57 131 255 
9.6522 3.68317 2.774 68 58 131 255 
14.633 5.57252 4.06406 72 31 112 255 
10.1298 3.85947 2.69873 69 53 129 255 
11.2286 4.27598 2.86907 67 62 133 255 
11.3385 4.31531 2.77857 70 50 126 255 
24.8345 9.46235 5.86258 71 16 99 255 
24.585 9.362 5.52941 72 38 119 255 
24.6695 9.37964 5.2881 71 17 100 255 
23.6377 8.97743 4.82338 72 35 116 255 
24.0257 9.1542 4.69095 72 29 111 255 
14.6612 5.58008 2.70683 72 33 115 255 
23.3391 8.86448 4.06147 71 42 122 255 
23.1946 8.78605 3.80425 72 41 121 255 
23.1764 8.82596 3.60025 72 24 106 255 
24.6844 9.39 3.57548 72 24 106 255 
24.1234 9.14793 3.24553 72 33 115 255 
23.8118 9.01034 2.96829 72 32 113 255 
23.7427 9.04162 2.75549 72 32 113 255 
23.7013 9.00184 2.50825 72 33 115 255 
24.4038 9.24941 2.33376 71 17 100 255 
23.8313 9.00349 2.04075 70 11 94 255 
24.7741 9.42948 1.91407 72 29 111 255 
24.7917 9.41102 1.66372 71 16 99 255 
51.8669 19.6273 2.95487 70 7 90 255 
0 0 0 68 2 86 255 
0 0 0 68 2 86 255 
0 0 0 68 1 84 255 
80.5656 30.4712 1.47342 69 5 89 255 
0 0 0 68 2 86 255 
46.5501 17.6899 -0.00869139 69 5 89 255 
37.0528 14.0358 -0.380357 70 10 93 255 
25.3334 9.57139 -0.510529 70 8 92 255 
19.3042 7.27006 -0.583391 72 29 111 255 
17.618 6.68466 -0.684376 72 36 117 255 
15.9935 6.05203 -0.779508 71 46 124 255 
13.3848 5.05436 -0.787381 72 36 117 255 
12.1031 4.5557 -0.834017 72 40 120 255 
11.0706 4.1982 -0.859079 68 57 131 255 
10.2961 3.89201 -0.901087 61 77 138 255 
9.53164 3.59362 -0.930637 65 66 135 255 
8.73531 3.28803 -0.941493 68 59 132 255 
8.13492 3.08007 -0.948031 62 74 137 255 
7.6825 2.9025 -0.973468 55 90 140 255 
7.23611 2.72672 -0.990596 59 81 139 255 
6.79874 2.55639 -1.00014 64 70 136 255 
6.44292 2.43559 -1.00607 54 92 141 255 
6.15791 2.32405 -1.02363 57 86 140 255 
5.82352 2.19326 -1.02684 54 92 141 255 
5.53215 2.08014 -1.03364 58 83 139 255 
5.29615 1.99787 -1.03889 51 99 141 255 
5.07652 1.91289 -1.04665 48 106 142 255 
4.87001 1.83415 -1.05592 62 74 137 255 
4.65848 1.75256 -1.06067 64 70 136 255 
4.50409 1.69639 -1.06789 62 74 137 255 
4.36915 1.6446 -1.08122 58 83 139 255 
4.1812 1.57306 -1.07993 59 82 139 255 
4.02795 1.51695 -1.08591 64 70 136 255 
3.88001 1.45748 -1.08348 63 71 136 255 
3.75756 1.4114 -1.08904 66 65 134 255 
3.62709 1.36387 -1.09214 66 65 134 255 
3.52091 1.3274 -1.10246 66 63 133 255 
11.3415 4.23278 3.63646 67 62 133 255 
8.3457 3.12288 2.57704 64 69 136 255 
9.72631 3.64346 2.89406 49 103 142 255 
9.85822 3.69265 2.82664 45 113 142 255 
14.7177 5.5016 4.07813 72 41 121 255 
10.1006 3.77752 2.68471 50 100 142 255 
11.517 4.30508 2.93596 72 29 111 255 
11.3638 4.24532 2.77835 67 61 132 255 
11.4102 4.26749 2.68733 57 86 140 255 
11.4052 4.26318 2.55922 72 32 113 255 
14.7687 5.51176 3.15848 72 38 119 255 
14.3234 5.33961 2.91603 70 51 127 255 
15.0487 5.62831 2.93142 72 41 121 255 
14.7007 5.49208 2.70785 70 52 128 255 
23.3181 8.69318 4.04846 72 40 120 255 
23.2389 8.64012 3.80273 72 33 115 255 
23.2236 8.68117 3.59925 72 37 118 255 
23.8531 8.90662 3.44708 70 10 93 255 
23.8648 8.88276 3.20334 72 40 120 255 
23.8369 8.853 2.96458 72 35 116 255 
23.7009 8.85957 2.74428 72 22 104 255 
26.4798 9.87163 2.79582 70 10 93 255 
24.0316 8.94009 2.29288 72 27 109 255 
24.6993 9.1586 2.11022 71 17 100 255 
24.7867 9.26054 1.91061 71 16 99 255 
27.0935 10.095 1.814 71 16 99 255 
27.2134 10.1075 1.54679 72 23 105 255 
27.1514 10.0571 1.26923 71 14 97 255 
27.2109 10.1554 1.0447 70 11 94 255 
27.241 10.1392 0.771293 71 16 99 255 
27.2198 10.1045 0.496665 71 19 101 255 
27.2683 10.0896 0.22836 71 19 101 255 
27.2556 10.1667 -0.00507716 72 22 104 255 
27.3035 10.1516 -0.279633 72 23 105 255 
25.4713 9.44532 -0.512131 70 10 93 255 
19.3897 7.16672 -0.584635 72 24 106 255 
17.6166 6.56074 -0.682743 72 36 117 255 
16.0322 5.95447 -0.779599 70 50 126 255 
13.3903 4.96276 -0.785897 72 35 116 255 
12.1234 4.47859 -0.833502 70 52 128 255 
11.1064 4.13403 -0.859875 68 57 131 255 
10.3161 3.82737 -0.90076 60 79 138 255 
9.56846 3.5406 -0.932092 65 68 135 255 
8.75532 3.23437 -0.941493 68 57 131 255 
8.17044 3.03634 -0.949981 60 80 139 255 
7.69178 2.8522 -0.972408 60 80 139 255 
7.25643 2.68364 -0.991104 57 86 140 255 
6.82824 2.51977 -1.00218 62 73 137 255 
6.46146 2.39739 -1.00664 56 89 140 255 
6.16464 2.28348 -1.0224 55 90 140 255 
5.83039 2.1551 -1.0257 52 96 141 255 
5.5448 2.04615 -1.03364 59 82 139 255 
5.3037 1.96363 -1.03799 54 92 141 255 
5.08632 1.88102 -1.04627 51 98 141 255 
4.88393 1.80525 -1.05652 58 84 140 255 
4.67832 1.72733 -1.06275 64 70 136 255 
4.50525 1.66533 -1.06572 62 73 137 255 
4.36271 1.61169 -1.07716 61 78 138 255 
4.19351 1.54839 -1.08064 59 81 139 255 
4.03354 1.49086 -1.08494 63 72 137 255 
3.91157 1.44201 -1.08981 62 73 137 255 
3.77158 1.39032 -1.09061 63 71 136 255 
3.64713 1.34592 -1.09567 66 65 134 255 
3.51729 1.30144 -1.09881 68 59 132 255 
9.7359 3.56565 3.11458 56 89 140 255 
8.33224 3.05969 2.56704 60 79 138 255 
9.77742 3.59435 2.90264 49 104 142 255 
9.84806 3.62009 2.8173 52 96 141 255 
10.0768 3.69647 2.78583 55 91 141 255 
14.6438 5.37445 3.88345 72 33 115 255 
14.7411 5.40739 3.74933 72 31 112 255 
24.8604 9.11399 6.06437 71 16 99 255 
11.4307 4.19538 2.68604 72 36 117 255 
11.4431 4.1975 2.56189 57 85 140 255 
11.4499 4.19332 2.44317 63 71 136 255 
14.2683 5.21957 2.89823 71 46 124 255 
14.6249 5.36774 2.84239 69 53 129 255 
14.5777 5.34445 2.67911 62 73 137 255 
23.765 8.69406 4.1167 72 27 109 255 
23.5096 8.57698 3.83836 72 41 121 255 
23.4139 8.58895 3.62051 72 31 112 255 
25.6119 9.3847 3.69286 71 13 96 255 
23.8993 8.72901 3.20072 72 31 112 255 
23.8702 8.69909 2.96203 72 22 104 255 
23.6558 8.67768 2.73285 72 23 105 255 
25.6661 9.3893 2.70377 71 13 96 255 
25.1012 9.16305 2.38952 72 31 112 255 
24.9348 9.07232 2.12555 72 20 103 255 
24.9236 9.1378 1.9168 72 35 116 255 
27.0884 9.90427 1.80955 71 19 101 255 
27.213 9.91779 1.54328 72 26 108 255 
27.2258 9.8951 1.26984 71 19 101 255 
27.2605 9.98382 1.04423 72 24 106 255 
27.2699 9.95983 0.770365 72 22 104 255 
27.2775 9.93592 0.496597 71 16 99 255 
27.3175 9.91767 0.228258 70 8 92 255 
27.2902 9.9893 -0.0050721 71 17 100 255 
27.3343 9.97255 -0.279316 70 11 94 255 
25.5119 9.2827 -0.511792 70 7 90 255 
19.3656 7.02308 -0.5826 72 23 105 255 
17.5795 6.42439 -0.679767 72 40 120 255 
15.9717 5.82076 -0.774909 70 48 126 255 
13.4656 4.89689 -0.788535 72 32 113 255 
12.2257 4.43132 -0.838651 70 51 127 255 
11.155 4.07435 -0.861684 66 63 133 255 
10.3328 3.76162 -0.900189 62 76 138 255 
9.59 3.48182 -0.932092 63 71 136 255 
8.78155 3.18296 -0.942196 68 57 131 255 
8.19825 2.98955 -0.951064 59 81 139 255 
7.72127 2.80937 -0.973938 59 82 139 255 
7.26717 2.63704 -0.990342 60 79 138 255 
6.85009 2.48018 -1.00314 61 78 138 255 
6.4872 2.36176 -1.00838 55 91 141 255 
6.16554 2.24088 -1.02025 57 86 140 255 
5.83702 2.11693 -1.02456 53 95 141 255 
5.56189 2.01377 -1.0345 59 81 139 255 
5.32305 1.93373 -1.03943 51 99 141 255 
5.10422 1.85212 -1.04759 55 91 141 255 
4.87649 1.76857 -1.05254 61 78 138 255 
4.69987 1.70259 -1.06525 62 74 137 255 
4.51172 1.63633 -1.06485 61 77 138 255 
4.37802 1.58688 -1.07852 61 78 138 255 
4.20567 1.52362 -1.08134 59 82 139 255 
4.05538 1.47071 -1.08836 61 78 138 255 
3.91944 1.41765 -1.08955 59 82 139 255 
3.79365 1.37207 -1.09454 62 73 137 255 
3.66346 1.32647 -1.09811 65 66 135 255 
3.52882 1.28114 -1.09993 68 59 132 255 
8.36687 3.00617 2.67067 72 35 116 255 
8.42226 3.03423 2.58898 56 89 140 255 
9.81107 3.53853 2.90613 57 85 140 255 
10.1454 3.65888 2.89588 56 89 140 255 
14.6657 5.27797 4.04547 72 38 119 255 
12.3027 4.42977 3.25533 71 46 124 255 
10.4515 3.76128 2.65238 70 51 127 255 
12.0287 4.32625 2.9277 72 41 121 255 
11.6868 4.2082 2.74011 72 29 111 255 
14.6804 5.28303 3.27934 64 69 136 255 
11.4644 4.11901 2.44081 71 44 122 255 
11.5014 4.12757 2.33102 66 64 134 255 
11.4985 4.1404 2.22979 71 47 125 255 
14.5379 5.22889 2.66585 69 56 130 255 
24.3957 8.75546 4.21658 72 23 105 255 
23.9034 8.5548 3.894 72 40 120 255 
15.0913 5.43114 2.32838 64 70 136 255 
15.2116 5.46817 2.1884 72 33 115 255 
23.9991 8.59894 3.20696 72 31 112 255 
23.8923 8.54143 2.95821 72 27 109 255 
23.8546 8.58489 2.74967 72 24 106 255 
26.1166 9.37282 2.74512 71 16 99 255 
25.1598 9.00986 2.38979 72 29 111 255 
24.9328 8.89871 2.12068 72 28 110 255 
24.8844 8.95061 1.90953 72 33 115 255 
25.0387 8.98106 1.66891 70 11 94 255 
27.1436 9.70424 1.53594 71 17 100 255 
0 0 0 68 2 86 255 
0 0 0 68 2 86 255 
55.8815 20.022 1.57513 69 4 87 255 
52.9999 18.9379 0.96275 70 8 92 255 
52.8924 18.8362 0.440981 70 7 90 255 
52.719 18.9312 -0.00977646 69 5 89 255 
38.2078 13.6745 -0.389563 70 8 92 255 
26.4233 9.43116 -0.528906 70 8 92 255 
19.9988 7.11418 -0.600325 72 23 105 255 
17.6845 6.34001 -0.682307 72 35 116 255 
16.1737 5.78217 -0.782969 70 51 127 255 
13.4944 4.81384 -0.78848 72 38 119 255 
12.2178 4.34385 -0.83627 68 58 131 255 
11.1704 4.00247 -0.86096 65 66 135 255 
10.3501 3.69613 -0.8997 62 73 137 255 
9.62526 3.42792 -0.933457 66 65 134 255 
8.79529 3.12702 -0.941594 68 58 131 255 
8.23048 2.94421 -0.95269 59 81 139 255 
7.75519 2.76795 -0.976057 60 79 138 255 
7.29629 2.59705 -0.99212 61 77 138 255 
6.86705 2.43877 -1.00341 60 79 138 255 
6.50157 2.32191 -1.00838 55 90 140 255 
6.17824 2.20268 -1.0201 57 85 140 255 
5.87592 2.09033 -1.02912 51 98 141 255 
5.58713 1.98422 -1.03691 57 86 140 255 
5.35056 1.90665 -1.0425 56 89 140 255 
5.12937 1.82571 -1.05043 53 95 141 255 
4.8891 1.73927 -1.05294 60 79 138 255 
4.71115 1.67405 -1.06546 64 69 136 255 
4.52719 1.61058 -1.06615 62 73 137 255 
4.39593 1.56292 -1.08055 59 81 139 255 
4.20212 1.49323 -1.07805 63 71 136 255 
4.07072 1.44808 -1.09007 60 79 138 255 
3.90983 1.38711 -1.08449 60 79 138 255 
3.82292 1.35619 -1.10057 64 70 136 255 
3.66609 1.30203 -1.09648 63 71 136 255 
3.54565 1.26269 -1.10275 68 58 131 255 
9.70485 3.41981 3.09099 55 91 141 255 
11.3808 4.02136 3.49078 72 38 119 255 
9.89798 3.5014 2.92546 69 55 129 255 
10.1576 3.59301 2.89303 70 52 128 255 
10.1405 3.5793 2.79111 55 91 141 255 
10.194 3.60001 2.69148 70 51 127 255 
12.2125 4.31056 3.0925 71 19 101 255 
12.0605 4.2543 2.92904 67 62 133 255 
11.88 4.1956 2.77931 65 68 135 255 
14.7347 5.20067 3.28428 72 35 116 255 
14.6873 5.17544 3.12017 72 41 121 255 
14.8743 5.23519 3.00803 71 47 125 255 
11.5682 4.0855 2.23841 62 73 137 255 
11.621 4.09941 2.12632 70 48 126 255 
14.6824 5.16795 2.53219 72 27 109 255 
15.0084 5.26771 2.43964 71 42 122 255 
15.1468 5.34634 2.33183 65 68 135 255 
23.7869 8.38632 3.41462 72 29 111 255 
24.0439 8.44889 3.20597 72 24 106 255 
23.9452 8.39499 2.95833 71 17 100 255 
27.847 9.82914 3.20286 71 14 97 255 
25.4414 8.95469 2.66833 72 22 104 255 
25.1356 8.82759 2.38231 72 35 116 255 
25.002 8.75082 2.12196 72 28 110 255 
24.9247 8.79277 1.90845 72 20 103 255 
27.0667 9.52143 1.80016 69 5 89 255 
27.2082 9.53949 1.53626 70 7 90 255 
0 0 0 68 2 86 255 
0 0 0 68 2 86 255 
59.6381 20.9559 1.67736 69 5 89 255 
0 0 0 68 2 86 255 
0 0 0 69 4 87 255 
54.3546 19.1429 -0.0100578 69 5 89 255 
38.0976 13.372 -0.387595 70 10 93 255 
26.5807 9.30386 -0.530904 70 10 93 255 
20.2497 7.06377 -0.606545 72 22 104 255 
17.3846 6.11239 -0.669277 72 32 113 255 
16.1985 5.67919 -0.782468 71 46 124 255 
13.518 4.72897 -0.78815 72 37 118 255 
12.2933 4.28588 -0.839616 69 53 129 255 
11.1985 3.93517 -0.86125 64 69 136 255 
10.3932 3.6398 -0.901495 61 77 138 255 
9.65081 3.37044 -0.933912 64 69 136 255 
8.82464 3.0766 -0.942698 68 57 131 255 
8.25496 2.89596 -0.953448 62 73 137 255 
7.77297 2.72064 -0.976175 57 85 140 255 
7.32614 2.55714 -0.994026 56 88 140 255 
6.87065 2.39268 -1.00177 61 77 138 255 
6.50916 2.27969 -1.00737 57 86 140 255 
6.18791 2.16342 -1.01948 58 84 140 255 
5.88398 2.05261 -1.0283 52 97 141 255 
5.60106 1.95055 -1.03726 54 93 141 255 
5.36123 1.87346 -1.04232 53 94 141 255 
5.15623 1.7997 -1.05366 53 95 141 255 
4.92466 1.71796 -1.05831 53 95 141 255 
4.71948 1.64446 -1.06505 65 68 135 255 
4.56556 1.59274 -1.07287 62 73 137 255 
4.37508 1.52534 -1.0731 57 85 140 255 
4.21212 1.46774 -1.07829 62 74 137 255 
4.08044 1.42339 -1.09032 64 70 136 255 
3.9274 1.36627 -1.08702 61 77 138 255 
3.82114 1.32922 -1.09768 64 70 136 255 
3.64583 1.2697 -1.08807 64 69 136 255 
3.55786 1.24249 -1.10415 66 64 134 255 
11.5931 4.0054 3.68451 72 37 118 255 
10.1481 3.5159 3.106 67 61 132 255 
10.0494 3.48574 2.96384 71 45 123 255 
10.1256 3.51195 2.87773 57 86 140 255 
10.4294 3.60944 2.86446 66 64 134 255 
10.3608 3.58756 2.72965 67 62 133 255 
9.45822 3.27328 2.38993 71 42 122 255 
11.7934 4.0789 2.85805 72 31 112 255 
14.6027 5.05662 3.40898 70 48 126 255 
12.065 4.17531 2.68346 70 50 126 255 
12.0052 4.14771 2.54494 72 35 116 255 
14.9841 5.17074 3.02377 72 31 112 255 
11.6442 4.03214 2.24828 72 24 106 255 
11.6562 4.03157 2.12819 58 83 139 255 
14.4246 4.97795 2.48242 70 51 127 255 
15.1264 5.20511 2.45359 72 33 115 255 
24.2919 8.40703 3.73171 72 20 103 255 
24.3193 8.40662 3.48358 72 22 104 255 
23.9077 8.23656 3.181 72 37 118 255 
24.48 8.41419 3.01797 71 16 99 255 
24.7614 8.56951 2.84186 70 11 94 255 
26.0161 8.97793 2.72277 71 16 99 255 
25.1752 8.66833 2.38097 72 29 111 255 
25.0382 8.59143 2.12052 72 22 104 255 
25.2044 8.71792 1.92573 71 13 96 255 
26.6482 9.19085 1.76854 72 20 103 255 
0 0 0 69 4 87 255 
51.1293 17.5242 2.36929 69 4 87 255 
59.298 20.4874 2.25662 70 7 90 255 
0 0 0 69 4 87 255 
0 0 0 69 4 87 255 
0 0 0 68 1 84 255 
54.3396 18.7636 -0.0100335 70 8 92 255 
38.4446 13.2294 -0.390292 70 8 92 255 
27.0591 9.28532 -0.53931 71 13 96 255 
20.6748 7.07005 -0.617966 72 26 108 255 
17.7496 6.11861 -0.681872 72 33 115 255 
16.1688 5.55761 -0.779372 72 37 118 255 
13.5893 4.66051 -0.790623 72 38 119 255 
12.3023 4.20456 -0.838458 70 52 128 255 
11.2366 3.87126 -0.862335 66 63 133 255 
10.4173 3.57661 -0.901658 63 72 137 255 
9.68639 3.31632 -0.935367 60 80 139 255 
8.88384 3.03623 -0.947013 68 58 131 255 
8.27915 2.84752 -0.954207 61 78 138 255 
7.782 2.67031 -0.975233 60 79 138 255 
7.33793 2.51085 -0.993518 59 81 139 255 
6.88239 2.34951 -1.00137 60 79 138 255 
6.53613 2.2442 -1.00939 56 88 140 255 
6.19639 2.12381 -1.01872 58 84 140 255 
5.9058 2.01966 -1.02993 50 102 142 255 
5.6092 1.91487 -1.03657 56 89 140 255 
5.36332 1.83734 -1.04051 56 89 140 255 
5.16718 1.76803 -1.05366 56 88 140 255 
4.93233 1.68676 -1.05771 53 95 141 255 
4.7591 1.62559 -1.07172 64 69 136 255 
4.5891 1.56943 -1.07612 62 76 138 255 
4.37422 1.495 -1.07062 59 81 139 255 
4.23116 1.44532 -1.08087 60 79 138 255 
4.06616 1.39048 -1.0842 63 71 136 255 
3.93937 1.3434 -1.08803 61 77 138 255 
3.81644 1.30139 -1.09402 61 77 138 255 
3.66175 1.2501 -1.09052 64 70 136 255 
3.54635 1.21411 -1.09825 65 66 135 255 
8.58135 2.90602 2.72159 70 50 126 255 
10.2122 3.46808 3.11906 52 96 141 255 
10.1153 3.43921 2.977 62 73 137 255 
