ply
format ascii 1.0
comment VTK generated PLY File
obj_info vtkPolyData points and polygons: vtk4.0
element vertex 1227
property float x
property float y
property float z
property uchar red
property uchar green
property uchar blue
property uchar alpha
element face 0
property list uchar int vertex_indices
end_header
2.26903 3.46731 -1.08323 64 70 136 255 
2.21753 3.38847 -1.09873 63 71 136 255 
2.14344 3.27781 -1.10381 61 78 138 255 
2.06453 3.16308 -1.10668 64 69 136 255 
6.87758 10.461 3.76075 70 51 127 255 
5.67149 8.64266 2.9896 61 78 138 255 
6.70256 10.2218 3.40592 72 32 113 255 
5.64869 8.61425 2.76596 59 81 139 255 
5.65319 8.60848 2.67303 66 64 134 255 
6.81745 10.385 3.09275 72 28 110 255 
8.11014 12.3497 3.52799 72 40 120 255 
5.52407 8.40824 2.30416 72 41 121 255 
5.4843 8.35446 2.20458 64 69 136 255 
5.56102 8.46788 2.12932 53 95 141 255 
5.40918 8.22742 1.97285 55 90 140 255 
5.39715 8.20258 1.87306 50 101 142 255 
5.35921 8.16391 1.78179 48 105 142 255 
5.57043 8.47897 1.75054 56 89 140 255 
6.34315 9.64068 1.87739 69 56 130 255 
6.83142 10.3627 1.90371 72 29 111 255 
6.93264 10.5568 1.83346 72 32 113 255 
16.7925 25.5509 4.13935 70 7 90 255 
6.65589 10.1045 1.5221 54 92 141 255 
6.7213 10.1879 1.423 48 106 142 255 
6.75055 10.2795 1.33381 60 80 139 255 
20.8923 31.7526 3.76035 70 8 92 255 
19.1083 28.9977 3.10545 71 14 97 255 
19.4947 29.5158 2.83359 72 20 103 255 
19.3651 29.4773 2.54669 70 10 93 255 
21.5672 32.7659 2.46107 72 20 103 255 
21.569 32.6947 2.08701 70 8 92 255 
37.2734 56.3908 2.96313 69 4 87 255 
30.5849 46.5205 2.00255 69 5 89 255 
8.82541 13.3978 0.425714 70 7 90 255 
28.2864 42.8609 0.878447 70 8 92 255 
10.6928 16.1649 0.152224 69 5 89 255 
17.0203 25.8785 -0.00540598 70 7 90 255 
13.5577 20.5662 -0.236466 71 14 97 255 
10.7056 16.2093 -0.366206 72 33 115 255 
7.8545 11.8651 -0.402432 72 27 109 255 
6.89224 10.4674 -0.455174 68 58 131 255 
6.51054 9.86862 -0.538934 61 78 138 255 
6.25885 9.47291 -0.624838 62 74 137 255 
6.18492 9.33946 -0.72242 60 80 139 255 
6.14315 9.3262 -0.810303 56 88 140 255 
5.90924 8.95037 -0.877997 69 56 130 255 
5.4836 8.29011 -0.908073 68 59 132 255 
5.14358 7.767 -0.939687 64 69 136 255 
4.78706 7.2592 -0.947706 62 74 137 255 
4.50635 6.82291 -0.96923 58 83 139 255 
4.24591 6.41653 -0.98564 57 86 140 255 
4.01913 6.06444 -1.00177 57 85 140 255 
3.8053 5.76388 -1.00881 55 90 140 255 
3.61404 5.46775 -1.01933 57 86 140 255 
3.42565 5.17497 -1.02407 54 92 141 255 
3.26394 4.92494 -1.03329 60 79 138 255 
3.10894 4.70197 -1.03456 54 93 141 255 
2.98344 4.50857 -1.04305 57 86 140 255 
2.84382 4.29603 -1.04538 62 73 137 255 
2.74237 4.13952 -1.05817 65 68 135 255 
2.66256 4.02229 -1.07027 61 77 138 255 
2.54695 3.84602 -1.06836 58 84 140 255 
2.4645 3.72019 -1.07876 64 70 136 255 
2.37478 3.58737 -1.08543 66 64 134 255 
2.31218 3.48638 -1.0936 63 71 136 255 
2.23401 3.36837 -1.09664 61 78 138 255 
2.16457 3.2662 -1.10435 62 76 138 255 
2.08337 3.14955 -1.1064 65 66 135 255 
7.12378 10.692 3.85943 64 70 136 255 
7.48148 11.2498 3.90723 72 41 121 255 
5.70045 8.57831 2.8699 70 51 127 255 
5.70411 8.58345 2.76725 64 70 136 255 
5.76436 8.66146 2.70042 71 42 122 255 
8.46774 12.728 3.8059 69 56 130 255 
8.12163 12.2033 3.50035 72 31 112 255 
8.18318 12.2907 3.38179 72 31 112 255 
5.52626 8.30684 2.20092 72 24 106 255 
5.58685 8.39449 2.11945 47 108 142 255 
5.46771 8.20632 1.97579 56 88 140 255 
5.44357 8.16359 1.87175 49 104 142 255 
5.43862 8.1751 1.79148 48 106 142 255 
5.58412 8.38721 1.73863 54 93 141 255 
6.82436 10.2347 2.00119 66 63 133 255 
5.72972 8.57653 1.58201 72 31 112 255 
6.48463 9.74374 1.69913 66 63 133 255 
17.1693 25.7781 4.19314 72 26 108 255 
17.1037 25.622 3.87534 71 16 99 255 
18.0247 26.9599 3.781 71 17 100 255 
6.7518 10.1452 1.32173 71 17 100 255 
20.9476 31.4152 3.73554 71 17 100 255 
19.5989 29.3488 3.15586 71 16 99 255 
19.7259 29.471 2.84086 71 17 100 255 
20.4875 30.7726 2.66941 70 7 90 255 
21.826 32.7201 2.46765 72 22 104 255 
35.2134 52.6713 3.3759 70 7 90 255 
0 0 0 68 2 86 255 
25.3363 38.027 1.6436 69 5 89 255 
25.4497 38.1238 1.21632 70 7 90 255 
25.6479 38.349 0.789185 70 7 90 255 
8.691 12.965 0.122592 69 4 87 255 
16.9774 25.4716 -0.00534263 70 7 90 255 
13.1937 19.7492 -0.227999 71 16 99 255 
11.5656 17.28 -0.391991 72 35 116 255 
9.27703 13.8289 -0.470959 72 20 103 255 
6.958 10.4274 -0.455283 60 79 138 255 
6.54099 9.78364 -0.536475 63 71 136 255 
6.32186 9.44179 -0.625333 59 81 139 255 
6.27436 9.34939 -0.726153 56 88 140 255 
6.24289 9.3522 -0.815875 54 93 141 255 
5.95906 8.90649 -0.877262 68 57 131 255 
5.53437 8.2563 -0.908073 68 58 131 255 
5.17839 7.71629 -0.937378 62 73 137 255 
4.83317 7.23217 -0.948031 59 81 139 255 
4.54979 6.79761 -0.969583 56 88 140 255 
4.28796 6.39447 -0.986275 56 89 140 255 
4.05295 6.03473 -1.00096 59 81 139 255 
3.8428 5.74372 -1.00939 53 95 141 255 
3.64148 5.43645 -1.01764 54 92 141 255 
3.46283 5.16205 -1.0257 53 95 141 255 
3.27542 4.87701 -1.02744 61 78 138 255 
3.14211 4.68934 -1.036 58 83 139 255 
3.00886 4.48691 -1.04229 59 82 139 255 
2.86958 4.27769 -1.04518 60 79 138 255 
2.7808 4.1421 -1.06317 62 76 138 255 
2.67903 3.99371 -1.06702 61 78 138 255 
2.57267 3.83356 -1.06927 60 80 139 255 
2.48674 3.70419 -1.07852 62 74 137 255 
2.40431 3.584 -1.08885 64 69 136 255 
2.32813 3.4641 -1.09107 61 78 138 255 
2.25195 3.35059 -1.09533 61 77 138 255 
2.17599 3.24007 -1.10001 62 73 137 255 
2.10159 3.13511 -1.10584 62 74 137 255 
7.27875 10.7806 3.90747 70 51 127 255 
7.84725 11.6442 4.06086 72 40 120 255 
8.00208 11.8831 3.99187 71 42 122 255 
5.75721 8.54909 2.76751 70 48 126 255 
5.82227 8.63315 2.70268 72 40 120 255 
8.41169 12.477 3.74623 72 40 120 255 
8.17026 12.1146 3.4892 72 22 104 255 
8.30042 12.3025 3.39898 72 22 104 255 
9.61873 14.2678 3.79587 72 20 103 255 
5.54468 8.22131 2.08428 59 81 139 255 
8.52137 12.6209 3.05121 70 50 126 255 
5.51555 8.16259 1.87925 72 27 109 255 
5.50408 8.16442 1.79651 52 96 141 255 
5.5958 8.29398 1.72639 47 108 142 255 
5.77521 8.54718 1.67812 53 94 141 255 
5.78334 8.54285 1.58231 56 88 140 255 
6.48454 9.61515 1.68361 72 26 108 255 
17.1808 25.4554 4.15773 70 7 90 255 
18.3291 27.0961 4.11523 70 10 93 255 
18.1931 26.8537 3.7817 71 13 96 255 
20.9715 31.0962 4.06795 70 8 92 255 
21.1294 31.2704 3.73367 71 14 97 255 
19.7468 29.1809 3.15079 71 17 100 255 
20.1553 29.7166 2.87639 70 10 93 255 
19.5312 28.9497 2.52163 71 14 97 255 
22.1331 32.7435 2.47961 72 20 103 255 
22.2744 32.879 2.11606 71 14 97 255 
37.9508 55.9118 2.96221 69 4 87 255 
25.5966 37.9114 1.64536 71 13 96 255 
25.6714 37.9495 1.21576 70 10 93 255 
25.6976 37.9178 0.783541 70 11 94 255 
0 0 0 69 4 87 255 
17.256 25.5484 -0.00538085 70 7 90 255 
13.318 19.6729 -0.228057 71 14 97 255 
11.4015 16.8107 -0.382925 72 36 117 255 
10.0484 14.7819 -0.505506 72 37 118 255 
6.99834 10.3498 -0.453759 66 64 134 255 
6.58409 9.71851 -0.535109 58 84 140 255 
6.36005 9.37391 -0.62341 63 71 136 255 
6.33779 9.3198 -0.726861 58 83 139 255 
6.30686 9.32364 -0.816744 59 81 139 255 
5.99178 8.83759 -0.87408 71 44 122 255 
5.57709 8.21066 -0.9068 68 57 131 255 
5.21949 7.67532 -0.936274 66 65 134 255 
4.87745 7.20237 -0.948031 60 79 138 255 
4.58138 6.75477 -0.967464 56 88 140 255 
4.31764 6.3541 -0.984115 57 85 140 255 
4.09102 6.01138 -1.00123 58 84 140 255 
3.87075 5.70938 -1.00751 59 82 139 255 
3.6731 5.41155 -1.01718 54 92 141 255 
3.49666 5.14397 -1.02635 54 93 141 255 
3.2942 4.84054 -1.02399 63 72 137 255 
3.16862 4.66672 -1.03528 57 86 140 255 
3.03192 4.46187 -1.04077 60 80 139 255 
2.90184 4.26892 -1.04737 60 80 139 255 
2.80012 4.11606 -1.06088 62 74 137 255 
2.70239 3.97559 -1.06659 61 78 138 255 
2.59614 3.8177 -1.06927 61 77 138 255 
2.51106 3.69127 -1.07923 63 72 137 255 
2.42953 3.57399 -1.09032 65 68 135 255 
2.35697 3.46094 -1.09461 59 81 139 255 
2.27572 3.3415 -1.0969 60 80 139 255 
2.19095 3.2195 -1.09757 61 78 138 255 
2.11971 3.12057 -1.10528 62 74 137 255 
7.49618 10.9571 3.98803 70 50 126 255 
6.76086 9.9005 3.46716 72 37 118 255 
8.60966 12.6175 4.25626 72 36 117 255 
7.5178 11.017 3.58127 70 48 126 255 
5.71949 8.36951 2.63108 62 74 137 255 
5.61986 8.22656 2.48033 66 64 134 255 
5.73154 8.38705 2.42569 54 93 141 255 
9.73458 14.2389 3.95041 72 35 116 255 
9.7463 14.2674 3.81159 69 55 129 255 
5.55858 8.13381 2.0707 57 86 140 255 
8.6053 12.5781 3.05357 61 78 138 255 
5.60826 8.19101 1.89368 54 92 141 255 
5.55796 8.13618 1.79776 54 92 141 255 
5.5665 8.14234 1.70191 60 80 139 255 
6.99573 10.2178 2.01451 51 99 141 255 
6.55917 9.56194 1.77849 72 31 112 255 
17.2851 25.2939 4.44745 72 22 104 255 
17.4692 25.5434 4.18952 71 16 99 255 
18.3278 26.7392 4.07804 70 11 94 255 
21.5258 31.3569 4.43437 70 7 90 255 
18.8694 27.6123 3.62726 70 8 92 255 
20.884 30.5022 3.65717 71 13 96 255 
18.4244 26.87 2.91342 70 10 93 255 
19.0122 27.6643 2.68898 70 7 90 255 
22.3766 32.7321 2.863 71 14 97 255 
22.3409 32.6178 2.48042 72 24 106 255 
22.6616 33.0125 2.13356 71 13 96 255 
36.593 53.206 2.8307 69 4 87 255 
38.3856 56.1079 2.44527 69 4 87 255 
0 0 0 69 4 87 255 
29.233 42.5695 0.883356 70 11 94 255 
25.1792 36.583 0.348807 69 4 87 255 
17.3068 25.2877 -0.00534821 69 5 89 255 
13.474 19.6428 -0.228662 71 16 99 255 
11.3374 16.4973 -0.377365 72 31 112 255 
10.093 14.6533 -0.503216 71 42 122 255 
7.33284 10.7023 -0.47118 67 62 133 255 
6.66112 9.70346 -0.536521 57 86 140 255 
6.45196 9.3849 -0.626762 63 71 136 255 
6.42033 9.31771 -0.729757 57 85 140 255 
6.38143 9.31026 -0.818987 59 81 139 255 
6.06339 8.82612 -0.87661 67 61 132 255 
5.63188 8.18285 -0.907528 68 59 132 255 
5.26705 7.64397 -0.936375 60 79 138 255 
4.92493 7.17723 -0.948681 60 79 138 255 
4.63567 6.74536 -0.970172 56 88 140 255 
4.35655 6.32748 -0.984115 59 81 139 255 
4.12108 5.97638 -0.999592 60 80 139 255 
3.90011 5.67737 -1.00607 61 78 138 255 
3.72024 5.40926 -1.02102 52 97 141 255 
3.5304 5.12566 -1.027 54 92 141 255 
3.34509 4.85105 -1.03054 59 81 139 255 
3.19496 4.64395 -1.03456 57 85 140 255 
3.07149 4.46098 -1.04494 61 77 138 255 
2.92631 4.24861 -1.04677 60 79 138 255 
2.83587 4.11411 -1.06484 64 70 136 255 
2.72285 3.9533 -1.06507 62 73 137 255 
2.62228 3.80571 -1.07039 65 66 135 255 
2.53256 3.67419 -1.07876 65 68 135 255 
2.45526 3.56461 -1.09203 63 71 136 255 
2.37157 3.43686 -1.09158 59 81 139 255 
2.28467 3.31079 -1.0914 60 79 138 255 
2.20083 3.19173 -1.09269 63 71 136 255 
2.1448 3.1162 -1.10837 60 79 138 255 
7.584 10.9408 3.99896 66 65 134 255 
7.81846 11.2997 3.9739 67 61 132 255 
5.71001 8.25879 2.79769 53 94 141 255 
9.14735 13.2299 4.31879 72 40 120 255 
5.78561 8.35574 2.63786 54 93 141 255 
9.30533 13.4436 4.07044 72 40 120 255 
5.74247 8.29335 2.40874 62 76 138 255 
5.6949 8.22126 2.29055 66 63 133 255 
8.78716 12.6954 3.40596 72 29 111 255 
10.0201 14.4709 3.69957 72 40 120 255 
6.25632 9.02535 2.20035 49 103 142 255 
10.3796 14.9618 3.47367 72 22 104 255 
5.6005 8.09141 1.79543 47 108 142 255 
5.60681 8.09426 1.69901 68 58 131 255 
7.17475 10.3426 2.04775 72 20 103 255 
6.77623 9.74959 1.82109 68 58 131 255 
17.2496 24.9123 4.39889 70 10 93 255 
17.6177 25.4243 4.18764 72 26 108 255 
21.6456 31.1679 4.77363 70 7 90 255 
18.8463 27.0957 3.84805 71 13 96 255 
18.5224 26.7505 3.52892 71 13 96 255 
18.6708 26.914 3.24063 71 14 97 255 
18.7776 27.028 2.94299 70 10 93 255 
19.156 27.5103 2.68539 71 19 101 255 
21.4184 30.9216 2.71608 70 7 90 255 
22.6334 32.6138 2.49063 71 16 99 255 
22.8655 32.8753 2.13372 71 14 97 255 
0 0 0 68 2 86 255 
38.7315 55.8746 2.44541 69 5 89 255 
0 0 0 68 2 86 255 
29.7164 42.7095 0.890026 70 8 92 255 
25.3088 36.2925 0.347512 69 4 87 255 
17.4656 25.1868 -0.00534943 70 7 90 255 
13.5641 19.5162 -0.228153 71 16 99 255 
11.423 16.4053 -0.376856 72 28 110 255 
9.72793 13.9394 -0.480741 72 38 119 255 
7.31972 10.5438 -0.466171 63 71 136 255 
6.85344 9.85349 -0.547131 62 76 138 255 
6.56763 9.4287 -0.632367 60 79 138 255 
6.50594 9.31905 -0.732975 57 86 140 255 
6.48225 9.33401 -0.824559 57 86 140 255 
6.11344 8.78302 -0.876038 65 68 135 255 
5.69622 8.16856 -0.909802 63 71 136 255 
5.31841 7.61804 -0.937178 59 82 139 255 
4.97568 7.15667 -0.949981 56 89 140 255 
4.68208 6.72412 -0.971231 59 82 139 255 
4.39415 6.29901 -0.983861 58 83 139 255 
4.16448 5.96073 -1.00123 57 86 140 255 
3.949 5.67363 -1.00968 59 82 139 255 
3.75279 5.38552 -1.02087 54 92 141 255 
3.55444 5.09339 -1.02488 54 92 141 255 
3.3652 4.81671 -1.02761 62 74 137 255 
3.22227 4.62265 -1.03419 61 77 138 255 
3.0915 4.43158 -1.04248 58 84 140 255 
2.95288 4.23138 -1.04697 63 71 136 255 
2.86274 4.09903 -1.06546 62 74 137 255 
2.76047 3.95573 -1.07027 61 77 138 255 
2.65228 3.79913 -1.0731 60 80 139 255 
2.55728 3.66177 -1.0797 60 79 138 255 
2.45434 3.51688 -1.082 59 81 139 255 
2.40702 3.44286 -1.09815 59 82 139 255 
2.32043 3.31886 -1.09873 61 77 138 255 
2.21817 3.17501 -1.0916 59 82 139 255 
2.16388 3.10298 -1.10837 61 78 138 255 
5.78999 8.24422 3.02626 53 94 141 255 
7.9075 11.2799 3.98391 72 41 121 255 
5.74898 8.20703 2.79206 67 62 133 255 
5.75844 8.22019 2.6949 68 59 132 255 
5.83566 8.3185 2.63736 52 97 141 255 
9.56147 13.6342 4.14581 72 41 121 255 
9.79786 13.9663 4.07379 72 38 119 255 
5.77436 8.22765 2.30216 53 94 141 255 
5.56586 7.93685 2.13845 72 36 117 255 
6.23125 8.88214 2.28051 70 48 126 255 
10.338 14.7199 3.60405 72 24 106 255 
6.28846 8.9469 2.08612 56 88 140 255 
6.02565 8.59251 1.91479 55 90 140 255 
5.69317 8.11214 1.71007 43 117 142 255 
7.07972 10.0731 2.00295 72 35 116 255 
6.73235 9.56074 1.7935 67 61 132 255 
6.98779 9.96081 1.76637 62 76 138 255 
17.7386 25.2662 4.17946 70 10 93 255 
21.1827 30.1054 4.63071 71 13 96 255 
19.0133 26.9812 3.84828 71 13 96 255 
18.7341 26.7047 3.53798 71 17 100 255 
19.0062 27.0415 3.26996 71 17 100 255 
19.2825 27.3945 2.99572 70 10 93 255 
19.5405 27.6985 2.71541 70 8 92 255 
20.7965 29.6335 2.6141 69 5 89 255 
20.5248 29.1914 2.23885 71 13 96 255 
23.0133 32.6585 2.12878 72 20 103 255 
22.9099 32.4506 1.74128 69 5 89 255 
0 0 0 68 1 84 255 
0 0 0 69 4 87 255 
29.9906 42.5443 0.890403 70 8 92 255 
24.7757 35.0674 0.337231 69 4 87 255 
17.5836 25.0276 -0.00533844 70 7 90 255 
13.6651 19.4064 -0.227846 71 14 97 255 
11.4231 16.1927 -0.373576 72 27 109 255 
9.78096 13.8337 -0.479158 72 31 112 255 
7.43488 10.5707 -0.469365 60 80 139 255 
7.14567 10.1403 -0.565483 61 77 138 255 
6.75144 9.56688 -0.644401 62 73 137 255 
6.65002 9.40198 -0.742693 57 86 140 255 
6.57556 9.34545 -0.829118 62 74 137 255 
6.17584 8.75757 -0.877262 68 59 132 255 
5.73877 8.12288 -0.908619 68 58 131 255 
5.35931 7.57714 -0.936174 62 74 137 255 
5.00519 7.10569 -0.947272 62 74 137 255 
4.72268 6.69446 -0.971113 57 85 140 255 
4.42871 6.26626 -0.982972 61 77 138 255 
4.21013 5.948 -1.00341 59 82 139 255 
3.97063 5.6307 -1.00635 60 79 138 255 
3.78235 5.35755 -1.01995 57 85 140 255 
3.55942 5.03442 -1.0174 60 80 139 255 
3.389 4.78793 -1.02589 61 78 138 255 
3.25001 4.60198 -1.03401 58 83 139 255 
3.1192 4.41333 -1.04267 55 90 140 255 
2.98388 4.22038 -1.04876 62 74 137 255 
2.88331 4.075 -1.0638 62 74 137 255 
2.77905 3.93075 -1.0681 61 77 138 255 
2.67385 3.7804 -1.07243 62 76 138 255 
2.55612 3.61269 -1.06983 62 74 137 255 
2.49099 3.52313 -1.08861 63 72 137 255 
2.42419 3.4225 -1.09638 56 88 140 255 
2.3441 3.30928 -1.1003 64 70 136 255 
2.26486 3.19984 -1.10489 60 79 138 255 
2.17347 3.07632 -1.10359 61 77 138 255 
5.83102 8.19527 3.02137 61 78 138 255 
7.8375 11.0353 3.91445 71 47 125 255 
8.08335 11.3901 3.89176 71 47 125 255 
5.81045 8.18707 2.69568 46 110 142 255 
5.88603 8.28175 2.63711 56 89 140 255 
6.00302 8.44922 2.58035 57 86 140 255 
5.8579 8.24208 2.41455 61 78 138 255 
5.71459 8.03715 2.25862 51 99 141 255 
5.72135 8.05301 2.17916 48 105 142 255 
5.68808 8.003 2.06371 50 101 142 255 
6.30464 8.86082 2.17893 68 59 132 255 
6.35691 8.92735 2.09061 71 47 125 255 
7.01325 9.87141 2.20933 61 78 138 255 
5.72228 8.04814 1.70395 58 84 140 255 
6.66622 9.36208 1.86968 63 71 136 255 
6.42924 9.01231 1.69799 57 86 140 255 
6.40323 9.00946 1.6046 49 103 142 255 
22.4958 31.6276 5.25448 70 10 93 255 
22.0069 30.8724 4.76938 70 8 92 255 
21.1765 29.6627 4.2492 70 8 92 255 
18.9932 26.7238 3.55588 72 20 103 255 
19.0557 26.7614 3.25017 71 13 96 255 
20.564 28.8376 3.16726 70 8 92 255 
20.3082 28.415 2.79782 70 8 92 255 
20.5566 28.9128 2.5616 71 13 96 255 
23.26 32.6538 2.5153 70 11 94 255 
23.2759 32.6044 2.13452 71 17 100 255 
23.2463 32.502 1.75166 70 8 92 255 
0 0 0 68 2 86 255 
24.0465 33.733 1.09926 71 13 96 255 
23.8005 33.327 0.700538 71 14 97 255 
23.824 33.2852 0.321492 71 16 99 255 
17.7253 24.903 -0.00533495 70 7 90 255 
13.7776 19.3133 -0.22774 71 19 101 255 
11.4891 16.076 -0.372502 72 24 106 255 
9.84762 13.7483 -0.478281 72 35 116 255 
8.84908 12.4187 -0.553823 72 32 113 255 
7.34357 10.2865 -0.576138 66 64 134 255 
6.86925 9.60813 -0.650006 64 69 136 255 
6.77268 9.45185 -0.749901 63 72 137 255 
6.65535 9.3366 -0.831941 58 83 139 255 
6.24336 8.73897 -0.87922 67 61 132 255 
5.79719 8.09966 -0.909984 69 56 130 255 
5.41729 7.56029 -0.938181 66 65 134 255 
5.05447 7.08293 -0.948356 61 78 138 255 
4.75096 6.64758 -0.968524 59 82 139 255 
4.47516 6.25025 -0.984751 61 77 138 255 
4.24366 5.91803 -1.00273 55 90 140 255 
3.99877 5.59737 -1.00476 61 77 138 255 
3.8186 5.33906 -1.02087 55 91 141 255 
3.58106 4.99965 -1.01479 62 74 137 255 
3.44243 4.80066 -1.03312 61 77 138 255 
3.28791 4.59555 -1.03708 58 83 139 255 
3.14737 4.3957 -1.04305 58 83 139 255 
2.99831 4.18606 -1.04478 61 78 138 255 
2.90712 4.05565 -1.06338 62 73 137 255 
2.79914 3.90807 -1.06659 60 79 138 255 
2.69132 3.75601 -1.07017 60 79 138 255 
2.5924 3.61668 -1.0757 60 80 139 255 
2.5007 3.49122 -1.08347 62 74 137 255 
2.42822 3.38398 -1.08879 60 79 138 255 
2.3486 3.27288 -1.09297 62 73 137 255 
2.27996 3.17962 -1.10272 58 83 139 255 
2.18728 3.0559 -1.10106 64 69 136 255 
5.88344 8.16245 3.02252 51 99 141 255 
5.83539 8.11045 2.88958 72 36 117 255 
5.81552 8.08893 2.77595 69 53 129 255 
5.85268 8.14028 2.69205 53 95 141 255 
5.48994 7.62492 2.43864 62 76 138 255 
5.97652 8.30354 2.54701 58 83 139 255 
5.76344 8.0047 2.35532 72 36 117 255 
5.72334 7.94578 2.24277 62 73 137 255 
5.70277 7.92343 2.15352 52 96 141 255 
5.68161 7.89091 2.04375 53 95 141 255 
5.8211 8.07586 1.99465 58 84 140 255 
7.23334 10.0274 2.35857 67 62 133 255 
7.07024 9.8234 2.20825 64 70 136 255 
5.32289 7.38998 1.57149 53 95 141 255 
6.6912 9.27617 1.86069 61 78 138 255 
5.31954 7.36081 1.39295 56 88 140 255 
6.437 8.94029 1.59928 55 90 140 255 
17.577 24.3938 4.07052 71 13 96 255 
20.5887 28.5111 4.42402 70 8 92 255 
17.6911 24.4617 3.51963 71 13 96 255 
17.6465 24.5091 3.27553 70 8 92 255 
17.7198 24.565 2.99656 72 23 105 255 
19.4096 26.8684 2.96401 71 19 101 255 
19.4142 26.8147 2.65193 71 16 99 255 
20.6397 28.6558 2.55 72 20 103 255 
20.9831 29.0782 2.24974 71 16 99 255 
23.3731 32.3194 2.12521 71 17 100 255 
0 0 0 68 2 86 255 
0 0 0 69 4 87 255 
23.9627 33.1828 1.0861 72 20 103 255 
23.9535 33.1098 0.69905 70 8 92 255 
23.9949 33.0931 0.321052 69 4 87 255 
17.907 24.8343 -0.00534367 70 8 92 255 
13.9239 19.2673 -0.228201 71 14 97 255 
11.5553 15.9606 -0.371465 72 26 108 255 
9.92827 13.6827 -0.478112 72 32 113 255 
8.92161 12.3593 -0.553606 72 37 118 255 
8.29754 11.4733 -0.645446 72 38 119 255 
7.16879 9.89816 -0.67259 64 69 136 255 
7.39566 10.1886 -0.811942 64 70 136 255 
6.9052 9.56243 -0.855822 59 82 139 255 
6.30037 8.70534 -0.87971 69 56 130 255 
5.83626 8.04942 -0.908346 68 57 131 255 
5.47117 7.53737 -0.939486 62 74 137 255 
5.10017 7.05501 -0.948789 61 77 138 255 
4.79632 6.62474 -0.969465 54 92 141 255 
4.51168 6.22027 -0.98437 58 84 140 255 
4.27407 5.88387 -1.00137 57 86 140 255 
4.03652 5.57754 -1.00563 59 82 139 255 
3.85186 5.31633 -1.02102 54 93 141 255 
3.6134 4.97998 -1.01528 64 70 136 255 
3.46313 4.7675 -1.03054 62 73 137 255 
3.32702 4.59042 -1.04051 57 86 140 255 
3.17601 4.37869 -1.04361 57 86 140 255 
3.04236 4.19297 -1.05115 59 81 139 255 
2.93138 4.03694 -1.06317 62 74 137 255 
2.82708 3.89635 -1.0681 62 74 137 255 
2.71603 3.74179 -1.07085 61 78 138 255 
2.61968 3.60779 -1.07782 60 80 139 255 
2.52663 3.48209 -1.08543 63 71 136 255 
2.43984 3.35649 -1.08475 60 79 138 255 
2.37205 3.26309 -1.09454 59 81 139 255 
2.29151 3.15467 -1.09892 60 79 138 255 
2.20711 3.04398 -1.10162 62 74 137 255 
10.5408 14.4363 5.36954 72 27 109 255 
5.89296 8.08536 2.89347 68 57 131 255 
5.87638 8.06867 2.78132 62 74 137 255 
5.94516 8.16277 2.7115 62 73 137 255 
5.55259 7.61299 2.44567 54 92 141 255 
5.78153 7.92955 2.44313 62 73 137 255 
5.65482 7.75308 2.29145 58 84 140 255 
5.7651 7.90106 2.24009 60 79 138 255 
5.74725 7.88277 2.15202 52 96 141 255 
5.75184 7.88594 2.05157 45 113 142 255 
5.8636 8.03049 1.9923 48 105 142 255 
5.85688 8.01512 1.89368 56 89 140 255 
5.37024 7.36568 1.66315 69 55 129 255 
5.38672 7.38265 1.57693 56 88 140 255 
6.66123 9.1162 1.83676 62 76 138 255 
5.36753 7.33202 1.39371 49 103 142 255 
5.36274 7.35269 1.32115 49 104 142 255 
20.5125 28.1027 4.71033 71 13 96 255 
17.8888 24.4547 3.81156 72 22 104 255 
17.8555 24.3727 3.52253 71 16 99 255 
17.7479 24.3337 3.26658 71 16 99 255 
17.8697 24.455 2.99647 72 22 104 255 
17.8989 24.4596 2.71034 71 17 100 255 
19.5701 26.6838 2.65081 71 14 97 255 
21.0533 28.8549 2.57917 71 14 97 255 
21.0917 28.8538 2.24235 72 22 104 255 
37.5376 51.2404 3.38447 70 7 90 255 
0 0 0 69 4 87 255 
0 0 0 69 4 87 255 
0 0 0 68 2 86 255 
0 0 0 68 2 86 255 
0 0 0 68 2 86 255 
18.1262 24.816 -0.00536357 70 7 90 255 
13.9923 19.1137 -0.227395 71 13 96 255 
11.6489 15.8838 -0.371333 72 26 108 255 
10.0132 13.6231 -0.478168 72 35 116 255 
8.98783 12.2914 -0.553025 72 40 120 255 
8.379 11.4375 -0.646311 71 45 123 255 
7.4367 10.1366 -0.691878 70 48 126 255 
7.46217 10.1487 -0.812393 67 62 133 255 
6.98259 9.54564 -0.858138 57 85 140 255 
6.36427 8.68099 -0.881179 69 55 129 255 
5.87611 8.00062 -0.906891 70 51 127 255 
5.50612 7.48843 -0.937579 59 81 139 255 
5.14806 7.03 -0.949656 58 84 140 255 
4.84158 6.60159 -0.970407 55 90 140 255 
4.5433 6.18368 -0.982972 58 83 139 255 
4.30657 5.85274 -1.00055 59 81 139 255 
4.07301 5.55586 -1.00621 56 88 140 255 
3.86804 5.27029 -1.01672 58 84 140 255 
3.65383 4.97123 -1.01805 62 74 137 255 
3.46897 4.71442 -1.02365 61 77 138 255 
3.32893 4.53425 -1.03239 58 83 139 255 
3.20514 4.36228 -1.04437 58 84 140 255 
3.06629 4.17185 -1.05055 59 81 139 255 
2.95262 4.01415 -1.06192 62 74 137 255 
2.84284 3.86792 -1.06507 62 73 137 255 
2.75568 3.74781 -1.07739 57 85 140 255 
2.6458 3.59713 -1.07946 59 82 139 255 
2.54737 3.46574 -1.08518 62 76 138 255 
2.47186 3.35704 -1.08981 63 71 136 255 
2.40519 3.26635 -1.10057 61 77 138 255 
2.30854 3.13745 -1.09784 64 70 136 255 
2.22291 3.02651 -1.10022 65 66 135 255 
10.8205 14.63 5.4662 72 38 119 255 
5.9379 8.04286 2.89125 70 51 127 255 
10.5997 14.368 4.97508 72 22 104 255 
10.1887 13.8104 4.6082 72 36 117 255 
5.60438 7.58578 2.44793 71 44 122 255 
5.83987 7.9072 2.44724 47 108 142 255 
5.73639 7.76439 2.30515 61 77 138 255 
5.84707 7.91101 2.25304 57 85 140 255 
5.89297 7.97932 2.18821 61 78 138 255 
6.38397 8.64075 2.25808 64 70 136 255 
5.80898 7.85404 1.95733 52 97 141 255 
5.76044 7.78244 1.84702 71 46 124 255 
6.56433 8.88837 2.01602 72 35 116 255 
6.54068 8.84963 1.89881 50 100 142 255 
5.42049 7.32343 1.48222 66 63 133 255 
5.42124 7.31085 1.39599 43 116 142 255 
6.49742 8.79456 1.58736 55 91 141 255 
6.64369 8.98572 1.51291 45 112 142 255 
18.0503 24.3604 3.81406 71 17 100 255 
18.0751 24.3576 3.53631 70 8 92 255 
17.8136 24.1116 3.25138 71 19 101 255 
17.898 24.1809 2.97628 71 13 96 255 
17.6613 23.8268 2.65218 71 17 100 255 
23.4243 31.5315 3.14661 70 7 90 255 
22.5063 30.4522 2.73423 71 17 100 255 
22.9746 31.0283 2.42225 70 10 93 255 
21.252 28.6397 1.90025 70 7 90 255 
37.8185 50.8706 2.77867 69 5 89 255 
0 0 0 68 2 86 255 
31.4741 42.4763 1.40282 69 4 87 255 
20.6798 27.8583 0.593488 70 8 92 255 
20.6264 27.7248 0.271407 69 4 87 255 
18.1747 24.5644 -0.0053332 70 8 92 255 
14.1748 19.1158 -0.22845 70 10 93 255 
11.708 15.7606 -0.370127 71 19 101 255 
10.1002 13.5663 -0.478338 72 28 110 255 
9.0726 12.2489 -0.553606 72 40 120 255 
8.45974 11.4003 -0.647131 72 40 120 255 
7.92757 10.6678 -0.731442 71 47 125 255 
7.40747 9.94585 -0.799779 68 57 131 255 
7.04341 9.50582 -0.858427 60 79 138 255 
6.41326 8.63617 -0.880607 69 56 130 255 
5.91855 7.95563 -0.90589 69 56 130 255 
5.54424 7.44413 -0.936274 62 73 137 255 
5.18754 6.99349 -0.949006 58 83 139 255 
4.88081 6.57016 -0.970172 54 93 141 255 
4.57761 6.15091 -0.982209 57 86 140 255 
4.34358 5.8278 -1.00082 55 90 140 255 
4.10348 5.526 -1.00534 59 81 139 255 
3.89559 5.24012 -1.01549 60 80 139 255 
3.68073 4.94397 -1.01707 60 80 139 255 
3.50136 4.69779 -1.02468 60 80 139 255 
3.35199 4.50742 -1.03094 58 83 139 255 
3.22833 4.33781 -1.04324 61 77 138 255 
3.09709 4.16003 -1.05234 61 78 138 255 
2.96726 3.98262 -1.05838 65 68 135 255 
2.87876 3.86685 -1.06962 62 74 137 255 
2.78677 3.74177 -1.08055 58 83 139 255 
2.66666 3.57927 -1.07899 61 77 138 255 
2.56106 3.43994 -1.082 62 74 137 255 
2.4953 3.34569 -1.09107 59 81 139 255 
2.4373 3.26778 -1.10606 59 82 139 255 
2.33753 3.13635 -1.10245 62 76 138 255 
2.24144 3.01282 -1.10022 64 69 136 255 
8.87964 11.853 4.44891 70 48 126 255 
10.6799 14.2816 5.15741 72 35 116 255 
5.94843 7.96045 2.76897 71 42 122 255 
11.1752 14.9545 5.01275 72 32 113 255 
8.62237 11.5222 3.73521 72 27 109 255 
5.75691 7.69561 2.39264 50 102 142 255 
5.9908 8.0055 2.3876 48 105 142 255 
5.81255 7.76418 2.22134 54 92 141 255 
5.78681 7.7358 2.13112 65 68 135 255 
5.96896 7.97617 2.09394 69 56 130 255 
5.80298 7.74606 1.93925 54 92 141 255 
5.97955 7.97565 1.90155 72 41 121 255 
6.62287 8.85344 2.01728 71 45 123 255 
6.88896 9.20219 1.98349 70 51 127 255 
5.45111 7.27108 1.47837 58 83 139 255 
6.51136 8.66924 1.66296 72 40 120 255 
6.53288 8.72996 1.5829 48 105 142 255 
5.4186 7.23547 1.2238 43 117 142 255 
17.8272 23.7533 3.73605 72 23 105 255 
17.8536 23.7532 3.46439 70 8 92 255 
17.8046 23.7925 3.22302 72 20 103 255 
17.8114 23.7577 2.93759 71 19 101 255 
17.745 23.6351 2.64292 70 8 92 255 
20.3084 26.9897 2.70575 70 8 92 255 
20.3687 27.2091 2.45422 70 8 92 255 
23.3873 31.1837 2.44554 71 16 99 255 
0 0 0 69 4 87 255 
38.1323 50.6408 2.77885 70 7 90 255 
37.9996 50.724 2.2797 69 5 89 255 
32.3198 43.0627 1.42871 69 4 87 255 
0 0 0 68 2 86 255 
0 0 0 68 2 86 255 
18.2849 24.3988 -0.00532151 70 11 94 255 
14.2816 19.0149 -0.228287 70 10 93 255 
11.8045 15.6885 -0.370127 71 19 101 255 
10.1833 13.504 -0.478338 72 24 106 255 
9.16918 12.2218 -0.554912 72 33 115 255 
8.52112 11.337 -0.646494 72 40 120 255 
7.98507 10.6086 -0.730727 71 42 122 255 
7.45454 9.88189 -0.798298 70 52 128 255 
7.04532 9.38744 -0.851625 61 78 138 255 
6.45595 8.58312 -0.87922 70 52 128 255 
5.97445 7.9287 -0.906982 66 64 134 255 
5.58981 7.40997 -0.936274 60 80 139 255 
5.22259 6.95119 -0.947597 60 80 139 255 
4.91984 6.5385 -0.969936 55 91 141 255 
4.62183 6.13142 -0.983607 57 85 140 255 
4.36374 5.78048 -0.997273 57 86 140 255 
4.14564 5.51179 -1.00737 53 94 141 255 
3.92708 5.21532 -1.01534 57 86 140 255 
3.72525 4.9402 -1.02098 56 89 140 255 
3.53368 4.68093 -1.02571 62 74 137 255 
3.37011 4.4742 -1.02806 59 81 139 255 
3.25548 4.3187 -1.04343 62 74 137 255 
3.11784 4.13469 -1.05075 63 72 137 255 
3.01226 3.99167 -1.06567 63 72 137 255 
2.91301 3.86314 -1.07352 60 79 138 255 
2.79383 3.7036 -1.07446 58 84 140 255 
2.68096 3.55275 -1.07594 61 77 138 255 
2.58562 3.4288 -1.08347 62 74 137 255 
2.51695 3.33186 -1.09158 59 82 139 255 
2.43927 3.22889 -1.09795 61 78 138 255 
2.35383 3.1181 -1.10109 64 69 136 255 
2.26508 3.0059 -1.10275 66 65 134 255 
8.84857 11.6618 4.39742 70 51 127 255 
10.7418 14.1821 5.14518 71 46 124 255 
10.8659 14.3567 5.01695 72 37 118 255 
10.3091 13.6204 4.58668 72 22 104 255 
10.3276 13.6259 4.43763 72 40 120 255 
6.04957 7.98421 2.49386 70 51 127 255 
6.08564 8.02905 2.40572 59 82 139 255 
5.84006 7.70196 2.21375 56 89 140 255 
5.81707 7.67757 2.12487 46 109 142 255 
5.88951 7.77016 2.04931 49 104 142 255 
5.81069 7.65797 1.92609 50 101 142 255 
5.79907 7.63684 1.82922 62 74 137 255 
6.93491 9.15294 2.09518 61 77 138 255 
6.92922 9.13854 1.9789 68 58 131 255 
6.91266 9.10367 1.85956 58 83 139 255 
7.05635 9.27578 1.78758 58 83 139 255 
5.50554 7.26377 1.32316 51 98 141 255 
5.46409 7.20366 1.22407 43 117 142 255 
5.63081 7.40748 1.1705 48 105 142 255 
17.8113 23.3966 3.42826 71 19 101 255 
17.6776 23.3231 3.17407 71 19 101 255 
17.7787 23.4134 2.90845 70 11 94 255 
25.7803 33.9024 3.80864 70 10 93 255 
20.4748 26.8661 2.70591 70 7 90 255 
20.0894 26.4955 2.40092 71 19 101 255 
20.3061 26.7321 2.10616 71 19 101 255 
20.2264 26.5699 1.77926 69 5 89 255 
20.2756 26.5855 1.46565 69 5 89 255 
38.1821 50.3211 2.27208 70 7 90 255 
33.745 44.3915 1.47964 69 5 89 255 
18.786 24.6688 0.53041 71 17 100 255 
0 0 0 68 2 86 255 
18.2565 24.052 -0.0052702 69 5 89 255 
14.3817 18.9054 -0.228028 71 13 96 255 
11.9399 15.6675 -0.371352 72 24 106 255 
10.2605 13.4341 -0.478084 72 27 109 255 
9.23614 12.1549 -0.55444 72 40 120 255 
8.60807 11.3075 -0.647814 71 44 122 255 
8.05728 10.5689 -0.731387 71 46 124 255 
7.52048 9.8431 -0.798878 71 46 124 255 
7.06718 9.29718 -0.847355 62 73 137 255 
6.51211 8.5481 -0.87971 70 50 126 255 
6.01694 7.88398 -0.906072 69 53 129 255 
5.63698 7.3779 -0.936576 57 85 140 255 
5.26876 6.92376 -0.948247 58 84 140 255 
4.94963 6.49476 -0.967935 55 90 140 255 
4.67321 6.12108 -0.98653 55 90 140 255 
4.41357 5.77248 -1.00055 56 88 140 255 
4.19078 5.5012 -1.01011 55 91 141 255 
3.9608 5.19349 -1.0158 59 81 139 255 
3.74471 4.90313 -1.01805 60 79 138 255 
3.56952 4.66855 -1.02778 62 74 137 255 
3.40705 4.46595 -1.03094 62 74 137 255 
3.31111 4.33689 -1.05271 56 89 140 255 
3.13363 4.10302 -1.04757 63 72 137 255 
3.05392 3.99564 -1.07172 61 78 138 255 
2.94259 3.85295 -1.07569 60 79 138 255 
2.81651 3.68639 -1.07446 59 81 139 255 
2.7033 3.53701 -1.07617 58 83 139 255 
2.61191 3.41981 -1.08567 60 80 139 255 
2.54088 3.32096 -1.09309 59 82 139 255 
2.452 3.20466 -1.0948 62 76 138 255 
2.37759 3.10972 -1.10327 62 74 137 255 
2.28872 2.99881 -1.10528 66 63 133 255 
8.88261 11.5586 4.379 66 63 133 255 
10.4333 13.6007 4.95738 72 33 115 255 
10.9433 14.276 5.01212 71 44 122 255 
10.3972 13.563 4.58875 72 35 116 255 
10.4122 13.5638 4.43814 71 45 123 255 
8.7557 11.4096 3.5805 70 51 127 255 
5.98317 7.79405 2.34626 54 93 141 255 
6.02791 7.8492 2.26666 48 105 142 255 
6.38187 8.31651 2.3125 65 66 135 255 
6.59139 8.58621 2.27516 72 40 120 255 
5.84681 7.60818 1.92255 48 106 142 255 
5.82307 7.57153 1.8221 62 73 137 255 
7.40957 9.65575 2.22064 68 59 132 255 
5.73614 7.46942 1.62505 72 38 119 255 
7.12002 9.25825 1.90003 69 53 129 255 
6.87424 8.92224 1.72755 71 44 122 255 
5.54036 7.2173 1.32086 49 103 142 255 
5.48344 7.13778 1.21857 44 115 142 255 
5.62532 7.30675 1.16002 63 71 136 255 
17.9121 23.2318 3.42016 72 22 104 255 
17.8349 23.2331 3.17666 71 14 97 255 
20.4525 26.5941 3.31909 71 14 97 255 
20.3206 26.385 2.97808 71 16 99 255 
20.2915 26.2894 2.66032 71 13 96 255 
20.2795 26.4081 2.40423 71 13 96 255 
20.3255 26.4195 2.09132 72 20 103 255 
20.3665 26.416 1.77729 72 22 104 255 
20.4439 26.4677 1.46604 71 17 100 255 
20.3923 26.5358 1.20376 71 17 100 255 
20.4158 26.5176 0.888034 71 13 96 255 
17.8251 23.1113 0.499265 69 5 89 255 
17.1074 22.1322 0.219705 69 4 87 255 
17.3615 22.5838 -0.00497174 69 4 87 255 
14.4956 18.8144 -0.227999 71 16 99 255 
12.0505 15.6129 -0.371804 72 22 104 255 
10.3366 13.363 -0.477801 72 28 110 255 
9.31908 12.1091 -0.554949 72 33 115 255 
8.69559 11.2782 -0.64918 71 44 122 255 
8.12014 10.5169 -0.731222 72 40 120 255 
7.60272 9.82519 -0.801194 72 41 121 255 
7.10706 9.23152 -0.845329 65 68 135 255 
6.55105 8.49062 -0.877915 71 47 125 255 
6.05363 7.83194 -0.904343 68 59 132 255 
5.67728 7.33688 -0.935773 63 72 137 255 
5.31721 6.89918 -0.949331 54 93 141 255 
4.98818 6.4627 -0.9677 56 88 140 255 
4.69672 6.07424 -0.983607 58 83 139 255 
4.45255 5.74999 -1.00137 56 88 140 255 
4.22747 5.4793 -1.01084 50 102 142 255 
3.99803 5.17613 -1.01718 56 89 140 255 
3.77412 4.87928 -1.01788 60 80 139 255 
3.60533 4.65591 -1.02985 63 72 137 255 
3.4398 4.45196 -1.03257 60 80 139 255 
3.33586 4.31416 -1.05214 61 77 138 255 
3.16235 4.08837 -1.04876 60 79 138 255 
3.07658 3.97451 -1.07109 59 81 139 255 
2.95303 3.81784 -1.07092 58 84 140 255 
2.84444 3.67597 -1.07649 59 81 139 255 
2.72198 3.51651 -1.075 60 80 139 255 
2.63463 3.40602 -1.0864 61 78 138 255 
2.57661 3.32519 -1.09967 57 86 140 255 
2.47339 3.19185 -1.09559 63 72 137 255 
2.38838 3.08442 -1.09947 59 81 139 255 
2.30649 2.98396 -1.105 68 59 132 255 
9.13631 11.739 4.46848 65 68 135 255 
11.0653 14.2427 5.21603 72 31 112 255 
10.9828 14.147 4.99038 72 38 119 255 
10.6081 13.6637 4.64477 71 44 122 255 
10.5161 13.5264 4.44693 72 38 119 255 
10.9407 14.0772 4.43861 72 24 106 255 
6.03267 7.75949 2.34696 57 86 140 255 
6.1005 7.84361 2.27581 58 83 139 255 
6.62154 8.52007 2.38036 70 48 126 255 
12.0217 15.4626 4.11672 71 14 97 255 
5.90664 7.58918 1.92688 50 102 142 255 
7.03798 9.03597 2.18487 71 45 123 255 
7.66427 9.86177 2.27879 71 42 122 255 
5.90467 7.59199 1.65957 71 42 122 255 
7.11301 9.13262 1.88317 68 58 131 255 
6.9094 8.85496 1.7227 48 105 142 255 
5.57239 7.16754 1.31799 57 85 140 255 
5.62814 7.23383 1.24084 40 124 142 255 
5.64137 7.23532 1.15415 72 29 111 255 
17.6991 22.6666 3.35287 70 11 94 255 
17.6769 22.7371 3.12361 72 20 103 255 
20.2814 26.0394 3.26534 70 11 94 255 
20.3651 26.1098 2.96107 70 10 93 255 
26.4238 33.8034 3.43703 70 10 93 255 
26.2417 33.7414 3.08648 71 14 97 255 
26.4962 34.0065 2.70471 71 19 101 255 
26.2713 33.6457 2.27451 69 5 89 255 
39.2113 50.1262 2.78975 70 7 90 255 
20.556 26.4118 1.20383 70 11 94 255 
20.5689 26.38 0.887636 71 14 97 255 
20.5983 26.3708 0.572399 71 14 97 255 
16.6622 21.2851 0.212307 70 10 93 255 
16.6084 21.332 -0.0047185 69 4 87 255 
14.7073 18.8489 -0.229506 70 10 93 255 
12.1202 15.5056 -0.371013 71 17 100 255 
10.4128 13.2923 -0.477546 72 29 111 255 
9.40057 12.0612 -0.555384 72 32 113 255 
8.76402 11.2239 -0.649135 72 41 121 255 
8.17406 10.4535 -0.730288 72 41 121 255 
7.6721 9.79013 -0.80216 70 51 127 255 
7.19362 9.22628 -0.848875 64 69 136 255 
6.5975 8.4432 -0.877181 69 55 129 255 
6.07948 7.76642 -0.901068 70 52 128 255 
5.71114 7.28781 -0.933966 64 70 136 255 
5.35394 6.85937 -0.948356 53 94 141 255 
5.02651 6.43041 -0.967464 54 92 141 255 
4.74308 6.05702 -0.985513 56 88 140 255 
4.47674 5.70853 -0.99891 53 94 141 255 
4.26101 5.45326 -1.01084 51 99 141 255 
4.03215 5.15461 -1.01779 57 86 140 255 
3.80095 4.85215 -1.01707 62 76 138 255 
3.63262 4.63215 -1.0295 62 76 138 255 
3.47493 4.44084 -1.03492 61 78 138 255 
3.34774 4.27506 -1.04759 59 82 139 255 
3.20007 4.08509 -1.05294 59 82 139 255 
3.09729 3.95094 -1.06984 61 78 138 255 
2.98724 3.81348 -1.07482 60 79 138 255 
2.88136 3.67685 -1.0819 60 80 139 255 
2.7453 3.50204 -1.0757 59 82 139 255 
2.65846 3.3936 -1.08763 60 79 138 255 
2.57427 3.2804 -1.09006 60 80 139 255 
2.49352 3.17737 -1.09585 63 71 136 255 
2.40251 3.06365 -1.0973 62 73 137 255 
2.32121 2.96521 -1.10331 67 61 132 255 
9.22951 11.7098 4.47883 66 65 134 255 
9.30688 11.8288 4.35285 72 22 104 255 
11.145 14.1755 5.02447 72 28 110 255 
11.272 14.3364 4.89683 72 27 109 255 
10.7773 13.6882 4.52179 71 46 124 255 
11.3023 14.3598 4.54949 72 29 111 255 
6.11807 7.77048 2.36159 68 57 131 255 
6.12861 7.78076 2.26844 72 29 111 255 
6.35299 8.07182 2.26597 69 55 129 255 
6.79676 8.63231 2.3093 50 102 142 255 
5.84687 7.41803 1.8925 53 95 141 255 
5.90033 7.48022 1.81741 64 70 136 255 
7.05414 8.96267 2.081 67 61 132 255 
5.81029 7.37679 1.62029 46 111 142 255 
5.89993 7.47997 1.54982 55 90 140 255 
6.96483 8.81395 1.723 54 92 141 255 
5.67259 7.20475 1.3312 64 69 136 255 
5.6896 7.22096 1.24459 49 104 142 255 
5.70718 7.22782 1.15852 50 100 142 255 
15.5053 19.6079 2.91444 71 16 99 255 
15.4821 19.6638 2.71441 71 17 100 255 
17.9306 22.7321 2.86434 71 16 99 255 
16.6873 21.1259 2.40742 72 26 108 255 
26.5026 33.4789 3.4205 71 13 96 255 
26.4093 33.5304 3.08194 71 16 99 255 
26.4089 33.4688 2.67478 72 20 103 255 
39.3338 49.7426 3.37894 69 4 87 255 
39.443 49.7899 2.78445 70 7 90 255 
39.2491 49.7966 2.28063 70 7 90 255 
34.8215 44.0987 1.49099 69 4 87 255 
33.4251 42.2552 0.921616 70 11 94 255 
0 0 0 68 2 86 255 
16.6164 21.0742 -0.00468394 69 4 87 255 
14.8116 18.7442 -0.229334 71 19 101 255 
12.1952 15.4058 -0.37041 71 19 101 255 
10.4768 13.2062 -0.476755 72 26 108 255 
9.48679 12.019 -0.55611 72 32 113 255 
8.81661 11.1495 -0.647951 71 46 124 255 
8.21822 10.3781 -0.72853 72 38 119 255 
7.73761 9.74991 -0.802739 71 45 123 255 
7.2742 9.21249 -0.851697 65 66 135 255 
6.63434 8.3838 -0.875223 70 50 126 255 
6.1233 7.72429 -0.900522 67 62 133 255 
5.75018 7.24562 -0.933063 65 66 135 255 
5.40764 6.84121 -0.950414 55 90 140 255 
5.06834 6.40256 -0.967935 56 89 140 255 
4.78262 6.03091 -0.986021 57 85 140 255 
4.50614 5.67397 -0.997682 55 91 141 255 
4.29255 5.42468 -1.0104 50 100 142 255 
4.05695 5.12125 -1.0161 59 82 139 255 
3.82084 4.81637 -1.01447 60 79 138 255 
3.672 4.62365 -1.0326 63 72 137 255 
3.518 4.43948 -1.03961 57 85 140 255 
3.35865 4.2352 -1.04286 60 80 139 255 
3.23055 4.07228 -1.05473 57 85 140 255 
3.12756 3.93952 -1.07192 61 78 138 255 
2.99663 3.77749 -1.06984 58 84 140 255 
2.90508 3.66063 -1.08235 58 84 140 255 
2.78124 3.5034 -1.08134 59 82 139 255 
2.68888 3.38938 -1.09154 60 79 138 255 
2.59074 3.25999 -1.08854 62 73 137 255 
2.52378 3.17561 -1.10057 62 74 137 255 
2.42724 3.05638 -1.10001 64 70 136 255 
2.35128 2.96595 -1.10893 67 62 133 255 
9.19005 11.5137 4.42532 66 63 133 255 
9.42359 11.8271 4.37341 72 38 119 255 
9.02431 11.3343 4.03697 72 40 120 255 
10.8761 13.6595 4.68833 72 24 106 255 
8.85046 11.1001 3.68471 71 46 124 255 
11.3793 14.2765 4.54515 72 29 111 255 
9.02713 11.3216 3.45761 70 48 126 255 
7.47883 9.37605 2.74687 72 37 118 255 
6.79254 8.52217 2.40406 70 50 126 255 
7.22481 9.06101 2.4358 72 41 121 255 
6.7211 8.42039 2.1587 66 64 134 255 
5.95409 7.45385 1.81985 56 88 140 255 
5.84405 7.33216 1.71071 55 91 141 255 
5.84439 7.32713 1.61723 50 101 142 255 
5.94448 7.44209 1.5495 39 128 142 255 
6.97493 8.71625 1.71224 52 96 141 255 
5.72471 7.17986 1.33307 67 62 133 255 
5.72144 7.17042 1.24191 47 108 142 255 
5.77125 7.21747 1.16252 44 113 142 255 
5.7095 7.1298 1.06493 71 42 122 255 
16.5074 20.7034 2.87183 72 26 108 255 
16.6251 20.8131 2.63535 71 13 96 255 
16.8465 21.0605 2.4117 71 14 97 255 
27.1278 33.8398 3.47432 70 11 94 255 
26.7296 33.512 3.09526 71 13 96 255 
26.782 33.5166 2.69169 71 17 100 255 
39.7543 49.6453 3.38883 69 4 87 255 
39.7966 49.6078 2.78787 70 7 90 255 
39.605 49.6189 2.28358 70 8 92 255 
0 0 0 69 4 87 255 
33.6994 42.0688 0.922044 70 8 92 255 
15.1437 18.8636 0.189994 69 4 87 255 
15.4906 19.4003 -0.00433295 70 7 90 255 
15.0394 18.7943 -0.231071 71 13 96 255 
12.2808 15.3198 -0.370146 72 20 103 255 
10.5445 13.1253 -0.476161 72 27 109 255 
9.56347 11.9644 -0.556292 72 35 116 255 
8.89172 11.1038 -0.648452 72 37 118 255 
8.32797 10.3851 -0.732596 71 42 122 255 
7.80979 9.7178 -0.804026 71 45 123 255 
7.32934 9.16613 -0.851552 62 76 138 255 
6.68628 8.34371 -0.875304 69 53 129 255 
6.19053 7.71142 -0.903433 68 57 131 255 
5.78269 7.19546 -0.931156 66 64 134 255 
5.44392 6.80091 -0.949439 56 89 140 255 
5.11064 6.37521 -0.968524 53 95 141 255 
4.80215 5.9798 -0.982464 58 83 139 255 
4.53776 5.64236 -0.997 53 94 141 255 
4.32204 5.39361 -1.00953 48 105 142 255 
4.08397 5.09087 -1.01503 56 88 140 255 
3.85464 4.79822 -1.0156 56 88 140 255 
3.704 4.60564 -1.03364 62 73 137 255 
3.56549 4.44313 -1.04557 55 90 140 255 
3.39072 4.22217 -1.04475 57 85 140 255 
3.24995 4.04551 -1.05294 57 86 140 255 
3.14615 3.9134 -1.07005 60 80 139 255 
3.02709 3.76816 -1.07244 60 79 138 255 
2.91589 3.62831 -1.07807 57 86 140 255 
2.80817 3.49308 -1.08346 55 90 140 255 
2.71327 3.37735 -1.09301 60 79 138 255 
2.61555 3.25007 -1.09056 60 80 139 255 
2.53898 3.1548 -1.09873 63 72 137 255 
2.44595 3.04143 -1.10001 65 68 135 255 
2.35742 2.9365 -1.10331 66 64 134 255 
10.3045 12.7486 4.92418 72 29 111 255 
10.8707 13.4729 5.00655 70 52 128 255 
10.8127 13.4107 4.80007 72 33 115 255 
9.00464 11.1678 3.85201 66 64 134 255 
8.9032 11.0268 3.67843 59 82 139 255 
9.06537 11.2313 3.59331 64 70 136 255 
10.4902 12.9922 3.98739 71 45 123 255 
7.62809 9.44373 2.78036 66 64 134 255 
6.83305 8.4659 2.39996 62 74 137 255 
6.64643 8.23151 2.22373 62 74 137 255 
7.01672 8.68097 2.2365 54 92 141 255 
5.98365 7.39732 1.81498 44 113 142 255 
5.86668 7.2686 1.70425 49 103 142 255 
5.90533 7.31106 1.62165 48 106 142 255 
5.90313 7.29804 1.52702 69 53 129 255 
7.03824 8.68558 1.71466 61 78 138 255 
6.98344 8.64913 1.61379 57 85 140 255 
5.77093 7.14211 1.24312 57 86 140 255 
5.83229 7.20274 1.16589 42 119 142 255 
15.4946 19.1075 2.86812 72 27 109 255 
16.7034 20.6875 2.8838 71 14 97 255 
18.2445 22.5553 2.87005 70 11 94 255 
18.2411 22.5194 2.59153 71 13 96 255 
27.6591 34.0721 3.51552 69 4 87 255 
26.9091 33.3156 3.09231 71 16 99 255 
26.7153 33.0157 2.66458 70 8 92 255 
34.026 41.9614 2.87852 69 5 89 255 
0 0 0 68 2 86 255 
39.9697 49.4503 2.28707 70 7 90 255 
0 0 0 68 2 86 255 
33.9821 41.8923 0.922728 70 7 90 255 
14.641 18.01 0.182297 69 4 87 255 
15.0045 18.5569 -0.00416505 70 10 93 255 
15.0121 18.5261 -0.228902 70 10 93 255 
12.3664 15.2341 -0.369901 71 19 101 255 
10.6349 13.0728 -0.476613 72 26 108 255 
9.63922 11.9086 -0.556437 72 36 117 255 
8.97353 11.0661 -0.649454 72 41 121 255 
8.37265 10.3106 -0.730947 71 45 123 255 
7.87053 9.67125 -0.804155 71 46 124 255 
7.38168 9.11633 -0.851118 67 61 132 255 
6.73483 8.29943 -0.874978 70 51 127 255 
6.23522 7.6702 -0.903069 69 56 130 255 
5.81794 7.14904 -0.929751 65 66 135 255 
5.47929 6.75966 -0.948356 58 84 140 255 
5.14903 6.34296 -0.968406 53 94 141 255 
4.83687 5.94791 -0.982082 57 85 140 255 
4.57355 5.61594 -0.997273 52 96 141 255 
4.35506 5.36699 -1.00953 49 104 142 255 
4.11388 5.06418 -1.01472 58 83 139 255 
3.87405 4.76223 -1.013 59 81 139 255 
3.7353 4.58665 -1.0345 61 77 138 255 
3.58524 4.412 -1.0434 55 91 141 255 
3.42524 4.21195 -1.0474 58 84 140 255 
3.27843 4.03005 -1.05413 59 81 139 255 
3.15529 3.87581 -1.06505 59 81 139 255 
3.05816 3.75936 -1.07525 58 83 139 255 
2.9338 3.60506 -1.07649 59 81 139 255 
2.83262 3.47955 -1.08463 58 83 139 255 
2.737 3.3644 -1.09423 62 73 137 255 
2.63788 3.23696 -1.09158 61 78 138 255 
2.56012 3.14141 -1.09952 63 71 136 255 
2.46761 3.0301 -1.10137 63 72 137 255 
2.37781 2.92496 -1.10443 67 62 133 255 
11.2633 13.7613 5.34192 72 40 120 255 
11.4218 13.9795 5.22075 72 32 113 255 
10.8838 13.3307 4.79524 71 46 124 255 
10.7802 13.2033 4.57682 71 47 125 255 
9.10242 11.1331 3.73245 69 56 130 255 
9.14025 11.183 3.59572 64 69 136 255 
10.5475 12.9005 3.97903 71 46 124 255 
10.7796 13.1791 3.89951 72 35 116 255 
7.68886 9.40751 2.68022 61 78 138 255 
6.91114 8.45271 2.2949 49 103 142 255 
5.99112 7.31978 1.89525 65 66 135 255 
6.0532 7.3901 1.82228 50 100 142 255 
5.93794 7.26522 1.71197 48 105 142 255 
5.97941 7.31054 1.62964 46 109 142 255 
7.17926 8.76518 1.84319 54 92 141 255 
15.1308 18.4398 3.65855 72 41 121 255 
5.87064 7.18032 1.34643 48 106 142 255 
5.82029 7.11347 1.24433 50 100 142 255 
16.0715 19.6008 3.18862 71 19 101 255 
16.7959 20.4545 3.08571 71 13 96 255 
15.6659 19.1608 2.68432 72 29 111 255 
15.7707 19.2541 2.46227 72 36 117 255 
15.9603 19.4583 2.25048 72 26 108 255 
16.0916 19.5759 2.02997 72 26 108 255 
26.9324 32.929 3.07171 70 11 94 255 
26.9218 32.8566 2.66501 70 7 90 255 
0 0 0 69 4 87 255 
40.5305 49.2715 2.79671 69 5 89 255 
40.3261 49.2699 2.29012 69 5 89 255 
35.6178 43.4386 1.4906 69 4 87 255 
34.5901 42.1111 0.932203 69 5 89 255 
14.4099 17.5052 0.178079 69 4 87 255 
14.5257 17.741 -0.00400187 70 7 90 255 
14.4912 17.6606 -0.219302 70 8 92 255 
12.4672 15.1672 -0.370127 72 22 104 255 
10.706 12.9965 -0.476218 72 28 110 255 
9.70261 11.8377 -0.555892 72 29 111 255 
9.05077 11.0224 -0.650137 72 38 119 255 
8.44527 10.2706 -0.731772 71 46 124 255 
7.93036 9.62355 -0.804219 70 52 128 255 
7.43685 9.0701 -0.851046 65 66 135 255 
6.79449 8.26873 -0.87612 71 47 125 255 
6.2809 7.63026 -0.902888 68 57 131 255 
5.86423 7.11628 -0.930152 69 55 129 255 
5.51688 6.7213 -0.947706 54 92 141 255 
5.17524 6.29591 -0.966052 51 98 141 255 
4.88021 5.92654 -0.98348 55 90 140 255 
4.60225 5.5809 -0.996045 53 95 141 255 
4.39168 5.34475 -1.0104 50 100 142 255 
4.14927 5.04418 -1.0158 57 85 140 255 
3.92264 4.76198 -1.01805 60 80 139 255 
3.77215 4.57428 -1.03691 62 76 138 255 
3.60287 4.37853 -1.04069 56 88 140 255 
3.45476 4.1954 -1.04854 53 95 141 255 
3.29811 4.00381 -1.05254 58 84 140 255 
3.18088 3.85864 -1.06567 59 82 139 255 
3.08055 3.73977 -1.07504 59 82 139 255 
2.96701 3.60052 -1.08055 56 89 140 255 
2.84897 3.45611 -1.08275 58 83 139 255 
2.75204 3.34081 -1.09203 63 72 137 255 
2.66077 3.22444 -1.09284 62 74 137 255 
2.58119 3.12787 -1.1003 63 72 137 255 
2.48493 3.01342 -1.10082 63 72 137 255 
2.39511 2.90958 -1.10415 65 66 135 255 
11.6995 14.1167 5.50763 72 23 105 255 
11.0989 13.4154 5.03545 72 27 109 255 
11.3312 13.7061 4.95522 72 29 111 255 
10.9318 13.2225 4.60665 70 52 128 255 
10.8378 13.0908 4.411 72 32 113 255 
10.8483 13.1078 4.23592 71 47 125 255 
11.81 14.265 4.42218 72 33 115 255 
7.49595 9.05062 2.6915 72 32 113 255 
7.72278 9.33157 2.67203 63 72 137 255 
7.83659 9.46546 2.58287 70 52 128 255 
6.03654 7.28363 1.89544 54 93 141 255 
6.13731 7.3997 1.8339 68 58 131 255 
5.95732 7.19834 1.70479 48 105 142 255 
6.07066 7.32988 1.64222 54 92 141 255 
7.22157 8.70728 1.8403 61 78 138 255 
15.3624 18.4895 3.68705 72 37 118 255 
15.4946 18.7157 3.52727 72 35 116 255 
15.4742 18.6773 3.28368 72 41 121 255 
16.3651 19.7109 3.22282 72 20 103 255 
16.4112 19.7377 2.99272 72 20 103 255 
17.8582 21.5707 3.03724 70 11 94 255 
16.6287 20.0494 2.57696 70 7 90 255 
15.8891 19.1309 2.22385 72 28 110 255 
16.7382 20.1096 2.09593 72 20 103 255 
16.3977 19.7995 1.85631 72 26 108 255 
16.5314 19.9251 1.62433 72 35 116 255 
16.7559 20.153 1.39648 72 24 106 255 
16.8403 20.2179 1.15344 72 23 105 255 
16.8403 20.3196 0.949263 70 8 92 255 
16.9342 20.396 0.70344 70 10 93 255 
16.9828 20.4186 0.4543 71 16 99 255 
14.2751 17.1261 0.175111 69 5 89 255 
14.1575 17.0765 -0.00387149 70 11 94 255 
14.1565 17.0383 -0.21265 71 13 96 255 
12.6349 15.1803 -0.372332 72 23 105 255 
10.7792 12.9229 -0.475935 72 26 108 255 
9.81527 11.8264 -0.558179 72 29 111 255 
9.11121 10.9582 -0.649636 72 38 119 255 
8.50429 10.2139 -0.731442 72 37 118 255 
7.98606 9.57087 -0.803898 71 46 124 255 
7.48344 9.01355 -0.850033 64 70 136 255 
6.8604 8.24527 -0.878078 69 53 129 255 
6.32951 7.59387 -0.903161 69 53 129 255 
5.90587 7.07787 -0.929851 66 64 134 255 
5.54721 6.67433 -0.945864 59 82 139 255 
5.22458 6.27701 -0.968053 50 101 142 255 
4.91521 5.89496 -0.983226 57 86 140 255 
4.62752 5.54191 -0.994136 53 94 141 255 
4.42312 5.31618 -1.01011 47 108 142 255 
4.17382 5.01104 -1.01426 59 81 139 255 
3.96759 4.75676 -1.02212 57 86 140 255 
3.79762 4.54803 -1.03622 61 78 138 255 
3.63659 4.36465 -1.04268 57 85 140 255 
3.47415 4.16658 -1.04665 55 90 140 255 
3.32638 3.98801 -1.05373 57 86 140 255 
3.20825 3.84356 -1.06692 57 86 140 255 
3.09656 3.71255 -1.07265 58 83 139 255 
2.98406 3.57627 -1.07874 57 86 140 255 
2.85953 3.42588 -1.07876 55 90 140 255 
2.76566 3.31567 -1.08934 62 74 137 255 
2.67617 3.20286 -1.09107 62 76 138 255 
2.60281 3.11494 -1.10135 64 70 136 255 
2.49474 2.98777 -1.09703 65 68 135 255 
2.41476 2.89704 -1.105 64 69 136 255 
11.0182 13.1298 5.14887 72 35 116 255 
11.2945 13.4826 5.08656 72 35 116 255 
11.4435 13.6703 4.96757 72 36 117 255 
10.9923 13.1307 4.59809 71 42 122 255 
10.9477 13.0597 4.42306 72 41 121 255 
9.13345 10.899 3.54016 69 56 130 255 
7.24022 8.63686 2.69116 71 46 124 255 
