ply
format ascii 1.0
comment VTK generated PLY File
obj_info vtkPolyData points and polygons: vtk4.0
element vertex 1172
property float x
property float y
property float z
property uchar red
property uchar green
property uchar blue
property uchar alpha
element face 0
property list uchar int vertex_indices
end_header
-17.5964 3.49209 2.25676 53 95 141 255 
-17.5831 3.50249 2.09026 62 74 137 255 
-17.5898 3.46516 1.94442 61 78 138 255 
-17.5697 3.47739 1.77193 57 86 140 255 
-17.5693 3.48988 1.6018 61 77 138 255 
-17.551 3.50563 1.43372 60 79 138 255 
-17.5564 3.46176 1.29211 58 83 139 255 
-17.5664 3.47992 1.12352 61 77 138 255 
-17.5655 3.4987 0.954328 66 63 133 255 
-17.5548 3.51276 0.784784 67 62 133 255 
-17.5493 3.46672 0.643434 66 63 133 255 
-17.3994 3.45315 0.470702 66 64 134 255 
-16.4851 3.2865 0.287542 72 41 121 255 
-16.1404 3.23558 0.129291 70 52 128 255 
-11.6161 2.29677 -0.00206664 67 61 132 255 
-14.2504 2.83335 -0.139476 70 50 126 255 
-16.0766 3.21088 -0.309058 70 48 126 255 
-16.1421 3.24178 -0.465645 72 20 103 255 
-11.4406 2.26829 -0.423597 62 73 137 255 
-11.4303 2.2768 -0.531284 59 81 139 255 
-11.4831 2.29553 -0.644456 58 83 139 255 
-11.4908 2.30975 -0.755886 63 71 136 255 
-11.4784 2.27786 -0.849092 69 55 129 255 
-10.5383 2.10293 -0.87971 72 40 120 255 
-10.3755 2.07978 -0.966756 72 37 118 255 
-10.3085 2.07209 -1.06062 72 33 115 255 
-10.5231 2.09401 -1.16938 72 38 119 255 
-10.5376 2.10472 -1.27375 72 38 119 255 
-10.4458 2.09575 -1.3648 72 40 120 255 
-9.93203 2.00003 -1.39504 72 40 120 255 
-9.25735 1.84716 -1.37881 70 50 126 255 
-8.63206 1.72724 -1.3691 69 53 129 255 
-8.09475 1.62553 -1.36239 66 64 134 255 
-7.60558 1.53155 -1.35682 69 56 130 255 
-7.18495 1.43885 -1.34487 70 52 128 255 
-6.78997 1.36234 -1.33611 70 50 126 255 
-6.39251 1.2837 -1.32298 69 56 130 255 
-6.08758 1.22476 -1.32328 67 61 132 255 
-5.81757 1.16819 -1.31656 70 52 128 255 
-5.56924 1.11944 -1.31566 70 51 127 255 
-5.28008 1.06223 -1.30198 70 50 126 255 
-5.11632 1.0275 -1.3166 68 58 131 255 
-4.87661 0.983658 -1.30048 69 56 130 255 
-4.69146 0.94641 -1.29853 70 48 126 255 
-4.51967 0.910072 -1.2994 70 48 126 255 
-4.35843 0.873712 -1.30238 67 62 133 255 
-17.628 3.59479 5.40435 59 82 139 255 
-17.6564 3.58481 5.21047 56 88 140 255 
-17.6332 3.57351 5.0132 58 84 140 255 
-17.6275 3.57273 4.82941 56 89 140 255 
-17.6281 3.5852 4.66901 63 71 136 255 
-17.62 3.58062 4.47629 59 81 139 255 
-17.6121 3.58205 4.29165 60 79 138 255 
-17.6162 3.58641 4.1174 63 71 136 255 
-17.6225 3.58088 3.96691 59 81 139 255 
-17.6261 3.58505 3.78062 57 85 140 255 
-17.5853 3.58619 3.596 53 94 141 255 
-17.5803 3.59187 3.42289 59 81 139 255 
-17.5757 3.57137 3.27226 56 88 140 255 
-17.5957 3.58208 3.09842 53 95 141 255 
-17.5839 3.59229 2.91965 55 91 141 255 
-17.5536 3.60236 2.74846 57 86 140 255 
-17.5665 3.57268 2.60235 50 100 142 255 
-17.5646 3.57892 2.4268 50 100 142 255 
-17.5552 3.59601 2.25426 51 98 141 255 
-17.5545 3.60891 2.08945 62 76 138 255 
-17.575 3.57442 1.94518 57 86 140 255 
-17.5481 3.58513 1.77193 56 88 140 255 
-17.5651 3.60122 1.6034 57 85 140 255 
-17.5379 3.61507 1.43444 61 77 138 255 
-17.5348 3.56942 1.29211 59 81 139 255 
-17.5535 3.58944 1.12409 61 78 138 255 
-17.5545 3.60863 0.954913 68 59 132 255 
-17.53 3.6198 0.784653 66 63 133 255 
-17.4699 3.56255 0.641313 68 59 132 255 
-16.7746 3.43627 0.454362 70 51 127 255 
-17.0993 3.51816 0.298625 71 45 123 255 
-16.7009 3.45467 0.133948 72 35 116 255 
-11.5949 2.3666 -0.00206542 58 84 140 255 
-11.5762 2.37559 -0.113443 57 85 140 255 
-15.9998 3.29776 -0.307965 72 28 110 255 
-16.0691 3.32981 -0.464118 71 17 100 255 
-11.3912 2.33123 -0.422291 60 79 138 255 
-11.4025 2.34408 -0.530647 58 84 140 255 
-11.4189 2.35566 -0.641653 60 80 139 255 
-11.4412 2.37292 -0.753569 61 78 138 255 
-11.432 2.34164 -0.846704 66 63 133 255 
-10.2001 2.10061 -0.85254 69 55 129 255 
-9.53755 1.97275 -0.889786 72 32 113 255 
-9.57365 1.98558 -0.986255 72 32 113 255 
-9.83623 2.02014 -1.09441 71 42 122 255 
-9.70365 2.00014 -1.1744 72 40 120 255 
-9.65277 1.99834 -1.26277 72 33 115 255 
-9.66836 2.00874 -1.35971 72 37 118 255 
-9.22646 1.89993 -1.37592 70 50 126 255 
-8.60291 1.77638 -1.36618 70 50 126 255 
-8.04115 1.66616 -1.35506 68 57 131 255 
-7.59507 1.57798 -1.35665 69 55 129 255 
-7.17888 1.48351 -1.34541 67 62 133 255 
-6.77571 1.40279 -1.33497 71 46 124 255 
-6.38068 1.32211 -1.32219 69 55 129 255 
-6.08091 1.26229 -1.32349 70 50 126 255 
-5.78639 1.19891 -1.31114 68 57 131 255 
-5.57276 1.15577 -1.31814 68 59 132 255 
-5.28678 1.09737 -1.30527 71 45 123 255 
-5.10802 1.05848 -1.31611 70 50 126 255 
-4.87332 1.01415 -1.30124 69 56 130 255 
-4.67328 0.972622 -1.29512 71 46 124 255 
-4.52154 0.939353 -1.30157 71 42 122 255 
-4.3652 0.902965 -1.30603 69 56 130 255 
-17.6347 3.709 5.41327 55 90 140 255 
-17.636 3.69348 5.21103 58 84 140 255 
-17.6175 3.68302 5.01507 59 81 139 255 
-17.6052 3.68082 4.82941 59 81 139 255 
-17.6133 3.69489 4.67102 62 74 137 255 
-17.6063 3.69046 4.47847 61 77 138 255 
-17.5879 3.68965 4.29118 61 78 138 255 
-17.6119 3.69824 4.12164 64 70 136 255 
-17.6136 3.69174 3.96992 58 83 139 255 
-17.6095 3.69434 3.78185 58 83 139 255 
-17.5659 3.69463 3.59659 56 89 140 255 
-17.555 3.69906 3.42233 58 83 139 255 
-17.5785 3.6844 3.27693 55 90 140 255 
-17.5696 3.68916 3.09774 54 92 141 255 
-17.5673 3.70133 2.92061 53 94 141 255 
-17.5447 3.71286 2.75059 58 83 139 255 
-17.5578 3.68324 2.60437 52 96 141 255 
-17.5588 3.69009 2.42909 52 97 141 255 
-17.5241 3.70182 2.25314 54 92 141 255 
-17.5281 3.71573 2.08899 62 73 137 255 
-17.5498 3.68157 1.94485 57 85 140 255 
-17.5511 3.69807 1.77449 56 88 140 255 
-17.5475 3.70996 1.60385 57 86 140 255 
-17.5242 3.72448 1.43516 60 79 138 255 
-17.535 3.68166 1.29376 58 84 140 255 
-17.5341 3.6977 1.12428 61 78 138 255 
-17.535 3.7169 0.955073 64 69 136 255 
-17.5113 3.72813 0.784828 69 53 129 255 
-17.5133 3.68346 0.643722 66 64 134 255 
-16.63 3.51309 0.45102 69 55 129 255 
-16.7292 3.54914 0.292536 70 51 127 255 
-11.6145 2.47692 0.0932729 59 81 139 255 
-11.4706 2.41463 -0.00204587 56 88 140 255 
-11.49 2.43146 -0.112742 58 83 139 255 
-11.6468 2.47515 -0.224466 68 59 132 255 
-11.6083 2.47985 -0.335713 71 42 122 255 
-11.3679 2.39922 -0.421964 60 80 139 255 
-11.3898 2.41441 -0.530738 59 82 139 255 
-11.3994 2.42464 -0.641379 57 86 140 255 
-11.4294 2.44371 -0.753763 57 86 140 255 
-11.3959 2.40721 -0.845112 63 71 136 255 
-10.1451 2.15426 -0.849032 71 46 124 255 
-8.98862 1.9168 -0.839656 70 51 127 255 
-8.87729 1.89804 -0.9157 72 37 118 255 
-9.11273 1.9299 -1.01521 72 35 116 255 
-9.06176 1.92587 -1.09812 71 42 122 255 
-9.01755 1.92461 -1.18119 71 42 122 255 
-8.99908 1.92736 -1.26722 72 36 117 255 
-9.11396 1.93514 -1.36088 69 53 129 255 
-8.57156 1.82481 -1.36295 70 48 126 255 
-8.01244 1.71155 -1.35197 70 52 128 255 
-7.55442 1.61796 -1.35114 71 45 123 255 
-7.16964 1.52753 -1.34541 69 55 129 255 
-6.75065 1.44085 -1.33175 69 53 129 255 
-6.35711 1.35796 -1.319 68 59 132 255 
-6.07018 1.29896 -1.32287 71 46 124 255 
-5.77606 1.23378 -1.31049 68 59 132 255 
-5.5084 1.17772 -1.3046 68 57 131 255 
-5.29136 1.13223 -1.30809 70 50 126 255 
-5.06445 1.0819 -1.30657 69 55 129 255 
-4.86039 1.04262 -1.29947 69 55 129 255 
-4.66062 0.999861 -1.29329 71 47 125 255 
-4.49499 0.962645 -1.2956 71 42 122 255 
-4.36145 0.930133 -1.30659 69 55 129 255 
-17.6181 3.81855 5.41528 60 80 139 255 
-17.613 3.80162 5.21103 57 86 140 255 
-17.6181 3.79612 5.02179 54 93 141 255 
-17.6097 3.79468 4.83693 58 84 140 255 
-17.6092 3.80698 4.67605 63 71 136 255 
-17.589 3.79965 4.47992 60 80 139 255 
-17.5897 3.80284 4.29722 63 72 137 255 
-17.6032 3.80933 4.12499 64 69 136 255 
-17.5858 3.79872 3.96885 60 79 138 255 
-17.5961 3.80439 3.78391 60 80 139 255 
-17.5736 3.80899 3.60287 53 95 141 255 
-17.5473 3.81004 3.42533 58 84 140 255 
-17.5518 3.79136 3.27621 57 86 140 255 
-17.5659 3.80107 3.10114 54 92 141 255 
-17.5645 3.81345 2.92399 53 94 141 255 
-17.5419 3.82487 2.75377 57 85 140 255 
-17.5503 3.79425 2.60666 50 100 142 255 
-17.5397 3.7986 2.42962 54 93 141 255 
-17.5117 3.81159 2.25451 53 94 141 255 
-17.5079 3.82385 2.08934 62 73 137 255 
-17.5434 3.79276 1.94669 59 82 139 255 
-17.5378 3.80781 1.77547 54 92 141 255 
-17.5371 3.82032 1.60501 59 82 139 255 
-17.4981 3.83129 1.43492 63 72 137 255 
-17.5257 3.79213 1.29477 58 83 139 255 
-17.5257 3.80839 1.12522 61 78 138 255 
-17.5294 3.82825 0.956031 64 70 136 255 
-17.4852 3.83486 0.784696 66 65 134 255 
-16.7852 3.63801 0.617769 66 65 134 255 
-16.6111 3.61571 0.451099 66 65 134 255 
-16.4248 3.59002 0.287594 71 46 124 255 
-11.5453 2.53634 0.092841 54 93 141 255 
-11.4419 2.482 -0.00204343 67 61 132 255 
-7.51314 1.63812 -0.0738176 51 99 141 255 
-7.5078 1.64375 -0.144888 63 71 136 255 
-16.0621 3.53449 -0.465136 72 41 121 255 
-11.3461 2.46744 -0.42171 71 47 125 255 
-11.3533 2.47956 -0.529736 57 85 140 255 
-11.3735 2.49219 -0.640774 62 73 137 255 
-11.421 2.51529 -0.754213 62 76 138 255 
-11.3731 2.47539 -0.844533 56 88 140 255 
-10.1142 2.21263 -0.847563 70 50 126 255 
-8.76951 1.92641 -0.820278 70 51 127 255 
-8.37673 1.84484 -0.865218 70 50 126 255 
-8.52573 1.86031 -0.951064 69 55 129 255 
-8.46191 1.85272 -1.02679 70 52 128 255 
-8.45338 1.85851 -1.10877 71 46 124 255 
-8.39504 1.85194 -1.18374 71 42 122 255 
-8.57703 1.87621 -1.28241 70 51 127 255 
-8.47912 1.85959 -1.35004 70 52 128 255 
-8.00179 1.76069 -1.35197 70 51 127 255 
-7.55301 1.66619 -1.35269 72 37 118 255 
-7.1438 1.56791 -1.34234 69 55 129 255 
-6.7436 1.48267 -1.33213 68 59 132 255 
-6.35919 1.39925 -1.32119 68 57 131 255 
-6.05159 1.33387 -1.32057 70 48 126 255 
-5.76171 1.26773 -1.30897 67 62 133 255 
-5.49917 1.21108 -1.30415 69 55 129 255 
-5.25109 1.15735 -1.29987 68 57 131 255 
-5.05677 1.11275 -1.30633 69 53 129 255 
-4.85673 1.07305 -1.30023 70 52 128 255 
-4.63932 1.02511 -1.2891 70 48 126 255 
-4.48712 0.989793 -1.29505 71 47 125 255 
-4.35754 0.957288 -1.30716 70 48 126 255 
-17.6056 3.92909 5.41873 59 82 139 255 
-17.5968 3.91129 5.21325 59 81 139 255 
-17.6067 3.90687 5.02527 59 82 139 255 
-17.5927 3.90412 4.83874 58 83 139 255 
-17.5865 3.91517 4.6763 62 73 137 255 
-17.5796 3.91066 4.48354 61 78 138 255 
-17.5992 3.9181 4.30535 62 76 138 255 
-17.5757 3.91642 4.1241 62 74 137 255 
-17.5651 3.90719 3.96949 60 80 139 255 
-17.5714 3.91207 3.7837 58 84 140 255 
-17.5613 3.91931 3.60523 53 94 141 255 
-17.5514 3.92386 3.43076 58 84 140 255 
-17.5426 3.90218 3.27891 54 92 141 255 
-17.5624 3.91328 3.10471 54 93 141 255 
-17.5466 3.92244 2.92495 55 91 141 255 
-17.5287 3.93481 2.75544 58 83 139 255 
-17.5354 3.9038 2.60796 51 98 141 255 
-17.5267 3.90853 2.4311 53 94 141 255 
-17.52 3.92613 2.25863 55 90 140 255 
-17.4986 3.93447 2.09107 62 76 138 255 
-17.5295 3.90249 1.94777 57 85 140 255 
-17.5083 3.91404 1.77488 58 84 140 255 
-17.5434 3.93461 1.60777 57 86 140 255 
-17.5044 3.94538 1.4374 59 82 139 255 
-17.5265 3.90502 1.29657 53 94 141 255 
-17.4972 3.91477 1.1249 61 77 138 255 
-17.5095 3.93662 0.956243 65 68 135 255 
-17.4214 3.93306 0.782901 68 57 131 255 
-17.0464 3.80428 0.628229 70 52 128 255 
-16.4813 3.69351 0.448181 68 58 131 255 
-16.3312 3.67471 0.286345 70 50 126 255 
-11.5354 2.60846 0.0928881 64 70 136 255 
-7.54411 1.68502 -0.00134914 50 101 142 255 
-7.46294 1.67521 -0.073424 52 96 141 255 
-7.48489 1.68693 -0.144643 57 85 140 255 
-16.0353 3.63187 -0.464994 70 51 127 255 
-7.44659 1.66733 -0.277148 53 95 141 255 
-7.47348 1.68031 -0.34918 63 72 137 255 
-7.47851 1.68686 -0.421907 49 104 142 255 
-11.42 2.58863 -0.755178 70 51 127 255 
-11.3606 2.54578 -0.84475 65 66 135 255 
-10.1072 2.27618 -0.848134 71 47 125 255 
-8.72645 1.97315 -0.817366 70 51 127 255 
-7.87329 1.78469 -0.814335 68 58 131 255 
-8.06119 1.81084 -0.900467 70 50 126 255 
-7.97569 1.79762 -0.969112 69 53 129 255 
-7.98713 1.80745 -1.04905 70 48 126 255 
-7.93237 1.80099 -1.12004 71 46 124 255 
-8.07979 1.81946 -1.20971 70 51 127 255 
-8.04152 1.81541 -1.28212 70 52 128 255 
-7.95138 1.80082 -1.34529 71 42 122 255 
-7.47828 1.69789 -1.34114 72 40 120 255 
-7.1139 1.60716 -1.33855 68 58 131 255 
-6.72288 1.52142 -1.32986 68 59 132 255 
-6.36578 1.44171 -1.32437 69 53 129 255 
-6.03185 1.36838 -1.31807 70 52 128 255 
-5.76906 1.30651 -1.31244 69 53 129 255 
-5.51444 1.24996 -1.30956 68 59 132 255 
-5.24957 1.19084 -1.30128 70 51 127 255 
-5.05363 1.14461 -1.30731 69 55 129 255 
-4.84723 1.10218 -1.29947 70 48 126 255 
-4.63671 1.05441 -1.29015 70 51 127 255 
-4.48847 1.01901 -1.29722 70 48 126 255 
-4.34129 0.981679 -1.30406 68 59 132 255 
-17.584 4.03768 5.4196 59 82 139 255 
-17.6034 4.02625 5.22242 56 89 140 255 
-17.5909 4.01676 5.02769 56 89 140 255 
-17.5741 4.01328 4.8403 57 85 140 255 
-17.5687 4.02452 4.67806 62 74 137 255 
-17.5817 4.02452 4.49031 60 80 139 255 
-17.5796 4.0271 4.30651 61 78 138 255 
-17.5637 4.02702 4.127 64 69 136 255 
-17.5455 4.01598 3.97057 60 80 139 255 
-17.5528 4.02113 3.78493 60 79 138 255 
-17.5379 4.02721 3.60543 57 86 140 255 
-17.5232 4.03059 3.43001 59 81 139 255 
-17.5375 4.01414 3.2825 56 89 140 255 
-17.5477 4.02317 3.10642 53 95 141 255 
-17.5404 4.03424 2.928 53 95 141 255 
-17.5119 4.04407 2.75665 57 86 140 255 
-17.5198 4.01331 2.60925 55 90 140 255 
-17.5207 4.0202 2.43365 52 97 141 255 
-17.5042 4.03556 2.25975 56 89 140 255 
-17.4993 4.04759 2.09408 60 79 138 255 
-17.5208 4.01353 1.94949 56 88 140 255 
-17.5101 4.02742 1.77754 55 90 140 255 
-17.5083 4.03972 1.60679 58 83 139 255 
-17.4935 4.05586 1.43852 59 81 139 255 
-17.5022 4.01249 1.29657 58 84 140 255 
-17.4864 4.02519 1.12578 62 76 138 255 
-17.4986 4.04713 0.956988 64 69 136 255 
-17.4738 4.05773 0.786361 66 63 133 255 
-16.4675 3.78132 0.60774 69 56 130 255 
-16.4125 3.78402 0.446935 67 62 133 255 
-16.3785 3.79108 0.287576 69 53 129 255 
-7.48303 1.74044 0.0603415 48 106 142 255 
-7.44299 1.71045 -0.00133291 48 105 142 255 
-7.43109 1.71602 -0.0732128 47 107 142 255 
-7.48414 1.73508 -0.144831 57 86 140 255 
-15.9932 3.72566 -0.464429 71 47 125 255 
-7.407 1.70626 -0.276059 49 103 142 255 
-7.44551 1.72209 -0.348361 50 102 142 255 
-7.4262 1.72301 -0.419545 45 112 142 255 
-7.45323 1.73762 -0.493563 46 110 142 255 
-7.52045 1.73377 -0.559982 55 90 140 255 
-7.47731 1.73219 -0.628329 70 52 128 255 
-7.54246 1.75415 -0.707462 53 94 141 255 
-7.59282 1.77016 -0.786434 66 65 134 255 
-7.59275 1.75462 -0.849327 67 62 133 255 
-7.58046 1.75748 -0.922381 67 62 133 255 
-7.52087 1.75051 -0.989198 69 53 129 255 
-7.51117 1.75389 -1.06207 69 55 129 255 
-7.64819 1.77164 -1.14669 68 58 131 255 
-7.57978 1.76011 -1.2102 70 50 126 255 
-7.59424 1.76899 -1.28668 70 48 126 255 
-7.4495 1.73949 -1.33787 71 47 125 255 
-7.09815 1.64944 -1.33747 69 53 129 255 
-6.70195 1.55997 -1.32758 69 55 129 255 
-6.35013 1.47919 -1.32298 70 52 128 255 
-6.03382 1.40781 -1.32036 68 58 131 255 
-5.7771 1.34565 -1.31612 69 53 129 255 
-5.48769 1.27935 -1.30505 69 55 129 255 
-5.2734 1.23032 -1.30903 68 57 131 255 
-5.04934 1.17626 -1.30804 69 53 129 255 
-4.82907 1.12926 -1.29644 69 55 129 255 
-4.66304 1.09053 -1.29931 71 45 123 255 
-4.45682 1.04062 -1.2899 70 48 126 255 
-4.31742 1.00417 -1.29872 70 51 127 255 
-17.556 4.14484 5.41873 60 80 139 255 
-17.5728 4.13287 5.22075 57 85 140 255 
-17.5875 4.12968 5.03386 56 89 140 255 
-17.5707 4.12612 4.84626 57 86 140 255 
-17.5626 4.13668 4.68308 62 73 137 255 
-17.5784 4.13744 4.49586 58 84 140 255 
-17.5479 4.13333 4.30489 59 81 139 255 
-17.5453 4.13628 4.12856 63 72 137 255 
-17.5291 4.12558 3.97251 58 84 140 255 
-17.5564 4.13548 3.79111 58 84 140 255 
-17.531 4.13903 3.60916 56 89 140 255 
-17.5316 4.14595 3.43657 58 84 140 255 
-17.5336 4.12663 3.28644 53 94 141 255 
-17.5246 4.13122 3.10676 53 94 141 255 
-17.5211 4.14315 2.92896 53 94 141 255 
-17.5051 4.15579 2.75953 55 91 141 255 
-17.5093 4.12414 2.6114 51 99 141 255 
-17.4967 4.12786 2.43378 53 94 141 255 
-17.4878 4.14495 2.26088 53 94 141 255 
-17.4925 4.15925 2.09628 59 82 139 255 
-17.5055 4.12324 1.95057 60 80 139 255 
-17.5044 4.13936 1.77951 57 85 140 255 
-17.4987 4.15075 1.60821 58 83 139 255 
-17.4624 4.16174 1.43804 62 74 137 255 
-17.4899 4.12278 1.29751 59 82 139 255 
-17.4692 4.13425 1.12628 61 78 138 255 
-17.4647 4.15234 0.95651 65 68 135 255 
-17.468 4.16951 0.787237 68 59 132 255 
-16.4411 3.8816 0.607632 71 44 122 255 
-16.4162 3.89111 0.447677 66 64 134 255 
-16.1293 3.83781 0.283608 68 57 131 255 
-7.45373 1.78191 0.0601923 46 110 142 255 
-7.4382 1.75747 -0.00133396 44 114 142 255 
-7.50311 1.78122 -0.0740287 48 105 142 255 
-7.52101 1.79233 -0.145755 56 89 140 255 
-7.43189 1.77942 -0.216128 72 38 119 255 
-7.34097 1.73855 -0.27399 50 100 142 255 
-7.3794 1.75457 -0.345765 48 106 142 255 
-7.37567 1.75905 -0.417292 44 115 142 255 
-7.40555 1.77448 -0.491117 44 114 142 255 
-7.44173 1.76378 -0.554917 45 112 142 255 
-7.46945 1.77873 -0.628574 44 113 142 255 
-7.5083 1.79484 -0.705279 52 96 141 255 
-7.457 1.78681 -0.773488 55 90 140 255 
-7.25396 1.72328 -0.812598 62 73 137 255 
-7.24979 1.72776 -0.883419 61 78 138 255 
-7.2447 1.73316 -0.954255 61 78 138 255 
-7.24596 1.73891 -1.02606 59 81 139 255 
-7.24732 1.72571 -1.08816 59 81 139 255 
-7.25743 1.73226 -1.16041 66 64 134 255 
-7.24645 1.73492 -1.22954 66 65 134 255 
-7.23275 1.73574 -1.30083 64 70 136 255 
-7.09842 1.69548 -1.33945 70 52 128 255 
-6.68174 1.59855 -1.3255 65 66 135 255 
-6.31901 1.51287 -1.31841 68 57 131 255 
-6.03172 1.4464 -1.32182 69 55 129 255 
-5.7393 1.37402 -1.30941 67 61 132 255 
-5.46079 1.30846 -1.30054 69 55 129 255 
-5.25819 1.26084 -1.30715 66 63 133 255 
-5.03354 1.20519 -1.30584 69 56 130 255 
-4.83051 1.1609 -1.29871 68 57 131 255 
-4.60841 1.10762 -1.28596 71 45 123 255 
-4.44942 1.06773 -1.28963 70 51 127 255 
-4.31865 1.03243 -1.30097 67 61 132 255 
-17.5368 4.25406 5.42075 59 82 139 255 
-17.563 4.24445 5.22547 57 86 140 255 
-17.5711 4.23978 5.03655 56 89 140 255 
-17.5498 4.23499 4.84756 57 86 140 255 
-17.5397 4.24505 4.68383 62 74 137 255 
-17.547 4.24385 4.49441 61 78 138 255 
-17.5383 4.24481 4.30884 61 78 138 255 
-17.5139 4.24248 4.12722 62 74 137 255 
-17.512 4.23512 3.97445 60 79 138 255 
-17.5231 4.24129 3.78946 58 83 139 255 
-17.5234 4.25091 3.61289 55 90 140 255 
-17.4905 4.24973 3.43358 57 86 140 255 
-17.5242 4.23807 3.2895 55 91 141 255 
-17.5056 4.24029 3.10795 53 95 141 255 
-17.5203 4.25664 2.93314 53 95 141 255 
-17.5013 4.2685 2.76302 56 88 140 255 
-17.5039 4.23638 2.61442 52 96 141 255 
-17.4932 4.24051 2.43687 52 96 141 255 
-17.492 4.25945 2.26475 53 95 141 255 
-17.4976 4.27405 2.09999 61 78 138 255 
-17.4915 4.23338 1.95186 58 83 139 255 
-17.4729 4.24528 1.77892 59 82 139 255 
-17.4816 4.26016 1.60902 59 82 139 255 
-17.4627 4.27521 1.44019 60 79 138 255 
-17.4827 4.23448 1.29888 58 84 140 255 
-17.4561 4.24442 1.12709 61 77 138 255 
-17.4748 4.26819 0.958478 64 69 136 255 
-17.447 4.2778 0.787455 67 61 132 255 
-17.3998 4.22083 0.644009 67 61 132 255 
-16.5134 4.02133 0.450993 68 59 132 255 
-16.2657 3.97588 0.286431 70 52 128 255 
-7.43294 1.82522 0.0601138 48 105 142 255 
-7.3952 1.79529 -0.0013282 45 113 142 255 
-7.42404 1.81064 -0.0733568 50 102 142 255 
-7.53609 1.84486 -0.146264 50 100 142 255 
-7.46257 1.83526 -0.217344 64 69 136 255 
-7.31948 1.78096 -0.273591 49 104 142 255 
-7.352 1.79578 -0.344991 46 109 142 255 
-7.34922 1.80047 -0.416412 41 121 142 255 
-7.36061 1.81154 -0.488864 46 109 142 255 
-7.4017 1.80233 -0.552746 43 117 142 255 
-7.43128 1.8179 -0.62629 43 116 142 255 
-7.4604 1.83185 -0.701821 50 101 142 255 
-7.36861 1.81351 -0.765459 57 86 140 255 
-7.2278 1.76399 -0.810864 56 88 140 255 
-7.23519 1.77127 -0.882948 48 106 142 255 
-7.20985 1.77166 -0.951079 50 100 142 255 
-7.22361 1.78049 -1.02442 52 96 141 255 
-7.22218 1.76662 -1.08599 49 103 142 255 
-7.23707 1.77441 -1.15887 54 92 141 255 
-7.20692 1.77228 -1.22465 59 81 139 255 
-7.19614 1.77372 -1.29618 62 73 137 255 
-7.07833 1.73666 -1.33765 68 57 131 255 
-6.62986 1.62921 -1.31716 70 48 126 255 
-6.29248 1.54741 -1.31483 68 58 131 255 
-6.00944 1.48011 -1.31891 69 56 130 255 
-5.73171 1.40944 -1.30962 69 55 129 255 
-5.45266 1.34194 -1.30054 67 61 132 255 
-5.20978 1.28308 -1.29705 69 53 129 255 
-5.0317 1.23744 -1.30731 69 53 129 255 
-4.81391 1.1882 -1.29618 69 56 130 255 
-4.6137 1.13888 -1.28936 69 53 129 255 
-4.43998 1.09432 -1.28882 70 48 126 255 
-4.27961 1.05089 -1.29113 69 56 130 255 
-17.5271 4.36575 5.42592 61 78 138 255 
-17.5468 4.35468 5.22853 57 86 140 255 
-17.557 4.35053 5.04004 56 89 140 255 
-17.5253 4.34305 4.84808 57 86 140 255 
-17.5311 4.35703 4.68861 63 72 137 255 
-17.5226 4.3519 4.4949 62 76 138 255 
-17.5185 4.35399 4.31046 62 73 137 255 
-17.5074 4.3548 4.13191 63 72 137 255 
-17.5217 4.35144 3.98263 58 84 140 255 
-17.4996 4.34944 3.79008 59 82 139 255 
-17.4884 4.35622 3.61112 54 93 141 255 
-17.4956 4.36482 3.43976 59 81 139 255 
-17.5083 4.34812 3.29147 54 92 141 255 
-17.4859 4.34929 3.10914 53 94 141 255 
-17.4996 4.36549 2.9341 53 95 141 255 
-17.493 4.38037 2.7659 52 96 141 255 
-17.4823 4.3449 2.61514 51 98 141 255 
-17.4832 4.35184 2.43915 52 96 141 255 
-17.478 4.36983 2.26637 53 95 141 255 
-17.4835 4.38447 2.1015 58 84 140 255 
-17.4835 4.34518 1.95391 59 82 139 255 
-17.4571 4.35506 1.78 57 86 140 255 
-17.4648 4.36976 1.60991 60 79 138 255 
-17.4506 4.38592 1.44139 61 77 138 255 
-17.4631 4.34335 1.29938 58 84 140 255 
-17.4442 4.35508 1.12803 62 76 138 255 
-17.4638 4.37922 0.959329 64 69 136 255 
-17.06 4.29406 0.771164 72 38 119 255 
-16.6414 4.14515 0.61687 72 41 121 255 
-16.5059 4.12694 0.451471 72 40 120 255 
-14.1375 3.54775 0.249333 68 57 131 255 
-7.38864 1.86249 0.0598467 46 109 142 255 
-7.37726 1.83894 -0.00132697 45 113 142 255 
-7.40988 1.85543 -0.073328 54 92 141 255 
-7.47518 1.87864 -0.145303 48 106 142 255 
-7.46377 1.88419 -0.217712 58 84 140 255 
-7.29581 1.82269 -0.273119 46 111 142 255 
-7.33018 1.83819 -0.34449 41 123 142 255 
-7.31479 1.83969 -0.415094 41 122 142 255 
-7.34452 1.85545 -0.488543 43 116 142 255 
-7.35857 1.83973 -0.550357 42 120 142 255 
-7.38326 1.85424 -0.623189 40 124 142 255 
-7.38142 1.86056 -0.695453 51 99 141 255 
-7.34094 1.85455 -0.763753 63 71 136 255 
-7.19948 1.80395 -0.808914 55 91 141 255 
-7.19915 1.80934 -0.879888 54 93 141 255 
-7.19115 1.81393 -0.950062 55 91 141 255 
-7.17701 1.81579 -1.01937 61 78 138 255 
-7.19969 1.80801 -1.08426 49 103 142 255 
-7.19538 1.81106 -1.15395 55 91 141 255 
-7.17869 1.81212 -1.22172 58 83 139 255 
-7.16888 1.81374 -1.29325 61 78 138 255 
-7.02367 1.76901 -1.32934 68 59 132 255 
-6.61307 1.66817 -1.31584 70 48 126 255 
-6.30282 1.59102 -1.319 71 42 122 255 
-5.98697 1.5136 -1.31599 70 51 127 255 
-5.73336 1.44721 -1.31201 69 53 129 255 
-5.45282 1.37752 -1.30257 68 57 131 255 
-5.20557 1.31598 -1.29799 68 59 132 255 
-5.01085 1.26497 -1.30388 69 55 129 255 
-4.77183 1.20893 -1.28683 69 53 129 255 
-4.60476 1.1667 -1.28884 71 47 125 255 
-4.43691 1.12248 -1.2899 70 51 127 255 
-4.30658 1.08558 -1.30125 68 57 131 255 
-17.5399 4.48341 5.4383 58 83 139 255 
-17.5384 4.46701 5.23409 59 82 139 255 
-17.5309 4.45841 5.04031 57 86 140 255 
-17.5311 4.45884 4.85715 60 80 139 255 
-17.5472 4.47552 4.70016 64 70 136 255 
-17.5106 4.46317 4.49876 62 74 137 255 
-17.5273 4.47053 4.31929 60 80 139 255 
-17.5304 4.47492 4.14375 64 70 136 255 
-17.5089 4.46248 3.98586 60 80 139 255 
-17.5076 4.46568 3.79769 59 82 139 255 
-17.4756 4.46709 3.61407 55 90 140 255 
-17.4923 4.47818 3.44444 60 80 139 255 
-17.5004 4.46033 3.29506 56 89 140 255 
-17.4771 4.46113 3.11237 54 92 141 255 
-17.4868 4.47646 2.93651 54 92 141 255 
-17.4754 4.49008 2.76741 54 92 141 255 
-17.4841 4.45942 2.61945 50 100 142 255 
-17.4619 4.4605 2.43995 54 93 141 255 
-17.4653 4.48069 2.26824 52 97 141 255 
-17.4755 4.49662 2.10381 62 76 138 255 
-17.4748 4.45705 1.95596 60 79 138 255 
-17.4426 4.4653 1.78128 57 85 140 255 
-17.4367 4.47659 1.60982 60 79 138 255 
-17.4359 4.49615 1.44243 60 80 139 255 
-17.4381 4.45092 1.29952 56 88 140 255 
-17.4404 4.46798 1.12954 59 82 139 255 
-17.4511 4.49003 0.960128 66 65 134 255 
-17.4222 4.49908 0.788769 67 62 133 255 
-17.368 4.43948 0.6448 68 59 132 255 
-17.1203 4.39235 0.469004 72 41 121 255 
-14.1426 3.64141 0.249812 51 99 141 255 
-7.38191 1.90904 0.059886 49 103 142 255 
-7.37068 1.88541 -0.00132785 48 105 142 255 
-7.39448 1.89986 -0.0732896 52 97 141 255 
-7.45673 1.92272 -0.145171 48 105 142 255 
-7.46658 1.93371 -0.218136 50 102 142 255 
-7.27094 1.86394 -0.272611 45 112 142 255 
-7.29168 1.87616 -0.343215 42 118 142 255 
-7.28596 1.88005 -0.414105 40 125 142 255 
-7.32526 1.89848 -0.488028 44 115 142 255 
-7.31526 1.87666 -0.547969 42 120 142 255 
-7.34279 1.89204 -0.620741 42 119 142 255 
-7.35251 1.90132 -0.693815 50 100 142 255 
-7.3458 1.9038 -0.765459 57 86 140 255 
-7.18347 1.84686 -0.808372 55 91 141 255 
-7.17829 1.851 -0.878711 54 92 141 255 
-7.16932 1.85529 -0.948664 60 80 139 255 
-7.14848 1.85532 -1.01692 60 79 138 255 
-7.1875 1.8519 -1.08411 50 101 142 255 
-7.16978 1.85147 -1.15165 56 88 140 255 
-7.15502 1.85292 -1.2196 64 70 136 255 
-7.14141 1.85348 -1.29032 66 63 133 255 
-7.03459 1.81773 -1.33349 67 62 133 255 
-6.63313 1.71659 -1.3219 66 63 133 255 
-6.28915 1.62868 -1.31821 69 55 129 255 
-5.97094 1.54859 -1.31453 71 47 125 255 
-5.72627 1.48286 -1.31244 67 62 133 255 
-5.43861 1.40949 -1.30122 68 57 131 255 
-5.21622 1.35277 -1.30269 68 58 131 255 
-5.01051 1.29763 -1.30584 70 50 126 255 
-4.76057 1.23721 -1.28581 69 53 129 255 
-4.59191 1.19347 -1.28727 71 46 124 255 
-4.42715 1.14896 -1.28909 69 55 129 255 
-4.28869 1.1091 -1.29788 69 56 130 255 
-17.5259 4.59459 5.44261 59 82 139 255 
-17.5135 4.57527 5.23492 57 86 140 255 
-17.5162 4.5693 5.04406 57 86 140 255 
-17.523 4.57144 4.8626 58 84 140 255 
-17.5307 4.58604 4.70318 62 76 138 255 
-17.4932 4.57323 4.50142 62 76 138 255 
-17.5061 4.57972 4.32091 60 79 138 255 
-17.5092 4.58413 4.14531 63 71 136 255 
-17.4934 4.57304 3.98866 59 81 139 255 
-17.5036 4.57921 3.80283 58 84 140 255 
-17.4801 4.58268 3.62075 57 85 140 255 
-17.4787 4.58917 3.44725 58 83 139 255 
-17.4889 4.57186 3.29811 53 94 141 255 
-17.4665 4.57277 3.11543 54 93 141 255 
-17.4676 4.58593 2.93795 52 96 141 255 
-17.458 4.6 2.76908 54 93 141 255 
-17.4622 4.56812 2.62031 51 98 141 255 
-17.4582 4.57384 2.44331 50 101 142 255 
-17.4509 4.59131 2.26999 54 93 141 255 
-17.463 4.60781 2.10566 62 76 138 255 
-17.451 4.56519 1.95639 60 80 139 255 
-17.4303 4.57629 1.78286 58 83 139 255 
-17.4214 4.5868 1.61098 58 83 139 255 
-17.4302 4.60891 1.44426 60 80 139 255 
-17.4172 4.5596 1.30003 56 88 140 255 
-17.4262 4.57845 1.13041 66 65 134 255 
-17.428 4.59829 0.960394 64 70 136 255 
-17.402 4.60794 0.78912 68 58 131 255 
-17.3946 4.56015 0.646813 67 61 132 255 
-17.0138 4.47646 0.466829 70 51 127 255 
-16.6818 4.40452 0.295136 71 46 124 255 
-7.39712 1.96147 0.0601059 52 97 141 255 
-7.36574 1.93237 -0.00132907 45 112 142 255 
-7.36335 1.9401 -0.0730976 48 105 142 255 
-7.41773 1.96128 -0.144643 48 106 142 255 
-7.43815 1.97513 -0.217655 54 92 141 255 
-7.26516 1.91005 -0.272829 44 113 142 255 
-7.28196 1.92138 -0.343306 41 121 142 255 
-7.28008 1.92625 -0.414434 40 124 142 255 
-7.30287 1.94057 -0.48732 42 118 142 255 
-7.30554 1.92202 -0.548114 41 121 142 255 
-7.3214 1.93452 -0.619925 41 122 142 255 
-7.33493 1.94487 -0.693269 51 99 141 255 
-7.33879 1.95011 -0.765961 53 95 141 255 
-7.14989 1.88507 -0.80588 59 82 139 255 
-7.15336 1.89145 -0.877063 52 96 141 255 
-7.14054 1.89466 -0.946377 57 86 140 255 
-7.12738 1.8966 -1.01555 61 77 138 255 
-7.16835 1.89395 -1.08296 52 96 141 255 
-7.14969 1.89315 -1.15026 59 82 139 255 
-7.13589 1.89476 -1.2183 59 82 139 255 
-7.12229 1.89524 -1.28895 62 74 137 255 
-6.98337 1.85028 -1.32591 66 65 134 255 
-6.61488 1.75524 -1.32038 62 73 137 255 
-6.26672 1.66397 -1.31562 67 61 132 255 
-5.96322 1.5857 -1.31495 71 42 122 255 
-5.69536 1.5122 -1.30746 70 50 126 255 
-5.43457 1.44408 -1.30234 68 59 132 255 
-5.19279 1.38076 -1.29893 69 55 129 255 
-5.00245 1.32835 -1.30584 69 55 129 255 
-4.76224 1.26889 -1.28834 69 53 129 255 
-4.57051 1.2179 -1.28334 71 46 124 255 
-4.40234 1.1714 -1.28393 70 48 126 255 
-4.2614 1.12998 -1.29169 68 57 131 255 
-17.5215 4.70851 5.45009 58 83 139 255 
-17.5194 4.69183 5.2452 60 80 139 255 
-17.526 4.68689 5.05507 58 83 139 255 
-17.504 4.68137 4.86519 57 86 140 255 
-17.4928 4.69101 4.70067 61 78 138 255 
-17.491 4.68751 4.50818 60 79 138 255 
-17.4777 4.68705 4.32091 62 73 137 255 
-17.4817 4.69173 4.14553 63 71 136 255 
-17.4792 4.68409 3.99189 60 80 139 255 
-17.4752 4.68653 3.80283 58 83 139 255 
-17.4857 4.69902 3.62782 53 95 141 255 
-17.4426 4.69429 3.44576 59 81 139 255 
-17.4615 4.67933 3.29829 56 88 140 255 
-17.4448 4.68165 3.11662 53 95 141 255 
-17.4439 4.6943 2.93876 55 91 141 255 
-17.4304 4.70729 2.76923 56 88 140 255 
-17.4434 4.67774 2.62175 52 96 141 255 
-17.4508 4.68653 2.44626 51 99 141 255 
-17.455 4.70708 2.27423 54 93 141 255 
-17.4411 4.71669 2.10647 58 83 139 255 
-17.4207 4.67167 1.95618 59 81 139 255 
-17.4346 4.69195 1.7862 60 80 139 255 
-17.4093 4.69802 1.61249 61 78 138 255 
-17.4122 4.71864 1.44514 61 78 138 255 
-17.438 4.67957 1.3037 59 82 139 255 
-17.4103 4.68867 1.13123 61 77 138 255 
-17.4043 4.70645 0.96066 64 69 136 255 
-17.3531 4.70913 0.7882 71 45 123 255 
-11.4964 3.08941 0.428189 61 78 138 255 
-11.5579 3.11692 0.317648 58 83 139 255 
-14.175 3.83584 0.251198 47 108 142 255 
-7.4139 2.01469 0.0603415 48 106 142 255 
-7.37403 1.98299 -0.00133273 48 106 142 255 
-7.38316 1.99385 -0.0734144 47 108 142 255 
-7.48855 2.02925 -0.146264 50 100 142 255 
-14.1351 3.84645 -0.414305 62 73 137 255 
-7.24752 1.95303 -0.272611 44 114 142 255 
-7.28161 1.96915 -0.343852 44 114 142 255 
-7.28354 1.97506 -0.415313 40 124 142 255 
-7.31586 1.99216 -0.488993 41 121 142 255 
-7.30998 1.97123 -0.549344 42 120 142 255 
-7.31902 1.98201 -0.620741 43 116 142 255 
-7.32286 1.98984 -0.693269 51 98 141 255 
-7.32956 1.99589 -0.766262 52 96 141 255 
-7.12667 1.92579 -0.80458 57 85 140 255 
-7.12149 1.92985 -0.874591 55 91 141 255 
-7.12017 1.9361 -0.945234 57 86 140 255 
-7.10797 1.93821 -1.01446 61 78 138 255 
-7.14418 1.93453 -1.08108 49 104 142 255 
-7.1389 1.93724 -1.15042 52 96 141 255 
-7.12127 1.93773 -1.21781 55 90 140 255 
-7.09722 1.93528 -1.28653 64 69 136 255 
-6.93202 1.88227 -1.31833 67 61 132 255 
-6.59261 1.79271 -1.31811 63 71 136 255 
-6.25734 1.70265 -1.31582 65 66 135 255 
-5.95149 1.62174 -1.31453 68 59 132 255 
-5.69445 1.54943 -1.30941 69 55 129 255 
-5.44064 1.4815 -1.30595 69 56 130 255 
-5.17672 1.41055 -1.29705 69 53 129 255 
-4.97549 1.35393 -1.30095 69 55 129 255 
-4.76276 1.30038 -1.29062 70 48 126 255 
-4.56388 1.24618 -1.2836 70 51 127 255 
-4.40343 1.20067 -1.28637 71 46 124 255 
-4.26735 1.15963 -1.29563 69 53 129 255 
-17.5042 4.81923 5.45383 61 77 138 255 
-17.5005 4.80204 5.24825 59 82 139 255 
-17.5044 4.79638 5.05722 59 81 139 255 
-17.502 4.79609 4.87271 59 82 139 255 
-17.4917 4.80595 4.7082 63 72 137 255 
-17.491 4.80271 4.51567 59 82 139 255 
-17.4646 4.79858 4.32486 62 74 137 255 
-17.4733 4.8046 4.15044 65 68 135 255 
-17.4614 4.79435 3.99448 61 78 138 255 
-17.4631 4.79833 3.80653 58 83 139 255 
-17.467 4.80908 3.62998 52 96 141 255 
-17.4448 4.80984 3.45194 56 88 140 255 
-17.4485 4.79081 3.30134 55 91 141 255 
-17.431 4.79278 3.11934 54 92 141 255 
-17.4443 4.80938 2.94374 54 93 141 255 
-17.446 4.82654 2.77636 55 90 140 255 
-17.4344 4.79019 2.62477 50 100 142 255 
-17.438 4.79799 2.44854 51 98 141 255 
-17.4248 4.81383 2.27411 54 93 141 255 
-17.4195 4.82574 2.1074 59 81 139 255 
-17.4233 4.78716 1.95973 59 82 139 255 
-17.4323 4.80624 1.78896 58 83 139 255 
-17.4089 4.81271 1.61516 60 80 139 255 
-17.3896 4.82726 1.4457 62 73 137 255 
-17.3974 4.7833 1.30284 59 81 139 255 
-17.3879 4.79726 1.13166 62 74 137 255 
-17.3953 4.81875 0.961777 65 68 135 255 
-11.4735 3.1893 0.522022 61 78 138 255 
-11.4243 3.14531 0.426212 56 89 140 255 
-11.4316 3.15823 0.314703 56 88 140 255 
-16.7527 4.64389 0.297377 72 36 117 255 
-7.4091 2.06229 0.0604044 68 58 131 255 
-7.38775 2.03537 -0.00133745 46 111 142 255 
-7.39199 2.04498 -0.0736256 53 94 141 255 
-7.40948 2.05671 -0.144963 70 52 128 255 
-11.498 3.20472 -0.337579 71 45 123 255 
-7.24503 2.00012 -0.272974 44 114 142 255 
-7.28094 2.01699 -0.344399 44 115 142 255 
-7.27802 2.02159 -0.415698 41 122 142 255 
-7.31984 2.04157 -0.490087 43 117 142 255 
-7.3064 2.01843 -0.549996 41 122 142 255 
-7.33265 2.03407 -0.622944 42 120 142 255 
-7.30284 2.0326 -0.692541 50 100 142 255 
-7.32485 2.04296 -0.767065 54 93 141 255 
-7.11472 1.96949 -0.80458 59 81 139 255 
-7.10282 1.97165 -0.873767 57 86 140 255 
-7.11006 1.98028 -0.945488 61 78 138 255 
-7.07877 1.97699 -1.01201 62 74 137 255 
-7.10929 1.97198 -1.07761 55 90 140 255 
-7.13544 1.98339 -1.1518 57 85 140 255 
-7.09499 1.97742 -1.21537 60 79 138 255 
-7.07952 1.9772 -1.2855 63 71 136 255 
-6.95161 1.93347 -1.32429 66 63 133 255 
-6.59757 1.8376 -1.32133 66 65 134 255 
-6.243 1.73996 -1.31503 64 69 136 255 
-5.94142 1.65823 -1.31453 66 64 134 255 
-5.67731 1.58224 -1.30767 66 64 134 255 
-5.4474 1.5193 -1.30979 68 57 131 255 
-5.13613 1.4334 -1.28906 69 53 129 255 
-4.94748 1.37897 -1.29581 69 55 129 255 
-4.68388 1.30978 -1.2714 71 45 123 255 
-4.57288 1.27883 -1.28831 70 48 126 255 
-4.40154 1.22922 -1.288 69 55 129 255 
-4.27772 1.19068 -1.30097 68 58 131 255 
-17.478 4.92759 5.45498 59 81 139 255 
-17.4818 4.91245 5.25159 59 82 139 255 
-17.4996 4.91072 5.06446 57 86 140 255 
-17.4945 4.90965 4.87894 57 85 140 255 
-17.4824 4.91896 4.71373 61 77 138 255 
-17.4556 4.90837 4.51422 62 73 137 255 
-17.4535 4.91092 4.32951 62 73 137 255 
-17.4575 4.91568 4.15379 65 68 135 255 
-17.4571 4.90854 4.0003 61 78 138 255 
-17.4634 4.91387 3.81311 57 85 140 255 
-17.4532 4.92069 3.63332 55 90 140 255 
-17.4593 4.92933 3.46075 60 79 138 255 
-17.4359 4.90258 3.30457 59 82 139 255 
-17.4335 4.90873 3.12512 56 88 140 255 
-17.4268 4.91981 2.94582 54 92 141 255 
-17.4132 4.93268 2.7759 59 81 139 255 
-17.4189 4.9011 2.62692 51 98 141 255 
-17.4359 4.91269 2.45243 51 98 141 255 
-17.4054 4.92362 2.27548 53 95 141 255 
-17.4182 4.94067 2.11088 61 78 138 255 
-17.4338 4.90529 1.96426 58 84 140 255 
-17.4245 4.91933 1.79122 57 85 140 255 
-17.4021 4.92595 1.6173 59 81 139 255 
-17.3836 4.94068 1.4477 62 73 137 255 
-17.3783 4.89294 1.30363 61 78 138 255 
-17.3754 4.90875 1.13279 60 79 138 255 
-17.3846 4.93084 0.962841 65 66 135 255 
-11.4326 3.25362 0.521058 58 83 139 255 
-11.373 3.2064 0.425026 50 100 142 255 
-11.3995 3.22478 0.314358 59 81 139 255 
-11.4644 3.25385 0.203855 71 42 122 255 
-11.2315 3.20062 0.0917257 60 79 138 255 
-7.44153 2.09939 -0.00134949 50 102 142 255 
-7.41105 2.09929 -0.0739424 50 102 142 255 
-11.3581 3.22796 -0.2226 50 101 142 255 
-11.3531 3.23956 -0.333904 67 62 133 255 
-7.24224 2.04726 -0.273337 44 114 142 255 
-7.29149 2.06817 -0.345492 44 114 142 255 
-7.27508 2.06894 -0.416248 42 120 142 255 
-7.32829 2.09247 -0.491503 44 115 142 255 
-7.30923 2.06757 -0.551154 42 118 142 255 
-7.36221 2.09101 -0.626534 42 118 142 255 
-7.31322 2.08392 -0.694725 53 95 141 255 
-7.33131 2.09333 -0.769072 58 84 140 255 
-7.09102 2.00985 -0.80328 60 79 138 255 
-7.06098 2.00678 -0.870118 60 80 139 255 
-7.07298 2.0168 -0.942184 60 79 138 255 
-7.06555 2.02011 -1.01187 62 74 137 255 
-7.08658 2.0126 -1.07602 57 86 140 255 
-7.09083 2.01794 -1.14657 62 76 138 255 
-7.07893 2.01983 -1.21472 63 71 136 255 
-7.06063 2.01871 -1.28429 63 72 137 255 
-6.90083 1.96504 -1.31689 68 59 132 255 
-6.58428 1.87751 -1.32095 62 76 138 255 
-6.21147 1.77232 -1.31065 64 70 136 255 
-5.91327 1.68955 -1.31057 68 59 132 255 
-5.66656 1.61678 -1.30746 65 68 135 255 
-5.40706 1.54387 -1.30234 65 66 135 255 
-5.13005 1.46569 -1.28976 69 55 129 255 
-4.9324 1.40743 -1.2941 69 55 129 255 
-4.72971 1.35393 -1.28607 71 45 123 255 
-4.54732 1.30182 -1.28334 69 56 130 255 
-4.40595 1.25964 -1.29153 68 57 131 255 
-4.24449 1.20954 -1.2931 67 61 132 255 
-17.4548 5.03686 5.45728 60 79 138 255 
-17.4707 5.0252 5.25742 57 86 140 255 
-17.4988 5.02651 5.07305 59 82 139 255 
-17.4808 5.0217 4.8836 58 83 139 255 
-17.4603 5.02854 4.71599 62 73 137 255 
-17.4438 5.02075 4.51905 61 78 138 255 
-17.438 5.02223 4.33322 62 76 138 255 
-17.4327 5.02433 4.15513 64 69 136 255 
-17.4454 5.02096 4.0046 60 79 138 255 
-17.4405 5.0231 3.81476 58 84 140 255 
-17.449 5.0353 3.63882 54 92 141 255 
-17.4363 5.03855 3.46224 56 89 140 255 
-17.4281 5.016 3.30888 56 89 140 255 
-17.4229 5.02133 3.12869 56 89 140 255 
-17.401 5.02802 2.94663 56 88 140 255 
-17.4006 5.04467 2.77878 56 89 140 255 
-17.4057 5.01282 2.62951 52 97 141 255 
-17.4311 5.02699 2.45605 50 101 142 255 
-17.4035 5.03861 2.27922 54 93 141 255 
-17.4086 5.05354 2.11342 58 83 139 255 
-17.4072 5.01327 1.96469 58 83 139 255 
-17.4045 5.02919 1.79231 58 84 140 255 
-17.3868 5.03707 1.61872 61 78 138 255 
-17.3712 5.05254 1.44922 60 79 138 255 
-17.3815 5.00914 1.30615 58 83 139 255 
-17.3699 5.02248 1.13442 61 77 138 255 
-17.3665 5.04104 0.963533 65 66 135 255 
-11.4124 3.32371 0.521058 59 81 139 255 
-11.3589 3.27778 0.425242 56 88 140 255 
-11.4227 3.30717 0.315552 60 79 138 255 
-11.474 3.33278 0.204386 62 73 137 255 
-11.2145 3.27031 0.0917493 60 79 138 255 
-11.2398 3.24554 -0.00204186 66 64 134 255 
-11.281 3.27041 -0.112752 59 82 139 255 
-11.3199 3.29228 -0.222242 51 99 141 255 
-11.3023 3.30019 -0.332999 68 59 132 255 
-7.2593 2.10027 -0.274462 46 109 142 255 
-7.32184 2.12541 -0.347541 44 115 142 255 
-7.30827 2.12693 -0.418885 45 113 142 255 
-7.34117 2.14495 -0.493241 46 110 142 255 
-7.3376 2.12431 -0.554265 44 115 142 255 
-7.37508 2.14365 -0.628737 44 113 142 255 
-7.33662 2.13935 -0.698182 52 97 141 255 
-7.37754 2.15558 -0.775294 61 78 138 255 
-7.05946 2.04778 -0.801113 58 84 140 255 
-7.04853 2.05007 -0.870118 59 82 139 255 
-7.05571 2.05877 -0.941549 63 72 137 255 
-7.03971 2.05954 -1.00996 62 73 137 255 
-7.0627 2.05273 -1.07428 60 79 138 255 
-7.06313 2.05699 -1.14412 56 88 140 255 
-7.05599 2.06019 -1.21293 58 84 140 255 
-7.02636 2.05563 -1.28033 62 73 137 255 
-6.8877 2.00707 -1.31671 65 66 135 255 
-6.54342 1.90935 -1.31508 62 76 138 255 
-6.18919 1.8071 -1.30827 64 69 136 255 
-5.88308 1.72004 -1.30619 66 65 134 255 
-5.65466 1.65097 -1.30702 66 63 133 255 
-5.36476 1.56746 -1.29445 68 59 132 255 
-5.11909 1.4966 -1.28929 70 52 128 255 
-4.93391 1.44066 -1.29679 68 58 131 255 
-4.72967 1.38538 -1.28834 69 53 129 255 
-4.53647 1.32888 -1.28255 70 52 128 255 
-4.40645 1.28909 -1.29397 68 59 132 255 
-4.25081 1.2396 -1.29731 67 61 132 255 
-17.4557 5.15336 5.46735 59 81 139 255 
-17.4579 5.13773 5.26298 58 83 139 255 
-17.4815 5.13786 5.07708 58 83 139 255 
-17.4524 5.12968 4.88438 60 80 139 255 
-17.443 5.13969 4.71976 63 72 137 255 
-17.4266 5.1318 4.52268 62 76 138 255 
-17.4255 5.13463 4.33787 62 74 137 255 
-17.4137 5.13478 4.15803 64 69 136 255 
-17.4264 5.1315 4.0074 62 76 138 255 
-17.4272 5.13528 3.81867 60 80 139 255 
-17.415 5.14144 3.63823 53 94 141 255 
-17.407 5.146 3.46262 58 83 139 255 
-17.4216 5.13007 3.31355 56 89 140 255 
-17.4163 5.13539 3.13311 56 89 140 255 
-17.4011 5.14393 2.95192 56 88 140 255 
-17.3902 5.15752 2.78212 56 88 140 255 
-17.4021 5.12763 2.63367 52 97 141 255 
-17.4037 5.13497 2.45659 53 95 141 255 
-17.3884 5.15009 2.28135 56 89 140 255 
-17.3791 5.16083 2.11365 62 76 138 255 
-17.3781 5.12055 1.96491 60 80 139 255 
-17.3781 5.1373 1.7928 58 83 139 255 
-17.3747 5.14932 1.62051 57 86 140 255 
-17.3398 5.15903 1.44922 63 72 137 255 
-17.3734 5.12247 1.30788 59 82 139 255 
-17.3703 5.13831 1.13649 62 73 137 255 
-17.3553 5.15347 0.96465 69 56 130 255 
-11.411 3.39938 0.521934 58 84 140 255 
-11.3491 3.35053 0.425637 57 85 140 255 
-11.4587 3.39395 0.317117 57 86 140 255 
-17.3181 5.14569 0.309041 67 61 132 255 
-11.2029 3.34164 0.09182 59 82 139 255 
-11.2513 3.32379 -0.00204762 58 83 139 255 
-11.2894 3.34809 -0.11304 49 104 142 255 
-11.3052 3.36339 -0.222355 47 107 142 255 
-11.2867 3.37091 -0.33314 64 69 136 255 
-7.28939 2.15753 -0.276095 47 107 142 255 
-7.35367 2.18366 -0.349681 46 110 142 255 
-7.33145 2.18256 -0.420973 47 108 142 255 
-7.35656 2.19853 -0.495172 55 91 141 255 
-7.38085 2.186 -0.558535 50 101 142 255 
-7.35415 2.18659 -0.628085 70 48 126 255 
-7.64687 2.28082 -0.729024 69 55 129 255 
-7.36703 2.20166 -0.775595 65 66 135 255 
-7.03533 2.08767 -0.799813 58 84 140 255 
-7.03201 2.09215 -0.869647 55 90 140 255 
-7.04199 2.10174 -0.941422 59 81 139 255 
-7.02694 2.10269 -1.00996 60 80 139 255 
-7.05282 2.09687 -1.07472 56 89 140 255 
-7.03901 2.09691 -1.14227 54 92 141 255 
-7.02619 2.09836 -1.21 60 80 139 255 
-7.03249 2.10435 -1.28378 57 86 140 255 
-6.87431 2.04901 -1.31653 65 66 135 255 
-6.52123 1.94638 -1.313 61 78 138 255 
-6.16108 1.84 -1.30469 64 69 136 255 
-5.88178 1.75891 -1.30828 67 61 132 255 
-5.61542 1.67698 -1.30031 67 62 133 255 
-5.36064 1.60202 -1.2958 68 59 132 255 
-5.1154 1.52965 -1.2907 68 59 132 255 
-4.87573 1.4562 -1.28382 67 61 132 255 
-4.71922 1.41382 -1.28784 71 46 124 255 
-4.53562 1.35891 -1.28465 70 52 128 255 
-4.35973 1.30451 -1.28258 70 51 127 255 
-4.22565 1.26044 -1.29197 67 61 132 255 
-17.4449 5.26673 5.47397 60 80 139 255 
-17.4813 5.26136 5.27965 58 83 139 255 
-17.4413 5.24254 5.07466 57 86 140 255 
-17.4409 5.24279 4.89009 58 84 140 255 
-17.4241 5.25053 4.72328 62 74 137 255 
-17.4134 5.24423 4.52751 63 72 137 255 
-17.4123 5.24706 4.34251 62 73 137 255 
-17.4033 5.24801 4.16317 66 63 133 255 
-17.4236 5.24706 4.01408 61 77 138 255 
-17.4319 5.25312 3.82669 58 83 139 255 
-17.3944 5.2516 3.64059 54 92 141 255 
-17.4061 5.26209 3.4688 58 83 139 255 
-17.402 5.24056 3.31588 55 91 141 255 
-17.3958 5.24557 3.13515 54 93 141 255 
-17.389 5.2566 2.9553 56 88 140 255 
-17.3875 5.27302 2.78682 59 82 139 255 
-17.4025 5.24402 2.63856 54 93 141 255 
-17.3776 5.24338 2.45739 55 91 141 255 
-17.3574 5.25697 2.28147 58 83 139 255 
-17.3642 5.27256 2.11574 61 77 138 255 
-17.3834 5.23827 1.96912 57 85 140 255 
-17.3567 5.247 1.79388 60 80 139 255 
-17.3609 5.26132 1.6222 59 81 139 255 
-17.3298 5.272 1.45105 62 74 137 255 
-17.3608 5.23473 1.30932 57 85 140 255 
-17.3729 5.25519 1.13874 63 71 136 255 
-17.331 5.26219 0.965076 66 63 133 255 
-14.0993 4.2946 0.646089 68 58 131 255 
-11.3656 3.43137 0.427039 56 88 140 255 
-11.4453 3.46651 0.317329 59 81 139 255 
-17.3091 5.25883 0.309452 69 53 129 255 
-11.1936 3.41381 0.0919142 61 78 138 255 
-11.2278 3.3919 -0.0020471 55 90 140 255 
-11.2649 3.41614 -0.113001 49 103 142 255 
-11.2872 3.43357 -0.222412 50 102 142 255 
-11.2715 3.44185 -0.33331 64 70 136 255 
-7.30663 2.21148 -0.277257 50 102 142 255 
-9.35415 2.84027 -0.445628 71 42 122 255 
-7.35708 2.23942 -0.423226 61 77 138 255 
-9.29748 2.84084 -0.626977 70 52 128 255 
-9.48547 2.87275 -0.719119 69 55 129 255 
-9.39649 2.85671 -0.803994 68 57 131 255 
-8.2957 2.52988 -0.792347 66 64 134 255 
-7.34387 2.24391 -0.774592 65 68 135 255 
-7.02524 2.13166 -0.800138 52 96 141 255 
-7.01429 2.13381 -0.869058 51 98 141 255 
-7.01568 2.14086 -0.939643 56 89 140 255 
-7.01675 2.14664 -1.01037 57 85 140 255 
-7.04266 2.14097 -1.07515 51 98 141 255 
-7.0194 2.13804 -1.1412 55 91 141 255 
-6.99526 2.13596 -1.20691 57 85 140 255 
-6.98836 2.13795 -1.27809 62 73 137 255 
-6.85314 2.08857 -1.3149 63 72 137 255 
-6.50259 1.98435 -1.31167 62 76 138 255 
-6.13843 1.87433 -1.3023 62 74 137 255 
-5.85685 1.79067 -1.30515 67 62 133 255 
-5.61903 1.71568 -1.30356 64 69 136 255 
-5.35444 1.63602 -1.2967 69 53 129 255 
-5.12823 1.56783 -1.29634 66 64 134 255 
-4.87784 1.48949 -1.28676 67 61 132 255 
-4.70213 1.4402 -1.28556 68 57 131 255 
-4.52905 1.38728 -1.28517 70 52 128 255 
-4.37833 1.3394 -1.29044 66 64 134 255 
-4.22334 1.28803 -1.29366 67 61 132 255 
-17.436 5.38102 5.48145 60 80 139 255 
-17.4551 5.3705 5.28159 58 84 140 255 
-17.4291 5.35568 5.08057 58 83 139 255 
-17.4205 5.3534 4.89346 58 83 139 255 
-17.4249 5.3676 4.73232 63 71 136 255 
-17.4421 5.36982 4.54346 60 79 138 255 
-17.4337 5.37041 4.35598 62 76 138 255 
-17.394 5.36187 4.16875 64 69 136 255 
-17.4051 5.35818 4.01731 62 76 138 255 
-17.3984 5.35969 3.82648 59 82 139 255 
-17.3928 5.36777 3.64708 58 84 140 255 
-17.3941 5.37517 3.47293 56 89 140 255 
-17.3959 5.35534 3.32091 56 89 140 255 
-17.3831 5.35831 3.13872 53 94 141 255 
-17.397 5.37573 2.9622 56 89 140 255 
-17.3577 5.38049 2.78727 58 83 139 255 
-17.3729 5.35158 2.63899 51 99 141 255 
-17.347 5.35049 2.45766 57 86 140 255 
-17.3334 5.36602 2.28259 55 90 140 255 
-17.342 5.38225 2.11701 62 73 137 255 
-17.3576 5.34688 1.96987 60 80 139 255 
-17.3594 5.36427 1.79752 56 89 140 255 
-17.3416 5.37187 1.62344 59 81 139 255 
-17.3247 5.38682 1.45337 60 80 139 255 
-17.3559 5.34968 1.31141 60 80 139 255 
-17.3489 5.36435 1.1393 62 76 138 255 
-17.3232 5.37612 0.966459 64 69 136 255 
-14.107 4.39172 0.647666 50 100 142 255 
-11.3854 3.51371 0.428585 62 74 137 255 
-17.3072 5.35808 0.480755 69 56 130 255 
-17.2966 5.37116 0.309811 67 62 133 255 
-11.2307 3.50058 0.0923933 55 90 140 255 
-11.2154 3.46339 -0.00204867 54 92 141 255 
-11.2838 3.49763 -0.113405 48 106 142 255 
-11.2898 3.51018 -0.222883 53 95 141 255 
-11.2941 3.52465 -0.33461 63 72 137 255 
-7.3101 2.26159 -0.27791 72 38 119 255 
-9.05891 2.81145 -0.432377 69 56 130 255 
-9.01454 2.80449 -0.519554 69 53 129 255 
-9.02077 2.81693 -0.609472 68 57 131 255 
-9.11323 2.82118 -0.692198 68 57 131 255 
-9.0885 2.82411 -0.779109 67 62 133 255 
-8.27146 2.57806 -0.791528 66 64 134 255 
-7.31476 2.28419 -0.772986 66 65 134 255 
-7.00348 2.17208 -0.799163 57 86 140 255 
-6.99727 2.17563 -0.868587 55 91 141 255 
-6.99768 2.18239 -0.939007 56 88 140 255 
-7.00344 2.18965 -1.01037 59 81 139 255 
-7.0171 2.18032 -1.07327 54 92 141 255 
-7.00143 2.1796 -1.14043 56 89 140 255 
-6.9726 2.1759 -1.20528 58 83 139 255 
-6.96477 2.17756 -1.2762 59 82 139 255 
-6.82517 2.12591 -1.31201 63 71 136 255 
-6.47998 2.02099 -1.30959 61 78 138 255 
-6.14459 1.91751 -1.30608 61 78 138 255 
-5.84109 1.82512 -1.30411 65 68 135 255 
-5.5823 1.74198 -1.29749 67 61 132 255 
-5.34616 1.66942 -1.29715 66 64 134 255 
-5.0981 1.59289 -1.29117 68 58 131 255 
-4.87323 1.52084 -1.28798 68 57 131 255 
-4.71352 1.47538 -1.29112 67 61 132 255 
-4.52413 1.4162 -1.28622 69 56 130 255 
-4.36176 1.36366 -1.288 66 65 134 255 
-4.21353 1.31334 -1.2931 69 55 129 255 
-17.4173 5.49251 5.48605 60 79 138 255 
-17.4301 5.4801 5.28409 58 84 140 255 
-17.4198 5.47003 5.08755 57 85 140 255 
-17.4131 5.46829 4.90072 57 86 140 255 
-17.4064 5.47907 4.73634 62 73 137 255 
-17.4014 5.47441 4.54152 62 73 137 255 
-17.419 5.48312 4.36063 61 78 138 255 
-17.3692 5.47113 4.17076 65 68 135 255 
-17.3989 5.47337 4.02356 58 83 139 255 
-17.4221 5.48427 3.83903 59 82 139 255 
-17.3707 5.47793 3.64943 57 85 140 255 
-17.3702 5.48476 3.4748 60 80 139 255 
-17.3852 5.46906 3.32521 56 89 140 255 
-17.3706 5.47138 3.14246 53 94 141 255 
-17.3769 5.48654 2.96445 53 94 141 255 
-17.3573 5.49734 2.79258 54 92 141 255 
-17.335 5.45659 2.63827 53 94 141 255 
-17.3384 5.46458 2.46115 51 98 141 255 
-17.321 5.47886 2.28534 53 95 141 255 
-17.3276 5.49456 2.11933 61 78 138 255 
-17.3596 5.46433 1.97386 61 78 138 255 
-17.3394 5.47488 1.7989 58 83 139 255 
-17.3425 5.489 1.62665 60 80 139 255 
-17.3446 5.50992 1.45784 62 76 138 255 
-17.3409 5.46176 1.31278 58 83 139 255 
-17.3195 5.4719 1.13955 64 70 136 255 
-17.3128 5.48956 0.967736 66 64 134 255 
-17.3091 5.50532 0.796214 68 57 131 255 
-17.2976 5.45476 0.652385 66 65 134 255 
-17.2854 5.46779 0.481074 67 62 133 255 
-17.2967 5.48777 0.310409 65 66 135 255 
-11.2281 3.5755 0.0925504 60 80 139 255 
-11.2674 3.55531 -0.00206211 56 89 140 255 
-11.3174 3.58431 -0.113961 54 93 141 255 
-11.3205 3.59603 -0.223919 66 64 134 255 
-11.336 3.61422 -0.336505 70 51 127 255 
-9.23422 2.91907 -0.351734 69 55 129 255 
-8.78248 2.78485 -0.419991 68 59 132 255 
