ply
format ascii 1.0
comment VTK generated PLY File
obj_info vtkPolyData points and polygons: vtk4.0
element vertex 1232
property float x
property float y
property float z
property uchar red
property uchar green
property uchar blue
property uchar alpha
element face 0
property list uchar int vertex_indices
end_header
-1.49575 4.85527 -1.12724 62 74 137 255 
-1.43636 4.66569 -1.13064 59 81 139 255 
-1.38288 4.49462 -1.1368 62 76 138 255 
-1.32933 4.3154 -1.13924 62 73 137 255 
-1.28044 4.16925 -1.14014 60 79 138 255 
-1.24859 4.06583 -1.15398 59 82 139 255 
-1.19829 3.89709 -1.14911 63 71 136 255 
-1.15764 3.75341 -1.15083 68 58 131 255 
-3.34171 10.9641 3.44313 57 85 140 255 
-3.35035 10.9587 3.31409 69 55 129 255 
-3.21979 10.5182 3.06504 62 74 137 255 
-3.20754 10.4789 2.94256 68 58 131 255 
-3.22538 10.5626 2.86647 63 72 137 255 
-3.24518 10.6213 2.76492 61 78 138 255 
-3.50809 11.4886 2.86838 70 52 128 255 
-3.44633 11.2941 2.70445 68 59 132 255 
-3.48587 11.4085 2.63154 52 97 141 255 
-4.22453 13.8353 3.04054 71 45 123 255 
-4.12495 13.5341 2.83491 65 66 135 255 
-5.75927 18.9213 3.77292 70 52 128 255 
-0 0 0 68 1 84 255 
-0 0 0 68 1 84 255 
-0 0 0 68 2 86 255 
-0 0 0 68 1 84 255 
-0 0 0 68 2 86 255 
-0 0 0 68 2 86 255 
-0 0 0 68 2 86 255 
-0 0 0 68 2 86 255 
-0 0 0 68 2 86 255 
-0 0 0 69 4 87 255 
-5.51249 18.1548 1.69666 69 55 129 255 
-4.55985 15.075 1.26165 72 28 110 255 
-4.5153 14.7961 1.11703 65 66 135 255 
-4.44405 14.609 0.95803 54 93 141 255 
-4.39104 14.4888 0.806677 65 66 135 255 
-4.31894 14.2965 0.654673 66 64 134 255 
-3.73783 12.2637 0.461152 72 37 118 255 
-3.72979 12.2764 0.34046 69 56 130 255 
-3.72053 12.2841 0.219556 66 64 134 255 
-3.70533 12.2808 0.10075 70 52 128 255 
-3.59446 11.8007 -0.00215304 71 42 122 255 
-3.34455 11.0222 -0.110573 66 65 134 255 
-3.33719 11.0323 -0.217285 67 61 132 255 
-3.31408 10.9979 -0.324857 68 58 131 255 
-3.3371 10.9764 -0.416665 65 68 135 255 
-3.10821 10.2562 -0.488525 69 56 130 255 
-2.96272 9.80048 -0.563459 69 53 129 255 
-2.95095 9.79905 -0.659993 67 62 133 255 
-2.96242 9.7501 -0.739382 60 79 138 255 
-2.96035 9.78062 -0.836549 61 78 138 255 
-2.94892 9.77328 -0.932638 60 80 139 255 
-2.93326 9.74029 -1.0261 57 86 140 255 
-2.75695 9.0909 -1.03536 46 111 142 255 
-2.57528 8.51376 -1.05433 50 102 142 255 
-2.3433 7.77106 -1.03977 52 96 141 255 
-2.26665 7.53626 -1.08362 56 88 140 255 
-2.14745 7.09446 -1.08267 52 97 141 255 
-2.04232 6.76034 -1.09832 51 99 141 255 
-1.92476 6.38708 -1.10075 51 99 141 255 
-1.82457 6.06641 -1.10789 50 100 142 255 
-1.75155 5.80113 -1.11218 50 101 142 255 
-1.67132 5.54274 -1.11693 59 82 139 255 
-1.59653 5.29791 -1.12273 60 80 139 255 
-1.51894 5.04704 -1.1232 63 71 136 255 
-1.4696 4.87651 -1.13005 57 85 140 255 
-1.4063 4.66975 -1.12951 60 79 138 255 
-1.3564 4.50674 -1.13774 62 74 137 255 
-1.30282 4.32347 -1.13924 62 74 137 255 
-1.25511 4.17795 -1.14039 56 88 140 255 
-1.21917 4.05863 -1.14979 60 79 138 255 
-1.17935 3.92096 -1.15399 61 77 138 255 
-1.14485 3.79444 -1.16123 65 68 135 255 
-3.1031 10.4098 3.26303 61 77 138 255 
-3.24617 10.8557 3.27686 62 74 137 255 
-3.09772 10.3458 3.00921 70 52 128 255 
-3.1321 10.4614 2.93219 66 65 134 255 
-3.3569 11.2397 3.04459 68 57 131 255 
-3.29108 11.0129 2.86155 64 70 136 255 
-3.22293 10.7914 2.68931 54 93 141 255 
-3.26908 10.9536 2.61805 67 61 132 255 
-3.38169 11.3155 2.60525 58 84 140 255 
-3.58704 12.0109 2.63471 67 61 132 255 
-3.57883 12.0059 2.51016 68 57 131 255 
-5.84149 19.6228 3.90559 72 36 117 255 
-0 0 0 68 1 84 255 
-0 0 0 68 2 86 255 
-0 0 0 68 2 86 255 
-0 0 0 68 2 86 255 
-0 0 0 68 2 86 255 
-0 0 0 68 1 84 255 
-0 0 0 68 2 86 255 
-0 0 0 68 2 86 255 
-0 0 0 69 4 87 255 
-0 0 0 68 2 86 255 
-5.39248 18.1597 1.69399 66 63 133 255 
-5.32001 17.9856 1.50248 67 62 133 255 
-4.44639 14.8971 1.12257 65 68 135 255 
-4.34807 14.6149 0.956652 59 81 139 255 
-4.27624 14.4283 0.801836 64 69 136 255 
-4.23171 14.3247 0.65476 66 63 133 255 
-3.7159 12.4655 0.467874 72 35 116 255 
-3.67148 12.3565 0.342051 66 63 133 255 
-3.65957 12.3555 0.220429 66 65 134 255 
-3.63924 12.335 0.101009 68 59 132 255 
-3.4606 11.6165 -0.00211551 71 42 122 255 
-3.29563 11.1058 -0.111206 64 69 136 255 
-3.2822 11.0957 -0.218133 67 62 133 255 
-3.26942 11.0957 -0.327147 69 56 130 255 
-3.29361 11.0771 -0.419714 65 66 135 255 
-3.03188 10.2301 -0.486384 68 59 132 255 
-2.91244 9.85198 -0.565382 70 52 128 255 
-2.90374 9.861 -0.662953 68 59 132 255 
-2.91845 9.82163 -0.743435 53 95 141 255 
-2.91669 9.85403 -0.841281 54 92 141 255 
-2.90101 9.83226 -0.93655 65 68 135 255 
-2.86416 9.72661 -1.02279 61 78 138 255 
-2.69489 9.08668 -1.03297 58 83 139 255 
-2.52468 8.53512 -1.05504 53 94 141 255 
-2.31493 7.85093 -1.04854 50 101 142 255 
-2.21841 7.54337 -1.08266 53 95 141 255 
-2.1064 7.11604 -1.08397 53 95 141 255 
-1.99996 6.7699 -1.09786 52 96 141 255 
-1.88776 6.40634 -1.10206 55 91 141 255 
-1.78287 6.06237 -1.10513 50 100 142 255 
-1.71369 5.80422 -1.11073 55 91 141 255 
-1.62617 5.51522 -1.10935 62 76 138 255 
-1.55818 5.28787 -1.11856 60 80 139 255 
-1.49457 5.07878 -1.1282 62 76 138 255 
-1.43303 4.86296 -1.12486 58 83 139 255 
-1.37955 4.68483 -1.13109 59 81 139 255 
-1.3246 4.50099 -1.13421 62 76 138 255 
-1.27764 4.33604 -1.14047 64 70 136 255 
-1.22427 4.16794 -1.13558 62 74 137 255 
-1.18772 4.04381 -1.14351 60 79 138 255 
-1.15092 3.91335 -1.14965 62 73 137 255 
-1.12372 3.80876 -1.16348 66 65 134 255 
-3.01077 10.3312 3.23254 56 89 140 255 
-2.96547 10.1433 3.05627 49 104 142 255 
-3.18114 10.8666 3.15496 68 59 132 255 
-3.07328 10.4989 2.93737 63 71 136 255 
-3.16687 10.8457 2.93255 72 38 119 255 
-3.23596 11.0757 2.87267 66 63 133 255 
-3.13675 10.7428 2.67235 69 55 129 255 
-3.21273 11.0109 2.62698 65 68 135 255 
-3.37628 11.5554 2.65566 72 41 121 255 
-3.49956 11.9857 2.62442 58 84 140 255 
-3.48369 11.9543 2.49484 60 79 138 255 
-3.49989 12.0262 2.3893 71 16 99 255 
-5.56712 19.0537 3.62173 70 11 94 255 
-0 0 0 68 2 86 255 
-0 0 0 68 2 86 255 
-0 0 0 68 2 86 255 
-0 0 0 68 2 86 255 
-0 0 0 68 1 84 255 
-0 0 0 68 2 86 255 
-0 0 0 68 2 86 255 
-0 0 0 69 4 87 255 
-0 0 0 68 2 86 255 
-5.31233 18.3005 1.70405 66 64 134 255 
-5.1827 17.925 1.49473 69 55 129 255 
-4.35714 14.9318 1.12315 65 66 135 255 
-4.28088 14.719 0.961724 62 76 138 255 
-4.20041 14.4984 0.804283 62 76 138 255 
-4.13459 14.3187 0.653315 65 66 135 255 
-3.62564 12.4411 0.466112 71 44 122 255 
-3.6179 12.4556 0.344173 66 63 133 255 
-3.60677 12.4575 0.221848 68 58 131 255 
-3.58842 12.4435 0.101716 68 57 131 255 
-3.37192 11.578 -0.00210469 71 42 122 255 
-3.23968 11.1681 -0.111629 68 59 132 255 
-3.23572 11.1905 -0.219603 68 58 131 255 
-3.22756 11.2068 -0.329833 70 51 127 255 
-3.2518 11.1873 -0.423126 68 59 132 255 
-2.97072 10.2543 -0.486658 69 55 129 255 
-2.87577 9.95216 -0.570108 70 51 127 255 
-2.85311 9.91316 -0.66527 69 53 129 255 
-2.87149 9.88533 -0.746909 57 85 140 255 
-2.86614 9.90621 -0.844218 61 78 138 255 
-2.85718 9.90729 -0.942009 65 68 135 255 
-2.83167 9.83866 -1.03272 64 69 136 255 
-2.63632 9.09349 -1.03189 53 94 141 255 
-2.47006 8.54282 -1.0541 62 76 138 255 
-2.25271 7.81638 -1.04206 48 105 142 255 
-2.16634 7.53685 -1.0798 53 94 141 255 
-2.06078 7.12218 -1.08296 53 95 141 255 
-1.94331 6.72983 -1.08941 52 96 141 255 
-1.84951 6.42159 -1.10271 51 98 141 255 
-1.73176 6.02491 -1.09635 52 97 141 255 
-1.67696 5.81084 -1.11001 53 95 141 255 
-1.59311 5.52793 -1.10992 58 83 139 255 
-1.52842 5.30675 -1.12055 56 89 140 255 
-1.4604 5.07752 -1.12591 62 74 137 255 
-1.40532 4.87917 -1.12659 60 80 139 255 
-1.35105 4.69414 -1.13131 57 86 140 255 
-1.30207 4.52678 -1.13868 56 88 140 255 
-1.25369 4.35311 -1.14291 62 76 138 255 
-1.19974 4.17909 -1.13659 60 79 138 255 
-1.16502 4.05844 -1.1456 59 82 139 255 
-1.12609 3.91756 -1.14884 63 71 136 255 
-1.10006 3.81466 -1.1632 65 66 135 255 
-2.93499 10.3062 3.21902 67 61 132 255 
-2.90475 10.1669 3.05794 51 99 141 255 
-2.91912 10.2034 2.95713 58 83 139 255 
-3.27948 11.4638 3.20162 72 31 112 255 
-3.09867 10.8594 2.93104 65 68 135 255 
-3.32833 11.6571 3.0181 69 55 129 255 
-3.5533 12.4529 3.09227 68 59 132 255 
-3.36348 11.7962 2.80938 72 35 116 255 
-3.44259 12.0567 2.76596 57 85 140 255 
-3.43374 12.0343 2.63039 50 101 142 255 
-3.40759 11.966 2.49288 63 71 136 255 
-3.39137 11.9256 2.36513 70 8 92 255 
-0 0 0 68 1 84 255 
-0 0 0 68 2 86 255 
-0 0 0 68 2 86 255 
-0 0 0 68 2 86 255 
-0 0 0 68 2 86 255 
-4.44337 15.5934 2.19511 59 81 139 255 
-4.42152 15.578 2.03709 56 89 140 255 
-4.41688 15.6041 1.89073 57 85 140 255 
-4.41543 15.474 1.74527 72 32 113 255 
-4.42071 15.5447 1.59885 72 40 120 255 
-4.4218 15.5894 1.44905 70 50 126 255 
-4.39975 15.5746 1.29646 68 59 132 255 
-4.26762 14.9659 1.12372 66 64 134 255 
-4.19404 14.7574 0.962538 58 84 140 255 
-4.10484 14.5008 0.803006 67 61 132 255 
-4.04556 14.34 0.65314 61 77 138 255 
-3.57223 12.5438 0.469132 72 37 118 255 
-3.5586 12.5382 0.345845 66 64 134 255 
-3.55503 12.5669 0.223405 68 58 131 255 
-3.54156 12.5702 0.102572 69 55 129 255 
-3.26605 11.4763 -0.00208253 70 48 126 255 
-3.20354 11.3022 -0.112771 66 65 134 255 
-3.18765 11.2833 -0.221036 65 68 135 255 
-3.18039 11.3034 -0.332094 69 56 130 255 
-3.19511 11.2493 -0.424723 64 69 136 255 
-2.90421 10.2598 -0.486066 67 62 133 255 
-2.83066 10.0263 -0.57335 69 55 129 255 
-2.81411 10.0083 -0.670483 71 46 124 255 
-2.83774 9.99775 -0.754073 63 72 137 255 
-2.80259 9.91402 -0.843402 62 73 137 255 
-2.79958 9.93614 -0.943101 66 64 134 255 
-2.71065 9.64034 -1.01014 61 77 138 255 
-2.5821 9.11524 -1.03254 54 92 141 255 
-2.41247 8.53965 -1.05186 58 83 139 255 
-2.21357 7.86157 -1.04625 46 110 142 255 
-2.11443 7.52997 -1.07693 48 106 142 255 
-2.01704 7.13469 -1.08296 51 99 141 255 
-1.87542 6.64748 -1.07419 54 92 141 255 
-1.80553 6.41668 -1.09994 52 97 141 255 
-1.69076 6.0212 -1.09376 50 101 142 255 
-1.64394 5.83049 -1.11182 51 98 141 255 
-1.55863 5.53571 -1.10954 59 81 139 255 
-1.49238 5.30376 -1.11796 57 86 140 255 
-1.42578 5.07414 -1.1232 60 79 138 255 
-1.37774 4.89616 -1.12854 59 81 139 255 
-1.32064 4.69672 -1.12996 58 83 139 255 
-1.26874 4.51504 -1.13374 57 85 140 255 
-1.22302 4.34672 -1.13924 61 77 138 255 
-1.17773 4.19942 -1.14014 61 78 138 255 
-1.13957 4.06366 -1.14508 61 78 138 255 
-1.09839 3.91143 -1.14504 64 70 136 255 
-1.07455 3.81395 -1.16095 66 65 134 255 
-2.8237 10.1515 3.16522 57 86 140 255 
-2.83664 10.1642 3.05183 52 97 141 255 
-2.83935 10.1598 2.93942 55 90 140 255 
-2.86415 10.2494 2.8575 71 47 125 255 
-3.47507 12.4679 3.35938 70 51 127 255 
-3.5109 12.5887 3.25364 70 52 128 255 
-3.47552 12.4698 3.09111 69 55 129 255 
-3.38806 12.165 2.89221 70 51 127 255 
-3.36907 12.0795 2.76639 61 78 138 255 
-3.36824 12.0853 2.63697 62 73 137 255 
-3.33069 11.9744 2.49032 56 88 140 255 
-5.23246 18.8383 3.72964 70 8 92 255 
-0 0 0 68 1 84 255 
-0 0 0 68 2 86 255 
-0 0 0 68 2 86 255 
-0 0 0 68 2 86 255 
-0 0 0 68 2 86 255 
-4.35717 15.6547 2.19994 68 58 131 255 
-4.33778 15.6479 2.0427 71 46 124 255 
-4.33084 15.6663 1.89502 72 35 116 255 
-4.35857 15.6377 1.76069 52 96 141 255 
-4.36041 15.6981 1.61185 59 81 139 255 
-4.35611 15.7247 1.45911 64 70 136 255 
-4.28581 15.535 1.29095 68 59 132 255 
-4.2097 15.1138 1.13287 65 68 135 255 
-4.10501 14.7887 0.962914 65 68 135 255 
-4.02457 14.5575 0.804762 62 73 137 255 
-3.95962 14.3722 0.65349 66 65 134 255 
-3.51796 12.6474 0.472187 71 42 122 255 
-3.51124 12.6667 0.348789 69 55 129 255 
-3.4909 12.6357 0.224243 69 55 129 255 
-3.49195 12.692 0.103389 69 55 129 255 
-3.19504 11.4942 -0.00208218 70 48 126 255 
-3.15761 11.4065 -0.113616 65 68 135 255 
-3.13804 11.374 -0.22243 67 61 132 255 
-3.13004 11.3921 -0.33413 69 55 129 255 
-3.14766 11.3467 -0.427663 66 65 134 255 
-2.83721 10.263 -0.485383 67 62 133 255 
-2.77864 10.0781 -0.575328 70 51 127 255 
-2.77326 10.1004 -0.675503 69 55 129 255 
-2.79686 10.089 -0.759645 69 56 130 255 
-2.79263 10.1155 -0.859068 63 72 137 255 
-2.73592 9.94353 -0.942191 69 55 129 255 
-2.71125 9.87459 -1.03292 66 63 133 255 
-2.52692 9.13378 -1.03287 53 95 141 255 
-2.35685 8.54281 -1.05045 58 83 139 255 
-2.17161 7.89795 -1.0493 50 100 142 255 
-2.06661 7.53707 -1.07612 51 99 141 255 
-1.97269 7.14503 -1.08267 52 97 141 255 
-1.85061 6.71697 -1.08357 57 86 140 255 
-1.7656 6.42573 -1.09961 51 99 141 255 
-1.6629 6.06471 -1.09979 53 95 141 255 
-1.60709 5.83667 -1.1111 48 105 142 255 
-1.5262 5.55085 -1.11068 61 77 138 255 
-1.4611 5.31754 -1.11896 55 91 141 255 
-1.39255 5.07525 -1.12153 60 79 138 255 
-1.35026 4.91393 -1.1307 59 82 139 255 
-1.29308 4.70943 -1.13109 59 82 139 255 
-1.24385 4.53305 -1.13633 57 86 140 255 
-1.1917 4.33732 -1.13484 62 76 138 255 
-1.15578 4.22056 -1.14393 59 82 139 255 
-1.11563 4.0743 -1.14613 62 76 138 255 
-1.07284 3.91252 -1.14341 62 73 137 255 
-1.04935 3.81399 -1.15898 63 71 136 255 
-2.73777 10.0817 3.13818 59 81 139 255 
-2.91236 10.6884 3.20379 69 55 129 255 
-2.7729 10.1622 2.93512 50 100 142 255 
-2.81011 10.2994 2.86658 64 69 136 255 
-2.76185 10.1494 2.73006 71 44 122 255 
-2.81179 10.3264 2.66442 72 38 119 255 
-3.52689 12.9611 3.20747 72 35 116 255 
-3.30875 12.1687 2.88819 71 47 125 255 
-3.45935 12.7039 2.90447 57 85 140 255 
-3.29967 12.1265 2.64149 71 42 122 255 
-3.28465 12.0958 2.51134 52 96 141 255 
-5.13759 18.9468 3.74482 71 16 99 255 
-5.1524 18.9213 3.57793 67 62 133 255 
-0 0 0 68 1 84 255 
-0 0 0 68 2 86 255 
-0 0 0 68 2 86 255 
-0 0 0 68 2 86 255 
-4.37771 16.1105 2.26018 70 8 92 255 
-0 0 0 68 2 86 255 
-0 0 0 69 4 87 255 
-4.26253 15.6642 1.76069 65 68 135 255 
-0 0 0 69 4 87 255 
-5.21223 19.274 1.78546 68 58 131 255 
-4.17978 15.5216 1.28768 68 59 132 255 
-4.10302 15.0884 1.12905 63 72 137 255 
-4.00688 14.7866 0.961161 64 69 136 255 
-3.94896 14.633 0.807582 66 65 134 255 
-3.87577 14.4126 0.654235 68 59 132 255 
-3.4581 12.7343 0.474631 72 41 121 255 
-3.44312 12.7237 0.34977 66 63 133 255 
-3.43934 12.7534 0.225953 68 57 131 255 
-3.43268 12.7827 0.103954 67 61 132 255 
-3.13257 11.5435 -0.00208759 70 50 126 255 
-3.09226 11.443 -0.113788 65 68 135 255 
-3.08535 11.4567 -0.223674 66 64 134 255 
-3.0764 11.4719 -0.335911 69 55 129 255 
-3.09888 11.443 -0.430566 66 64 134 255 
-2.77575 10.286 -0.485656 67 62 133 255 
-2.75126 10.2232 -0.582637 66 65 134 255 
-2.73913 10.2214 -0.682454 66 64 134 255 
-2.74871 10.157 -0.763481 64 69 136 255 
-2.737 10.1565 -0.861107 66 65 134 255 
-2.74408 10.2179 -0.966574 64 70 136 255 
-2.65241 9.89776 -1.03363 64 69 136 255 
-2.46616 9.13184 -1.03092 53 94 141 255 
-2.30542 8.56094 -1.05092 57 86 140 255 
-2.13647 7.96094 -1.05591 49 103 142 255 
-2.02289 7.55918 -1.07748 48 106 142 255 
-1.92933 7.15891 -1.08296 51 99 141 255 
-1.82167 6.77401 -1.09094 53 95 141 255 
-1.7241 6.42882 -1.09831 50 100 142 255 
-1.62719 6.08051 -1.10082 51 99 141 255 
-1.56946 5.83978 -1.10983 53 95 141 255 
-1.49135 5.55726 -1.11011 58 84 140 255 
-1.42642 5.31883 -1.11737 54 92 141 255 
-1.36366 5.0922 -1.1234 57 85 140 255 
-1.31477 4.90232 -1.12616 59 81 139 255 
-1.26315 4.71351 -1.13019 56 88 140 255 
-1.21777 4.54717 -1.13797 55 90 140 255 
-1.16632 4.34923 -1.13606 62 76 138 255 
-1.12811 4.22103 -1.14216 61 78 138 255 
-1.09086 4.082 -1.14639 62 73 137 255 
-1.04882 3.91903 -1.14341 65 68 135 255 
-1.0202 3.79904 -1.15251 63 71 136 255 
-2.67831 10.1076 3.14105 58 83 139 255 
-2.97114 11.1739 3.34381 71 46 124 255 
-2.80493 10.5337 3.03739 59 81 139 255 
-2.78488 10.4592 2.90625 64 69 136 255 
-2.69431 10.1465 2.72478 62 76 138 255 
-2.71024 10.1999 2.62746 65 66 135 255 
-3.45853 13.0248 3.21792 71 47 125 255 
-5.30687 20.0011 4.73938 72 27 109 255 
-3.23688 12.1812 2.78039 72 32 113 255 
-3.23852 12.1966 2.6524 64 69 136 255 
-0 0 0 68 1 84 255 
-5.01295 18.9466 3.73863 70 8 92 255 
-5.02281 18.9022 3.56842 69 53 129 255 
-0 0 0 68 2 86 255 
-0 0 0 68 1 84 255 
-0 0 0 68 2 86 255 
-4.11555 15.4988 2.32795 71 13 96 255 
-4.32627 16.3162 2.28527 70 50 126 255 
-0 0 0 68 2 86 255 
-0 0 0 69 4 87 255 
-4.17578 15.7256 1.76468 72 27 109 255 
-0 0 0 68 2 86 255 
-5.10962 19.3653 1.79098 64 69 136 255 
-4.07611 15.5151 1.28504 67 62 133 255 
-4.01778 15.1412 1.13114 68 59 132 255 
-3.94235 14.9103 0.96761 65 68 135 255 
-3.853 14.6338 0.806305 64 70 136 255 
-3.80146 14.4903 0.656687 63 72 137 255 
-3.4078 12.8606 0.47855 71 42 122 255 
-3.39152 12.8451 0.352529 70 51 127 255 
-3.38748 12.8749 0.227732 69 53 129 255 
-3.3704 12.8654 0.104457 70 52 128 255 
-3.06552 11.577 -0.00209021 71 44 122 255 
-3.05717 11.5952 -0.115113 63 71 136 255 
-3.03151 11.5383 -0.2249 68 58 131 255 
-3.02897 11.5786 -0.338483 69 56 130 255 
-3.03958 11.5033 -0.432127 66 64 134 255 
-2.71487 10.3115 -0.486066 67 61 132 255 
-2.70318 10.2959 -0.585824 68 58 131 255 
-2.69176 10.2969 -0.68638 63 72 137 255 
-2.70951 10.2614 -0.770066 65 66 135 255 
-2.70276 10.2801 -0.870164 66 64 134 255 
-2.69774 10.2971 -0.972487 64 69 136 255 
-2.59238 9.91674 -1.03393 62 74 137 255 
-2.404 9.12373 -1.02832 55 91 141 255 
-2.25714 8.59126 -1.05292 56 88 140 255 
-2.09663 8.00845 -1.06048 49 103 142 255 
-1.96996 7.54653 -1.07393 50 102 142 255 
-1.88461 7.16774 -1.08252 51 99 141 255 
-1.78007 6.78506 -1.09094 53 95 141 255 
-1.68287 6.4326 -1.09717 49 103 142 255 
-1.59258 6.10086 -1.10272 57 85 140 255 
-1.52911 5.83217 -1.10658 51 98 141 255 
-1.45448 5.55586 -1.10802 57 86 140 255 
-1.39375 5.32749 -1.11737 54 93 141 255 
-1.33486 5.10993 -1.12549 57 86 140 255 
-1.28392 4.90746 -1.12551 59 82 139 255 
-1.23027 4.70609 -1.12658 58 83 139 255 
-1.18567 4.53856 -1.13398 57 85 140 255 
-1.14207 4.36568 -1.13851 61 77 138 255 
-1.10414 4.23536 -1.14418 58 83 139 255 
-1.07115 4.10916 -1.15215 58 83 139 255 
-1.03034 3.94681 -1.14965 61 78 138 255 
-0.986898 3.76717 -1.14098 63 71 136 255 
-2.61121 10.1044 3.13501 63 72 137 255 
-2.69706 10.3997 3.10711 65 68 135 255 
-2.65355 10.2169 2.9413 59 81 139 255 
-2.67598 10.3041 2.85854 59 82 139 255 
-2.65869 10.2659 2.75242 69 55 129 255 
-2.65637 10.2502 2.63616 65 66 135 255 
-2.65894 10.2671 2.53253 54 93 141 255 
-5.23118 20.2155 4.78246 72 27 109 255 
-3.25174 12.5469 2.85923 72 24 106 255 
-3.27132 12.6322 2.74269 71 47 125 255 
-0 0 0 68 2 86 255 
-0 0 0 68 1 84 255 
-4.90057 18.9088 3.56393 72 29 111 255 
-0 0 0 68 1 84 255 
-0 0 0 68 1 84 255 
-8.2771 32.1943 5.09851 69 4 87 255 
-4.01616 15.5075 2.32551 71 46 124 255 
-4.29455 16.6072 2.32229 72 38 119 255 
-0 0 0 68 1 84 255 
-0 0 0 68 2 86 255 
-4.04108 15.6037 1.74818 70 11 94 255 
-0 0 0 69 4 87 255 
-4.99443 19.4108 1.79232 66 65 134 255 
-3.97539 15.5186 1.28329 67 62 133 255 
-3.98902 15.4137 1.14965 65 66 135 255 
-3.87172 15.0154 0.97287 65 66 135 255 
-3.77828 14.7162 0.809551 63 71 136 255 
-3.73625 14.6062 0.660892 65 68 135 255 
-3.35033 12.9644 0.481641 71 45 123 255 
-3.3428 12.9828 0.355739 68 58 131 255 
-3.33848 13.0126 0.229801 68 59 132 255 
-3.31243 12.9682 0.105124 70 52 128 255 
-3.01718 11.6837 -0.00210609 71 44 122 255 
-2.99568 11.6515 -0.115488 64 69 136 255 
-2.9939 11.6865 -0.227425 67 61 132 255 
-2.97417 11.6609 -0.340349 70 50 126 255 
-2.99388 11.6186 -0.435756 68 59 132 255 
-2.66571 10.3831 -0.488661 68 59 132 255 
-2.64516 10.3327 -0.586978 69 56 130 255 
-2.64257 10.3683 -0.690048 67 61 132 255 
-2.65768 10.3213 -0.773323 68 57 131 255 
-2.65522 10.3573 -0.875304 66 63 133 255 
-2.65151 10.3801 -0.978765 57 85 140 255 
-2.52755 9.91704 -1.03232 63 72 137 255 
-2.34872 9.1412 -1.02864 56 88 140 255 
-2.20069 8.59052 -1.05116 52 96 141 255 
-2.04794 8.02308 -1.06074 52 96 141 255 
-1.92607 7.56807 -1.0753 56 89 140 255 
-1.8406 7.17917 -1.08252 53 95 141 255 
-1.73547 6.78436 -1.0891 55 91 141 255 
-1.64264 6.43993 -1.09668 49 103 142 255 
-1.5539 6.10574 -1.10186 59 82 139 255 
-1.4894 5.8262 -1.10369 51 98 141 255 
-1.42085 5.56658 -1.1084 57 86 140 255 
-1.36104 5.33594 -1.11737 52 96 141 255 
-1.29648 5.09054 -1.11944 59 81 139 255 
-1.25499 4.91998 -1.12659 61 78 138 255 
-1.2057 4.73055 -1.13064 55 90 140 255 
-1.15372 4.52974 -1.12998 60 80 139 255 
-1.11526 4.37261 -1.13851 59 82 139 255 
-1.07718 4.23831 -1.14317 59 81 139 255 
-1.04806 4.12407 -1.15451 59 82 139 255 
-0.99922 3.92601 -1.14179 60 79 138 255 
-0.966377 3.78338 -1.14408 64 69 136 255 
-2.56624 10.188 3.15601 56 88 140 255 
-2.65603 10.5064 3.13406 68 57 131 255 
-2.59129 10.2349 2.94183 58 84 140 255 
-2.84973 11.2566 3.11786 68 58 131 255 
-2.88706 11.4364 3.06143 58 84 140 255 
-2.57204 10.1816 2.61441 70 52 128 255 
-2.59637 10.2851 2.533 69 56 130 255 
-0 0 0 68 2 86 255 
-3.19551 12.6489 2.87797 70 51 127 255 
-3.22968 12.7943 2.77355 60 80 139 255 
-0 0 0 68 2 86 255 
-0 0 0 68 2 86 255 
-0 0 0 68 1 84 255 
-0 0 0 68 2 86 255 
-8.01723 31.8761 5.34715 71 16 99 255 
-8.00733 31.9568 5.05302 70 7 90 255 
-3.92287 15.5395 2.32666 62 76 138 255 
-0 0 0 69 4 87 255 
-4.2739 17.0305 2.20883 71 45 123 255 
-4.26691 17.0542 2.04961 69 53 129 255 
-4.2998 17.0326 1.90528 70 7 90 255 
-4.27773 17.0087 1.73511 71 16 99 255 
-4.80328 19.1541 1.76586 71 46 124 255 
-3.87358 15.5166 1.28113 66 64 134 255 
-3.88436 15.3983 1.1467 64 70 136 255 
-3.76298 14.973 0.968612 62 74 137 255 
-3.6964 14.773 0.811413 64 69 136 255 
-3.67918 14.7597 0.666804 66 65 134 255 
-3.29146 13.0671 0.484696 72 41 121 255 
-3.28497 13.0904 0.358126 70 48 126 255 
-3.2758 13.1017 0.231016 68 58 131 255 
-3.25019 13.0582 0.10569 69 56 130 255 
-2.96057 11.7621 -0.00211691 70 48 126 255 
-2.94236 11.7424 -0.116207 67 62 133 255 
-2.93231 11.7453 -0.228217 68 58 131 255 
-2.91655 11.7352 -0.341989 70 48 126 255 
-2.93032 11.6677 -0.436918 68 58 131 255 
-2.61941 10.4691 -0.49194 66 65 134 255 
-2.60733 10.4514 -0.592803 67 61 132 255 
-2.59454 10.4473 -0.694231 68 58 131 255 
-2.61761 10.4303 -0.78027 65 66 135 255 
-2.59669 10.3937 -0.877017 67 62 133 255 
-2.60172 10.4522 -0.984042 64 70 136 255 
-2.4621 9.91401 -1.03041 65 68 135 255 
-2.29331 9.15833 -1.02897 57 85 140 255 
-2.14072 8.57495 -1.04763 59 82 139 255 
-2.0037 8.05571 -1.0634 55 91 141 255 
-1.87864 7.5759 -1.07475 54 92 141 255 
-1.79267 7.17497 -1.08021 55 91 141 255 
-1.69094 6.78338 -1.08726 54 92 141 255 
-1.59928 6.43457 -1.09408 51 99 141 255 
-1.51499 6.10943 -1.10082 56 88 140 255 
-1.45005 5.82091 -1.10099 51 99 141 255 
-1.38596 5.57234 -1.10783 61 78 138 255 
-1.32898 5.34704 -1.11796 56 89 140 255 
-1.27252 5.12783 -1.12591 59 81 139 255 
-1.22219 4.91717 -1.12421 61 78 138 255 
-1.17806 4.74353 -1.13199 60 79 138 255 
-1.12848 4.54711 -1.13257 55 90 140 255 
-1.08724 4.37466 -1.13729 57 86 140 255 
-1.05022 4.24108 -1.14216 56 89 140 255 
-1.02343 4.13324 -1.15529 59 81 139 255 
-0.979977 3.95169 -1.14748 63 72 137 255 
-0.942913 3.78831 -1.1438 63 72 137 255 
-2.61049 10.6388 3.29065 66 65 134 255 
-2.43439 9.88447 2.94403 58 83 139 255 
-2.51806 10.2085 2.92975 68 58 131 255 
-2.48041 10.0567 2.78126 64 69 136 255 
-2.7602 11.2236 2.99988 64 69 136 255 
-2.51021 10.2 2.61514 67 62 133 255 
-2.53786 10.3197 2.53764 64 69 136 255 
-2.52089 10.2593 2.41958 71 45 123 255 
-3.1225 12.6873 2.88228 72 27 109 255 
-0 0 0 68 2 86 255 
-0 0 0 68 2 86 255 
-0 0 0 68 1 84 255 
-0 0 0 68 1 84 255 
-0 0 0 68 2 86 255 
-7.82196 31.9267 5.34747 71 19 101 255 
-7.67212 31.4359 4.96312 71 16 99 255 
-3.82437 15.5508 2.32479 49 103 142 255 
-0 0 0 68 2 86 255 
-4.16367 17.0333 2.20583 70 7 90 255 
-0 0 0 68 2 86 255 
-4.19402 17.0539 1.90474 71 42 122 255 
-4.18134 17.0675 1.73845 72 33 115 255 
-4.71875 19.3187 1.77833 70 52 128 255 
-3.77523 15.5275 1.28009 69 56 130 255 
-3.73435 15.1961 1.12992 65 66 135 255 
-3.66581 14.9745 0.967234 65 66 135 255 
-3.61065 14.8158 0.81253 67 62 133 255 
-3.58666 14.7743 0.666453 62 73 137 255 
-3.23027 13.1647 0.487572 72 41 121 255 
-3.2148 13.152 0.359267 70 48 126 255 
-3.20764 13.1721 0.231905 70 50 126 255 
-3.1978 13.1925 0.106617 70 48 126 255 
-2.90287 11.8393 -0.00212756 70 48 126 255 
-2.89017 11.8418 -0.117014 69 53 129 255 
-2.89113 11.8904 -0.230686 68 57 131 255 
-2.87576 11.8821 -0.345749 70 51 127 255 
-2.88788 11.8049 -0.441382 65 68 135 255 
-2.56576 10.5286 -0.493989 65 68 135 255 
-2.56932 10.5749 -0.598902 67 61 132 255 
-2.55291 10.5561 -0.70041 66 63 133 255 
-2.57203 10.5217 -0.785915 67 62 133 255 
-2.56821 10.5547 -0.889256 67 62 133 255 
-2.53941 10.4757 -0.98477 72 33 115 255 
-2.33761 9.66589 -1.00312 60 80 139 255 
-2.23401 9.15967 -1.02756 59 82 139 255 
-2.09018 8.59661 -1.04868 54 93 141 255 
-1.95283 8.06207 -1.06264 51 98 141 255 
-1.8291 7.57477 -1.07298 55 91 141 255 
-1.74417 7.16756 -1.07746 56 89 140 255 
-1.64719 6.78498 -1.08587 53 95 141 255 
-1.55977 6.44426 -1.09408 52 97 141 255 
-1.47794 6.12052 -1.10117 55 90 140 255 
-1.41477 5.83161 -1.10135 51 99 141 255 
-1.34804 5.56547 -1.1048 59 81 139 255 
-1.28992 5.32938 -1.11259 53 94 141 255 
-1.24012 5.13174 -1.12507 55 90 140 255 
-1.18855 4.91034 -1.12096 59 81 139 255 
-1.14893 4.75067 -1.13199 60 79 138 255 
-1.1001 4.55206 -1.1321 61 77 138 255 
-1.06106 4.38408 -1.13802 57 86 140 255 
-1.02146 4.23616 -1.13912 56 89 140 255 
-0.995335 4.12818 -1.15215 59 82 139 255 
-0.961811 3.98289 -1.15481 59 82 139 255 
-0.920555 3.79775 -1.14492 63 72 137 255 
-2.47596 10.365 3.20118 65 68 135 255 
-2.39766 9.99918 2.97376 53 95 141 255 
-2.41758 10.0664 2.88466 62 73 137 255 
-2.42295 10.0896 2.78619 61 77 138 255 
-2.63764 11.0163 2.94008 58 84 140 255 
-3.13019 13.0642 3.34448 69 55 129 255 
-2.46498 10.2954 2.52789 72 33 115 255 
-2.45019 10.2423 2.41199 72 28 110 255 
-0 0 0 68 1 84 255 
-0 0 0 68 1 84 255 
-7.54089 31.5687 6.5032 72 26 108 255 
-0 0 0 68 2 86 255 
-0 0 0 68 1 84 255 
-7.52996 31.4756 5.58437 72 23 105 255 
-7.60073 31.8684 5.32981 71 17 100 255 
-7.47224 31.4536 4.95857 71 14 97 255 
-3.72312 15.5499 2.3212 45 112 142 255 
-0 0 0 68 2 86 255 
-0 0 0 68 2 86 255 
-0 0 0 68 2 86 255 
-0 0 0 68 1 84 255 
-0 0 0 68 2 86 255 
-4.59298 19.3172 1.77557 70 48 126 255 
-3.66405 15.4834 1.27458 68 58 131 255 
-3.63756 15.2042 1.12884 66 63 133 255 
-3.56877 14.9754 0.965857 62 73 137 255 
-3.55148 14.9717 0.819873 66 64 134 255 
-3.47136 14.692 0.661767 68 58 131 255 
-3.17451 13.2893 0.491454 71 42 122 255 
-3.1588 13.2756 0.362105 71 47 125 255 
-3.15397 13.3063 0.233923 71 42 122 255 
-3.14159 13.317 0.107465 71 46 124 255 
-2.85826 11.9746 -0.00214867 71 42 122 255 
-2.84288 11.9664 -0.11807 66 64 134 255 
-2.837 11.9877 -0.232232 63 71 136 255 
-2.82228 11.9822 -0.348152 70 50 126 255 
-2.80776 11.7903 -0.440184 60 80 139 255 
-2.52463 10.6433 -0.498634 68 58 131 255 
-2.51334 10.6283 -0.601045 67 62 133 255 
-2.50386 10.6386 -0.70485 69 56 130 255 
-2.52405 10.6072 -0.791125 66 63 133 255 
-2.51167 10.6052 -0.892193 65 68 135 255 
-2.51007 10.6394 -0.99869 69 53 129 255 
-2.23267 9.48635 -0.983043 51 99 141 255 
-2.17455 9.15967 -1.02604 59 81 139 255 
-2.04013 8.62087 -1.0501 55 91 141 255 
-1.9072 8.09031 -1.0648 51 99 141 255 
-1.77873 7.56945 -1.07066 53 94 141 255 
-1.6997 7.1762 -1.07717 51 98 141 255 
-1.60621 6.79785 -1.08633 52 96 141 255 
-1.52043 6.45467 -1.09424 51 99 141 255 
-1.44035 6.12948 -1.10117 57 86 140 255 
-1.37896 5.84018 -1.10135 50 100 142 255 
-1.31229 5.56694 -1.10348 58 83 139 255 
-1.25607 5.33242 -1.1116 55 90 140 255 
-1.20167 5.10974 -1.11861 56 88 140 255 
-1.1584 4.91754 -1.12096 58 84 140 255 
-1.11842 4.75194 -1.13064 59 82 139 255 
-1.06747 4.53886 -1.12716 61 78 138 255 
-1.03258 4.3839 -1.13631 59 82 139 255 
-0.991469 4.22539 -1.13457 58 83 139 255 
-0.969325 4.13139 -1.15136 61 78 138 255 
-0.934492 3.97653 -1.15128 62 76 138 255 
-0.903404 3.82948 -1.15279 61 77 138 255 
-2.33448 10.0451 3.0979 70 50 126 255 
-2.30374 9.87431 2.93237 58 84 140 255 
-2.64731 11.3286 3.24165 69 55 129 255 
-2.92399 12.5137 3.45058 70 52 128 255 
-2.58757 11.1077 2.96018 58 84 140 255 
-3.08301 13.2249 3.38072 71 42 122 255 
-2.99448 12.8547 3.15173 70 51 127 255 
-2.38928 10.2657 2.414 67 61 132 255 
-0 0 0 68 1 84 255 
-0 0 0 68 2 86 255 
-7.32175 31.5055 6.48081 71 19 101 255 
-7.32521 31.5729 6.18283 69 4 87 255 
-7.32622 31.4246 5.88724 71 14 97 255 
-7.26766 31.2246 5.53183 72 24 106 255 
-7.44118 32.0702 5.35582 71 17 100 255 
-7.27687 31.4892 4.95706 71 16 99 255 
-3.61978 15.5387 2.31617 42 119 142 255 
-0 0 0 68 2 86 255 
-0 0 0 68 2 86 255 
-10.7856 46.7469 5.59333 69 5 89 255 
-0 0 0 68 2 86 255 
-10.7287 46.2409 4.69623 69 5 89 255 
-4.22949 18.2864 1.6784 72 23 105 255 
-3.56048 15.4687 1.27155 67 62 133 255 
-3.6057 15.4905 1.14843 63 72 137 255 
-3.52798 15.2177 0.980071 63 71 136 255 
-3.45214 14.9611 0.818117 65 68 135 255 
-3.38741 14.7403 0.662994 66 65 134 255 
-3.11802 13.4165 0.495444 72 41 121 255 
-3.10433 13.4116 0.365288 70 52 128 255 
-3.09608 13.4287 0.235736 70 48 126 255 
-3.07279 13.3926 0.10792 71 46 124 255 
-2.80102 12.062 -0.00216124 71 47 125 255 
-2.78718 12.0606 -0.118828 66 63 133 255 
-2.77528 12.0565 -0.233231 68 57 131 255 
-2.76433 12.0675 -0.350131 70 51 127 255 
-2.71438 11.7168 -0.436809 51 99 141 255 
-2.47342 10.7199 -0.501503 69 56 130 255 
-2.47001 10.7389 -0.60643 65 66 135 255 
-2.45256 10.7151 -0.708905 68 59 132 255 
-2.47444 10.6895 -0.796119 69 56 130 255 
-2.46758 10.7117 -0.899863 59 81 139 255 
-2.45588 10.7031 -1.00324 61 78 138 255 
-2.18019 9.52509 -0.985652 43 117 142 255 
-2.11719 9.16799 -1.0255 59 81 139 255 
-1.98319 8.61581 -1.04798 54 93 141 255 
-1.85375 8.08543 -1.06264 55 91 141 255 
-1.73269 7.58216 -1.07093 54 93 141 255 
-1.65653 7.19036 -1.07775 50 101 142 255 
-1.56734 6.82009 -1.08833 53 95 141 255 
-1.47947 6.45811 -1.09326 50 100 142 255 
-1.40513 6.14876 -1.10306 57 85 140 255 
-1.34222 5.8447 -1.10063 54 93 141 255 
-1.28206 5.59212 -1.10689 59 82 139 255 
-1.22443 5.34481 -1.11259 56 89 140 255 
-1.16593 5.09794 -1.11444 59 82 139 255 
-1.1269 4.91884 -1.11966 57 85 140 255 
-1.08511 4.74067 -1.12635 61 77 138 255 
-1.03939 4.54437 -1.12693 57 86 140 255 
-1.00415 4.38354 -1.1346 60 80 139 255 
-0.965093 4.22951 -1.13407 57 85 140 255 
-0.938804 4.11468 -1.14508 60 79 138 255 
-0.906215 3.9653 -1.1464 62 74 137 255 
-0.883109 3.84898 -1.15701 62 76 138 255 
-2.24093 9.91813 3.05446 57 85 140 255 
-2.24969 9.9173 2.94098 58 84 140 255 
-2.46761 10.8599 3.10315 56 89 140 255 
-2.65714 11.6951 3.22029 63 72 137 255 
-2.34061 10.3342 2.75016 71 17 100 255 
-2.94775 13.0051 3.31984 59 81 139 255 
-2.33093 10.2917 2.51976 61 77 138 255 
-2.32646 10.2811 2.41423 70 52 128 255 
-0 0 0 68 1 84 255 
-0 0 0 68 2 86 255 
-7.10733 31.4571 6.46175 70 8 92 255 
-7.11708 31.554 6.17047 69 5 89 255 
-6.9943 30.8559 5.77255 71 14 97 255 
-7.06114 31.2033 5.52027 71 17 100 255 
-7.19322 31.889 5.31809 71 19 101 255 
-7.23626 32.2131 5.06394 71 13 96 255 
-3.5141 15.5153 2.30942 44 114 142 255 
-7.30045 32.287 4.48145 71 13 96 255 
-10.5246 46.7717 6.03088 69 5 89 255 
-10.2862 45.8653 5.48019 70 7 90 255 
-10.5048 46.3804 5.15774 70 7 90 255 
-10.4343 46.2593 4.6915 69 4 87 255 
-0 0 0 68 2 86 255 
-3.45766 15.4552 1.26867 68 59 132 255 
-3.50706 15.4967 1.14727 61 77 138 255 
-3.44354 15.279 0.982638 62 73 137 255 
-3.33274 14.8592 0.811413 65 68 135 255 
-3.29755 14.7637 0.663125 63 71 136 255 
-3.05899 13.5387 0.499254 72 41 121 255 
-3.04568 13.5357 0.368153 68 58 131 255 
-3.04052 13.5674 0.23784 68 57 131 255 
-3.02581 13.5693 0.109193 71 44 122 255 
-2.74568 12.1619 -0.00217608 70 52 128 255 
-2.73899 12.1926 -0.119961 69 56 130 255 
-2.72395 12.1748 -0.235191 67 62 133 255 
-2.69762 12.1174 -0.351092 70 50 126 255 
-2.63322 11.6923 -0.435284 50 101 142 255 
-2.42575 10.8158 -0.505282 69 55 129 255 
-2.4215 10.8318 -0.610826 63 72 137 255 
-2.40411 10.8078 -0.714054 66 64 134 255 
-2.41537 10.7337 -0.79829 68 58 131 255 
-2.40813 10.7548 -0.902229 65 68 135 255 
-2.30909 10.3545 -0.969212 58 84 140 255 
-2.13359 9.5917 -0.991172 61 78 138 255 
-2.06242 9.1876 -1.02626 61 77 138 255 
-1.92812 8.61812 -1.0468 52 96 141 255 
-1.80195 8.08697 -1.06137 51 99 141 255 
-1.68979 7.60908 -1.07325 53 95 141 255 
-1.61173 7.19749 -1.07732 51 99 141 255 
-1.52654 6.8344 -1.0891 56 89 140 255 
-1.43467 6.44395 -1.08936 50 100 142 255 
-1.3678 6.15919 -1.10341 55 90 140 255 
-1.30826 5.86146 -1.10225 52 97 141 255 
-1.25221 5.62 -1.11087 54 93 141 255 
-1.18969 5.34361 -1.1108 57 85 140 255 
-1.13654 5.1136 -1.11632 54 92 141 255 
-1.095 4.91804 -1.11792 54 92 141 255 
-1.05812 4.75675 -1.12861 55 90 140 255 
-1.01127 4.54972 -1.12669 60 80 139 255 
-0.977444 4.39056 -1.13484 60 79 138 255 
-0.94038 4.24102 -1.13558 59 82 139 255 
-0.911659 4.11188 -1.14272 57 85 140 255 
-0.876859 3.94824 -1.13989 61 77 138 255 
-0.855716 3.83747 -1.15195 62 74 137 255 
-2.19687 10.0084 3.07805 72 41 121 255 
-2.21816 10.0641 2.98043 62 73 137 255 
-2.26428 10.2559 2.92653 68 59 132 255 
-2.2491 10.1881 2.80149 61 77 138 255 
-2.24991 10.2245 2.71725 58 84 140 255 
-2.24348 10.1875 2.59702 72 27 109 255 
-2.27339 10.3314 2.52603 57 85 140 255 
-0 0 0 68 2 86 255 
-3.1788 14.4338 3.26034 69 5 89 255 
-3.16902 14.4022 3.09957 70 7 90 255 
-3.17341 14.4576 2.96575 69 4 87 255 
-3.14126 14.3362 2.79966 69 5 89 255 
-3.16237 14.3592 2.68264 70 7 90 255 
-3.15345 14.3434 2.53407 70 7 90 255 
-3.13173 14.2916 2.38013 70 7 90 255 
-3.1313 14.3506 2.25286 69 5 89 255 
-3.18913 14.4927 2.15426 70 8 92 255 
-3.13523 14.2724 1.97831 69 5 89 255 
-3.14946 14.4086 1.85536 69 5 89 255 
-3.11853 14.316 1.70822 70 10 93 255 
-3.14929 14.3117 1.58935 69 5 89 255 
-3.13605 14.3119 1.4495 70 7 90 255 
-3.12705 14.318 1.31055 70 11 94 255 
-3.12296 14.3725 1.1782 70 11 94 255 
-3.36479 15.3037 1.13143 72 28 110 255 
-3.23724 14.786 0.949639 72 24 106 255 
-3.14585 14.4403 0.78747 71 14 97 255 
-3.11626 14.3658 0.644381 71 19 101 255 
-2.98679 13.607 0.501088 71 47 125 255 
-2.97751 13.6225 0.37001 70 48 126 255 
-2.97422 13.664 0.239208 69 55 129 255 
-2.95498 13.6453 0.109656 71 45 123 255 
-2.68642 12.2489 -0.00218864 70 50 126 255 
-2.67543 12.2609 -0.12047 67 61 132 255 
-2.6647 12.2626 -0.236567 66 63 133 255 
-2.61308 12.0868 -0.349735 66 63 133 255 
-2.54455 11.6311 -0.432417 57 86 140 255 
-2.37167 10.8871 -0.507923 69 53 129 255 
-2.36326 10.8845 -0.612969 70 52 128 255 
-2.36008 10.9258 -0.720876 67 61 132 255 
-2.34883 10.7454 -0.798073 62 73 137 255 
-2.26881 10.4324 -0.873999 59 81 139 255 
-2.23182 10.3052 -0.963298 53 95 141 255 
-2.14402 9.92555 -1.02429 68 59 132 255 
-2.00452 9.19328 -1.0255 59 82 139 255 
-1.87162 8.61329 -1.0448 53 94 141 255 
-1.7525 8.09884 -1.0615 54 93 141 255 
-1.64202 7.61447 -1.07257 50 100 142 255 
-1.56753 7.20724 -1.07732 50 101 142 255 
-1.4829 6.83592 -1.08787 50 101 142 255 
-1.39323 6.44395 -1.08789 51 99 141 255 
-1.3277 6.15688 -1.10151 55 91 141 255 
-1.27477 5.88091 -1.10442 50 102 142 255 
-1.21355 5.60839 -1.10708 49 104 142 255 
-1.1544 5.33931 -1.10842 57 86 140 255 
-1.10927 5.13959 -1.12049 56 88 140 255 
-1.06666 4.93326 -1.11987 55 91 141 255 
-1.02891 4.76315 -1.12861 50 100 142 255 
-0.985594 4.56629 -1.12928 59 82 139 255 
-0.948642 4.38795 -1.13264 59 82 139 255 
-0.914543 4.24765 -1.13584 59 81 139 255 
-0.887631 4.12306 -1.14429 58 84 140 255 
-0.85424 3.96107 -1.14206 60 80 139 255 
-0.830529 3.83514 -1.1497 62 73 137 255 
-2.20188 10.3336 3.17385 62 74 137 255 
-2.15536 10.0729 2.97904 68 59 132 255 
-2.14821 10.0219 2.85594 65 68 135 255 
-2.16793 10.1149 2.77763 55 91 141 255 
-2.17864 10.1984 2.7067 62 74 137 255 
-2.18945 10.2409 2.60717 49 104 142 255 
-0 0 0 68 1 84 255 
-0 0 0 68 1 84 255 
-0 0 0 68 1 84 255 
-0 0 0 68 2 86 255 
-6.76307 31.7405 6.50242 71 17 100 255 
-6.73178 31.6505 6.17272 71 16 99 255 
-6.67559 31.2223 5.82532 71 16 99 255 
-6.67605 31.2798 5.51891 71 16 99 255 
-6.83627 32.139 5.34539 71 14 97 255 
-6.79248 32.0732 5.02846 71 14 97 255 
-3.30338 15.4633 2.29549 59 81 139 255 
-6.91568 32.4303 4.48923 70 8 92 255 
-6.89522 32.4998 4.17939 72 26 108 255 
-6.8615 32.4549 3.86751 70 8 92 255 
-6.95943 32.5776 3.61303 70 10 93 255 
-6.93278 32.5942 3.29674 69 4 87 255 
-0 0 0 68 1 84 255 
-3.25664 15.4438 1.26436 67 62 133 255 
-3.2956 15.4401 1.14 68 57 131 255 
-3.273 15.4011 0.987835 67 62 133 255 
-3.17885 15.0348 0.818809 70 50 126 255 
-3.10008 14.7268 0.659709 67 62 133 255 
-2.92427 13.7238 0.504718 70 48 126 255 
-2.91109 13.7217 0.372211 71 47 125 255 
-2.91017 13.7759 0.24085 71 46 124 255 
-2.89074 13.7561 0.110402 72 40 120 255 
-2.631 12.358 -0.00220522 70 52 128 255 
-2.61755 12.3593 -0.121276 68 57 131 255 
-2.60942 12.3736 -0.238395 69 56 130 255 
-2.50172 11.9255 -0.344618 66 65 134 255 
-2.47044 11.6337 -0.431945 59 82 139 255 
-2.32714 11.007 -0.512842 69 55 129 255 
-2.31516 10.9878 -0.61797 66 65 134 255 
-2.3063 11.0035 -0.725059 65 66 135 255 
-2.3139 10.9059 -0.808928 67 61 132 255 
-2.1992 10.4198 -0.871796 57 86 140 255 
-2.16015 10.2787 -0.959568 55 91 141 255 
-2.0841 9.94338 -1.02479 66 65 134 255 
-1.94787 9.20444 -1.02539 57 85 140 255 
-1.81771 8.61976 -1.04421 53 95 141 255 
-1.70196 8.10556 -1.06099 54 93 141 255 
-1.59365 7.61664 -1.07148 51 99 141 255 
-1.52144 7.20801 -1.07602 50 102 142 255 
-1.43462 6.81491 -1.08311 51 98 141 255 
-1.3567 6.46687 -1.09033 53 94 141 255 
-1.28707 6.15141 -1.0991 58 83 139 255 
-1.23745 5.88285 -1.10333 51 99 141 255 
-1.17689 5.60516 -1.10499 49 104 142 255 
-1.12363 5.35589 -1.11041 53 94 141 255 
-1.07931 5.15396 -1.12215 55 91 141 255 
-1.03857 4.95022 -1.12226 55 91 141 255 
-0.997268 4.75793 -1.1259 49 103 142 255 
-0.956362 4.56654 -1.12787 59 81 139 255 
-0.924487 4.40697 -1.13606 59 81 139 255 
-0.893013 4.27497 -1.14165 57 86 140 255 
-0.857185 4.10386 -1.13749 60 79 138 255 
-0.835636 3.99356 -1.14992 61 77 138 255 
-0.806192 3.83641 -1.14858 64 69 136 255 
-2.1303 10.3075 3.16177 66 65 134 255 
-2.09117 10.0746 2.97571 71 44 122 255 
-2.6607 12.7954 3.64159 72 41 121 255 
-2.10228 10.111 2.77296 55 90 140 255 
-2.10876 10.1765 2.6974 66 64 134 255 
-2.12717 10.257 2.60789 65 66 135 255 
-0 0 0 68 2 86 255 
-0 0 0 68 1 84 255 
-0 0 0 68 1 84 255 
-0 0 0 68 1 84 255 
-6.57215 31.8006 6.50635 71 17 100 255 
-6.44934 31.2641 6.08952 71 16 99 255 
-6.48489 31.2674 5.82621 71 13 96 255 
-6.48859 31.3424 5.52282 71 13 96 255 
-6.64153 32.1929 5.34747 71 14 97 255 
-6.57528 32.0156 5.013 72 22 104 255 
-3.19498 15.4184 2.28586 68 59 132 255 
-6.66778 32.2363 4.45663 71 13 96 255 
-9.48892 46.1168 5.92291 70 8 92 255 
-9.41414 45.9194 5.46502 69 5 89 255 
-9.95232 48.028 5.3197 69 5 89 255 
-0 0 0 68 2 86 255 
-0 0 0 68 2 86 255 
-3.15882 15.4489 1.26316 67 61 132 255 
-3.19777 15.4454 1.13892 62 74 137 255 
-3.18227 15.4395 0.989025 61 77 138 255 
-3.10339 15.1362 0.823278 67 61 132 255 
-3.01665 14.7798 0.661242 64 70 136 255 
-2.87338 13.903 0.510649 71 46 124 255 
-2.85928 13.8969 0.376482 70 51 127 255 
-2.84766 13.9013 0.242731 71 46 124 255 
-2.82085 13.8451 0.110976 72 41 121 255 
-2.56725 12.4327 -0.0022157 71 47 125 255 
-2.55555 12.4427 -0.121938 68 58 131 255 
-2.54466 12.4442 -0.239451 68 59 132 255 
-2.40997 11.8496 -0.341989 63 71 136 255 
-2.38954 11.6027 -0.430239 56 89 140 255 
-2.2742 11.0925 -0.516166 68 59 132 255 
-2.26548 11.0888 -0.62286 69 56 130 255 
-2.24152 11.0312 -0.72596 66 63 133 255 
-2.1798 10.5936 -0.784757 65 68 135 255 
-2.12823 10.3989 -0.86894 59 82 139 255 
-2.0869 10.242 -0.954928 55 91 141 255 
-2.02146 9.94818 -1.02399 66 64 134 255 
-1.89056 9.21232 -1.02496 58 84 140 255 
-1.76717 8.64242 -1.04562 53 95 141 255 
-1.6518 8.11391 -1.06074 58 84 140 255 
-1.5396 7.59035 -1.06643 54 93 141 255 
-1.47778 7.22012 -1.07645 51 99 141 255 
-1.39238 6.82165 -1.0828 53 95 141 255 
-1.31916 6.4857 -1.09213 53 94 141 255 
-1.24872 6.15629 -1.09858 55 91 141 255 
-1.20113 5.88937 -1.10315 50 101 142 255 
-1.14796 5.63922 -1.1103 50 101 142 255 
-1.08742 5.34635 -1.10702 58 84 140 255 
-1.04514 5.14803 -1.11944 55 90 140 255 
-1.00526 4.94215 -1.11901 56 89 140 255 
-0.964175 4.74487 -1.12139 50 100 142 255 
-0.926777 4.5647 -1.12599 61 78 138 255 
-0.893564 4.39356 -1.13117 64 70 136 255 
-0.866765 4.28037 -1.14165 59 82 139 255 
-0.834095 4.11945 -1.14037 61 78 138 255 
-0.812265 4.00427 -1.15155 59 82 139 255 
-0.784553 3.85069 -1.15139 64 69 136 255 
-2.03033 10.1373 3.10567 51 99 141 255 
-2.35064 11.6845 3.44688 70 51 127 255 
-2.63106 13.0542 3.71058 72 38 119 255 
-2.00471 9.94756 2.72473 64 70 136 255 
-2.04513 10.1835 2.69589 72 37 118 255 
-2.0575 10.2366 2.59944 72 27 109 255 
-0 0 0 68 2 86 255 
-2.75124 13.7136 3.20342 70 7 90 255 
-0 0 0 68 1 84 255 
-0 0 0 68 1 84 255 
-6.39924 31.9518 6.52914 72 23 105 255 
-6.25738 31.3031 6.08952 71 14 97 255 
-6.35805 31.6307 5.88652 71 17 100 255 
-6.27405 31.2715 5.50343 72 23 105 255 
-6.38563 31.9417 5.29914 70 10 93 255 
-6.31601 31.7402 4.96373 72 22 104 255 
-3.09408 15.4067 2.28126 65 68 135 255 
-3.09012 15.4159 2.12857 71 17 100 255 
-3.06238 15.3603 1.97031 72 22 104 255 
-3.04762 15.3433 1.8238 72 22 104 255 
-9.44055 47.0082 5.20022 69 5 89 255 
-0 0 0 68 2 86 255 
-0 0 0 68 2 86 255 
-3.06164 15.4562 1.2622 64 69 136 255 
-3.10097 15.4549 1.1382 60 79 138 255 
-3.0822 15.4323 0.987334 58 83 139 255 
-3.02933 15.25 0.828439 67 61 132 255 
-2.93327 14.8353 0.662906 66 64 134 255 
-2.80176 13.989 0.513166 69 53 129 255 
-2.79389 14.0142 0.379188 70 51 127 255 
-2.78099 14.0126 0.244373 70 50 126 255 
-2.74959 13.9318 0.111533 70 52 128 255 
-2.51407 12.5639 -0.00223629 69 53 129 255 
-2.49476 12.5366 -0.122706 70 52 128 255 
-2.46476 12.442 -0.239111 68 59 132 255 
-2.31848 11.769 -0.339247 59 82 139 255 
-2.31165 11.5838 -0.429005 52 96 141 255 
-2.22031 11.1778 -0.51949 67 62 133 255 
-2.21407 11.1867 -0.627586 69 55 129 255 
-2.11116 10.7265 -0.705043 62 74 137 255 
-2.10813 10.5735 -0.782296 58 84 140 255 
-2.06302 10.405 -0.868369 56 89 140 255 
-2.02228 10.2458 -0.954109 52 97 141 255 
-1.94943 9.90475 -1.01827 59 81 139 255 
-1.83244 9.21595 -1.02409 60 79 138 255 
-1.71102 8.63752 -1.04374 51 99 141 255 
-1.60198 8.12389 -1.06074 55 90 140 255 
-1.497 7.62007 -1.0693 52 97 141 255 
-1.43384 7.23099 -1.07674 50 102 142 255 
-1.35299 6.84267 -1.0848 53 95 141 255 
-1.27438 6.46851 -1.08789 55 91 141 255 
-1.20997 6.15901 -1.09772 54 92 141 255 
-1.16459 5.8947 -1.10279 50 102 142 255 
-1.10916 5.62496 -1.10613 52 96 141 255 
-1.05876 5.37408 -1.1114 58 84 140 255 
-1.00353 5.10348 -1.1084 62 74 137 255 
-0.974348 4.94535 -1.11836 55 91 141 255 
-0.933726 4.744 -1.11981 57 85 140 255 
-0.899126 4.57221 -1.12646 61 77 138 255 
-0.86434 4.38754 -1.12824 62 76 138 255 
-0.836017 4.26282 -1.13558 59 81 139 255 
-0.80546 4.10744 -1.13565 60 79 138 255 
-0.781 3.97518 -1.14179 61 78 138 255 
-0.760353 3.85261 -1.15054 62 74 137 255 
-1.96755 10.1467 3.1048 68 57 131 255 
-2.30609 11.8382 3.488 72 37 118 255 
-2.50791 12.8498 3.64803 72 38 119 255 
-2.34247 12.0034 3.28383 68 57 131 255 
-2.35803 12.1265 3.20638 62 73 137 255 
-2.61899 13.457 3.41309 71 42 122 255 
-2.66374 13.6991 3.33243 70 51 127 255 
-2.66593 13.7245 3.20208 71 14 97 255 
-0 0 0 68 2 86 255 
-0 0 0 68 1 84 255 
-6.15697 31.7527 6.48061 70 8 92 255 
-6.03048 31.1615 6.05467 71 17 100 255 
-6.01387 30.8985 5.74329 71 16 99 255 
-6.05951 31.1933 5.48303 72 20 103 255 
-6.13044 31.6751 5.24856 71 13 96 255 
-6.25033 32.4491 5.06849 70 10 93 255 
-2.99156 15.3846 2.27523 72 37 118 255 
-2.9917 15.4151 2.12589 71 42 122 255 
-2.97372 15.408 1.97405 72 41 121 255 
-2.96335 15.4134 1.82993 72 33 115 255 
-3.00206 15.4386 1.7058 57 86 140 255 
-2.99546 15.4778 1.55967 57 85 140 255 
-2.98631 15.4878 1.41048 59 81 139 255 
-2.95868 15.4326 1.25877 66 63 133 255 
-3.00552 15.4707 1.13798 61 78 138 255 
-2.98252 15.4254 0.985706 61 78 138 255 
-2.94645 15.3242 0.831472 69 56 130 255 
-2.8666 14.9805 0.668599 69 53 129 255 
-2.72938 14.0755 0.515718 71 45 123 255 
-2.72376 14.1135 0.381416 69 55 129 255 
-2.71552 14.1364 0.246238 68 57 131 255 
-2.67325 13.9966 0.111918 67 61 132 255 
-2.45767 12.6861 -0.00225531 66 63 133 255 
-2.44408 12.6882 -0.12404 65 68 135 255 
-2.37256 12.3744 -0.237528 69 53 129 255 
-2.24547 11.7791 -0.339134 62 74 137 255 
-2.24091 11.5997 -0.429078 55 90 140 255 
-2.16828 11.2775 -0.523497 67 61 132 255 
-2.15967 11.2746 -0.631762 66 64 134 255 
-2.04139 10.7187 -0.703692 62 73 137 255 
-2.04019 10.5706 -0.781139 53 94 141 255 
-1.97848 10.3098 -0.859394 56 88 140 255 
-1.96348 10.2796 -0.956111 50 100 142 255 
-1.88396 9.8921 -1.01576 64 69 136 255 
-1.77285 9.2114 -1.02236 60 79 138 255 
-1.65649 8.64005 -1.0428 55 90 140 255 
-1.55099 8.12772 -1.05997 56 88 140 255 
-1.44837 7.61938 -1.06793 56 89 140 255 
-1.38907 7.23771 -1.07645 49 104 142 255 
-1.30708 6.83046 -1.08157 52 96 141 255 
-1.23245 6.46457 -1.08594 55 90 140 255 
-1.17344 6.17309 -1.09893 56 89 140 255 
-1.12785 5.89883 -1.10225 50 101 142 255 
-1.06818 5.5979 -1.0995 58 84 140 255 
-1.02485 5.37566 -1.11041 57 86 140 255 
-0.974208 5.12011 -1.11069 60 79 138 255 
-0.941609 4.93877 -1.11554 56 89 140 255 
-0.906969 4.76208 -1.12274 56 89 140 255 
-0.872145 4.58337 -1.12787 60 79 138 255 
-0.838129 4.39657 -1.12921 64 70 136 255 
-0.808041 4.25836 -1.13305 62 76 138 255 
-0.779882 4.11041 -1.13513 61 78 138 255 
-0.753897 3.96571 -1.13772 59 81 139 255 
-0.735979 3.85343 -1.14942 63 72 137 255 
-2.30795 12.3057 3.76103 72 31 112 255 
-2.24141 11.8946 3.5005 68 58 131 255 
-2.367 12.5365 3.55489 70 50 126 255 
-2.38953 12.6572 3.45861 72 40 120 255 
-1.93414 10.283 2.71574 72 33 115 255 
-2.3353 12.4048 3.14251 66 64 134 255 
-2.55303 13.5737 3.29805 72 36 117 255 
-0 0 0 68 2 86 255 
-0 0 0 68 1 84 255 
-0 0 0 68 1 84 255 
-5.84834 31.1837 6.35704 69 4 87 255 
-5.8435 31.2211 6.05916 71 19 101 255 
-5.90626 31.3709 5.82424 71 16 99 255 
-5.83469 31.0527 5.45191 71 19 101 255 
-5.86206 31.3172 5.18321 72 20 103 255 
-5.79626 31.1186 4.85503 71 14 97 255 
-2.90552 15.4474 2.28184 50 101 142 255 
-2.89907 15.4439 2.12736 56 89 140 255 
-2.88658 15.4659 1.97917 59 82 139 255 
-2.87235 15.4508 1.83225 58 84 140 255 
-2.90287 15.4333 1.70322 66 65 134 255 
-2.89037 15.4421 1.55425 63 72 137 255 
-2.87881 15.4392 1.40443 64 70 136 255 
-2.85866 15.422 1.25646 65 66 135 255 
-2.90151 15.4408 1.13445 59 81 139 255 
-2.8847 15.4267 0.984642 58 83 139 255 
-2.85583 15.3606 0.832483 69 55 129 255 
-2.80116 15.1413 0.674993 69 53 129 255 
-2.66452 14.2069 0.519924 72 38 119 255 
-2.64884 14.1929 0.383113 71 44 122 255 
-2.64151 14.2216 0.247435 71 46 124 255 
-2.52522 13.6764 0.109232 66 63 133 255 
-2.40206 12.8199 -0.00227643 67 62 133 255 
-2.38596 12.8091 -0.125077 68 57 131 255 
-2.3077 12.4487 -0.238678 63 72 137 255 
-2.17352 11.7946 -0.33919 62 73 137 255 
-2.16896 11.6093 -0.428933 57 86 140 255 
-2.13245 11.4703 -0.531831 59 82 139 255 
-2.08408 11.2533 -0.629839 60 80 139 255 
-1.96637 10.6809 -0.70041 56 89 140 255 
-1.97602 10.5869 -0.781428 55 91 141 255 
-1.91064 10.2972 -0.857354 56 88 140 255 
-1.90308 10.3061 -0.957476 55 90 140 255 
-1.82539 9.91521 -1.01697 66 64 134 255 
-1.71485 9.21428 -1.02149 61 77 138 255 
-1.60309 8.6481 -1.04256 54 92 141 255 
-1.49749 8.11758 -1.05743 57 85 140 255 
-1.40123 7.62618 -1.06766 55 90 140 255 
-1.34355 7.24026 -1.07558 52 97 141 255 
-1.26461 6.83544 -1.08111 52 96 141 255 
-1.19133 6.46425 -1.08464 57 86 140 255 
-1.12949 6.14723 -1.09307 62 73 137 255 
-1.08806 5.8863 -1.09864 52 96 141 255 
-1.03363 5.60338 -1.09931 57 85 140 255 
-0.987584 5.35872 -1.10563 56 89 140 255 
-0.945781 5.14234 -1.11423 60 80 139 255 
-0.910757 4.94157 -1.11489 55 90 140 255 
-0.878262 4.77043 -1.12342 56 89 140 255 
-0.828005 4.50164 -1.10649 64 69 136 255 
-0.81096 4.40068 -1.12897 61 77 138 255 
-0.780501 4.25563 -1.13103 60 80 139 255 
-0.755517 4.11987 -1.13644 59 82 139 255 
-0.733725 3.99298 -1.14423 59 82 139 255 
-0.709882 3.84466 -1.14548 61 77 138 255 
-1.84869 10.2022 3.11458 67 61 132 255 
-2.25925 12.4072 3.64719 71 42 122 255 
-2.0924 11.4676 3.2481 70 51 127 255 
-1.83757 10.0721 2.7491 60 79 138 255 
-2.54222 13.9878 3.68999 64 69 136 255 
-2.26366 12.4437 3.1488 65 68 135 255 
-2.26585 12.4675 3.02585 59 82 139 255 
-0 0 0 68 1 84 255 
