ply
format ascii 1.0
comment VTK generated PLY File
obj_info vtkPolyData points and polygons: vtk4.0
element vertex 1219
property float x
property float y
property float z
property uchar red
property uchar green
property uchar blue
property uchar alpha
element face 0
property list uchar int vertex_indices
end_header
5.02681 -4.80863 -1.21659 68 58 131 255 
4.76258 -4.54613 -1.2084 64 69 136 255 
4.52345 -4.32104 -1.20691 64 69 136 255 
4.33489 -4.14229 -1.21659 50 100 142 255 
4.1613 -3.9793 -1.22699 59 82 139 255 
3.95263 -3.77694 -1.21302 61 77 138 255 
3.80771 -3.63987 -1.21999 64 70 136 255 
3.62916 -3.47034 -1.21387 66 63 133 255 
3.4749 -3.3206 -1.21263 65 66 135 255 
3.33937 -3.1965 -1.20842 65 68 135 255 
3.20978 -3.07258 -1.20557 66 64 134 255 
3.11318 -2.97798 -1.21422 66 64 134 255 
3.00936 -2.87373 -1.21915 66 65 134 255 
8.99917 -8.65095 3.74981 65 68 135 255 
9.79778 -9.40249 3.92723 71 45 123 255 
8.18545 -7.84959 3.16006 57 86 140 255 
8.2831 -7.94355 3.08156 52 96 141 255 
8.12643 -7.80381 2.92426 68 57 131 255 
8.36178 -8.02723 2.88571 68 59 132 255 
8.28533 -7.95648 2.74296 68 57 131 255 
12.7928 -12.2898 4.06293 72 41 121 255 
9.67298 -9.28572 2.95789 72 32 113 255 
8.51181 -8.17411 2.48044 47 107 142 255 
8.4647 -8.13725 2.3526 62 74 137 255 
9.57285 -9.20929 2.53396 68 58 131 255 
9.26138 -8.8906 2.34233 68 59 132 255 
9.33648 -8.9692 2.23395 54 92 141 255 
10.4493 -10.0521 2.35878 71 45 123 255 
10.8496 -10.4558 2.31108 71 45 123 255 
23.1534 -22.2342 4.66007 71 17 100 255 
10.8948 -10.4699 2.04566 66 65 134 255 
10.7823 -10.3833 1.88306 72 37 118 255 
10.9777 -10.5865 1.77805 71 19 101 255 
21.8851 -21.0163 3.29084 72 26 108 255 
21.0638 -20.2635 2.89161 71 16 99 255 
19.0651 -18.366 2.36725 72 24 106 255 
19.1379 -18.4754 2.1309 71 19 101 255 
18.5115 -17.7828 1.8535 72 32 113 255 
17.9459 -17.2701 1.56259 72 35 116 255 
18.1635 -17.5158 1.3445 72 26 108 255 
18.1778 -17.5608 1.10794 72 24 106 255 
17.945 -17.2506 0.895344 72 38 119 255 
18.0855 -17.4165 0.666251 72 27 109 255 
18.3627 -17.7141 0.436444 72 27 109 255 
18.5761 -17.958 0.202929 72 31 112 255 
0 -0 -0 68 2 86 255 
43.5364 -41.9554 -0.580413 69 5 89 255 
47.8586 -46.2005 -1.25402 69 5 89 255 
42.5637 -41.1764 -1.67489 70 7 90 255 
11.1507 -10.7342 -0.562135 72 20 103 255 
11.2096 -10.8101 -0.709882 72 32 113 255 
10.8959 -10.5221 -0.833594 69 55 129 255 
11.0378 -10.6817 -0.9906 72 38 119 255 
11.8231 -11.3855 -1.19096 72 31 112 255 
10.1359 -9.78144 -1.15312 72 31 112 255 
9.00434 -8.70452 -1.14417 66 63 133 255 
8.4896 -8.21574 -1.19169 70 50 126 255 
7.88858 -7.60452 -1.19419 72 41 121 255 
7.30171 -7.04885 -1.203 71 46 124 255 
6.78089 -6.55739 -1.20838 69 55 129 255 
6.28383 -6.08537 -1.20448 71 42 122 255 
5.93194 -5.72432 -1.20407 69 56 130 255 
5.59225 -5.40236 -1.20927 68 59 132 255 
5.27035 -5.09842 -1.21 68 58 131 255 
4.97598 -4.81883 -1.21142 69 53 129 255 
4.74167 -4.5821 -1.2102 63 72 137 255 
4.51168 -4.36305 -1.21089 65 66 135 255 
4.3108 -4.17017 -1.21699 58 83 139 255 
4.12346 -3.99183 -1.22303 62 74 137 255 
3.93149 -3.80316 -1.21367 61 77 138 255 
3.7846 -3.66248 -1.21976 65 68 135 255 
3.60431 -3.48916 -1.21269 62 73 137 255 
3.46074 -3.34793 -1.21484 64 69 136 255 
3.32455 -3.22165 -1.21019 62 73 137 255 
3.19641 -3.09759 -1.20766 65 68 135 255 
3.08863 -2.991 -1.21177 63 72 137 255 
2.98408 -2.8848 -1.21606 66 65 134 255 
8.8814 -8.64322 3.72277 72 41 121 255 
9.33476 -9.06884 3.76387 72 35 116 255 
8.14404 -7.90637 3.16274 72 33 115 255 
10.6297 -10.3199 3.97804 72 28 110 255 
10.7018 -10.4039 3.87389 69 55 129 255 
7.97625 -7.75173 2.76903 72 24 106 255 
8.44069 -8.20582 2.81101 72 26 108 255 
9.61248 -9.34861 3.07103 72 41 121 255 
9.62353 -9.35239 2.96026 66 64 134 255 
8.92389 -8.67573 2.61599 68 59 132 255 
8.81373 -8.57746 2.46419 63 71 136 255 
9.0855 -8.84843 2.41928 70 52 128 255 
9.10789 -8.85127 2.3172 57 86 140 255 
9.25796 -9.00365 2.22834 54 92 141 255 
10.5996 -10.3226 2.40695 70 10 93 255 
10.4924 -10.2364 2.24831 70 50 126 255 
22.9775 -22.3379 4.65217 70 11 94 255 
10.6386 -10.35 2.00944 68 58 131 255 
10.8548 -10.5823 1.90703 63 71 136 255 
11.1044 -10.8411 1.80932 68 58 131 255 
21.7165 -21.112 3.28491 72 20 103 255 
21.2777 -20.7222 2.93838 72 29 111 255 
18.7067 -18.2434 2.33661 71 16 99 255 
18.5487 -18.1278 2.07764 72 27 109 255 
18.7088 -18.1944 1.8844 72 29 111 255 
18.4158 -17.9412 1.61306 72 36 117 255 
18.24 -17.8069 1.35823 72 38 119 255 
18.0661 -17.6685 1.10772 72 29 111 255 
17.9197 -17.4392 0.899406 72 29 111 255 
17.9367 -17.4867 0.664712 72 20 103 255 
18.5884 -18.1534 0.444449 71 16 99 255 
18.4405 -18.0472 0.202654 69 5 89 255 
0 -0 -0 68 2 86 255 
41.312 -40.3036 -0.554045 69 4 87 255 
47.5085 -46.429 -1.25229 69 5 89 255 
42.3146 -41.4409 -1.67506 70 7 90 255 
11.1426 -10.8589 -0.565075 72 22 104 255 
10.8636 -10.6058 -0.692077 72 22 104 255 
20.8197 -20.3538 -1.60235 71 14 97 255 
12.7998 -12.5399 -1.15561 71 16 99 255 
11.5759 -11.2851 -1.17301 72 32 113 255 
10.3237 -10.0858 -1.18151 72 37 118 255 
8.97851 -8.78677 -1.14772 61 78 138 255 
8.34806 -8.17856 -1.17885 68 59 132 255 
7.85244 -7.6632 -1.19582 72 37 118 255 
7.26329 -7.09838 -1.20383 70 51 127 255 
6.76604 -6.62386 -1.21296 71 45 123 255 
6.29023 -6.16681 -1.21293 70 50 126 255 
5.90449 -5.76822 -1.20566 68 59 132 255 
5.56818 -5.44556 -1.21127 66 63 133 255 
5.25095 -5.1424 -1.21277 67 61 132 255 
4.97375 -4.87616 -1.21814 68 58 131 255 
4.73877 -4.63587 -1.2167 63 72 137 255 
4.48552 -4.39134 -1.21108 64 70 136 255 
4.29073 -4.20203 -1.21858 63 72 137 255 
4.10028 -4.01843 -1.22345 57 85 140 255 
3.92412 -3.84292 -1.21865 62 73 137 255 
3.76136 -3.68496 -1.21954 63 71 136 255 
3.59949 -3.52754 -1.21833 60 79 138 255 
3.44636 -3.37521 -1.21704 62 73 137 255 
3.31854 -3.25554 -1.21525 62 74 137 255 
3.19525 -3.13472 -1.21447 65 66 135 255 
3.07571 -3.01529 -1.21394 63 71 136 255 
2.94438 -2.88158 -1.20706 65 68 135 255 
8.77703 -8.64714 3.70119 72 36 117 255 
11.1117 -10.9285 4.50731 69 55 129 255 
11.5917 -11.3924 4.52871 72 22 104 255 
10.6282 -10.4459 4.00138 72 33 115 255 
10.7819 -10.6113 3.92639 71 47 125 255 
12.2608 -12.0628 4.28206 71 14 97 255 
9.48549 -9.33544 3.17798 65 66 135 255 
9.52507 -9.37801 3.06143 65 68 135 255 
8.90814 -8.76407 2.75669 69 5 89 255 
8.9521 -8.81063 2.64005 62 76 138 255 
8.92647 -8.79447 2.51075 54 93 141 255 
9.06112 -8.93366 2.42734 72 41 121 255 
9.08286 -8.93597 2.32474 61 78 138 255 
9.08878 -8.94828 2.2008 61 77 138 255 
11.0266 -10.8711 2.51903 72 36 117 255 
10.4132 -10.2846 2.24483 72 36 117 255 
10.6851 -10.5159 2.17639 72 31 112 255 
10.5318 -10.3727 2.00125 70 51 127 255 
10.8695 -10.7274 1.92113 69 53 129 255 
11.0313 -10.9027 1.80828 67 61 132 255 
11.0416 -10.8669 1.68025 68 57 131 255 
21.0148 -20.7189 2.91958 72 31 112 255 
18.6759 -18.4383 2.34686 71 17 100 255 
18.4988 -18.3023 2.08459 72 32 113 255 
18.6679 -18.3788 1.8916 72 29 111 255 
18.3402 -18.0882 1.61613 72 37 118 255 
18.3555 -18.141 1.37509 72 32 113 255 
18.2889 -18.1072 1.12817 72 29 111 255 
19.6747 -19.3836 0.993441 71 13 96 255 
19.5424 -19.2873 0.728587 71 13 96 255 
19.6762 -19.453 0.473302 72 32 113 255 
34.3033 -33.9862 0.379265 69 4 87 255 
0 -0 -0 68 2 86 255 
0 -0 -0 68 2 86 255 
0 -0 -0 69 4 87 255 
42.2937 -41.9321 -1.68439 70 7 90 255 
28.5613 -28.1779 -1.45717 69 5 89 255 
21.917 -21.6612 -1.40469 72 22 104 255 
20.0898 -19.8827 -1.55553 71 17 100 255 
12.7545 -12.6498 -1.15851 71 19 101 255 
11.434 -11.2845 -1.16563 72 27 109 255 
10.3403 -10.2268 -1.19057 68 59 132 255 
9.07936 -8.99519 -1.16764 68 59 132 255 
8.38814 -8.31931 -1.19169 70 50 126 255 
7.82649 -7.73219 -1.19907 72 38 119 255 
7.22595 -7.1491 -1.20489 72 41 121 255 
6.74359 -6.6834 -1.21626 70 51 127 255 
6.26915 -6.22203 -1.21621 69 53 129 255 
5.88446 -5.81965 -1.20884 68 58 131 255 
5.53396 -5.47893 -1.21112 65 66 135 255 
5.2214 -5.17661 -1.21326 67 61 132 255 
4.94793 -4.91075 -1.21918 67 62 133 255 
4.71653 -4.67109 -1.21832 61 78 138 255 
4.47662 -4.43675 -1.216 61 77 138 255 
4.25164 -4.21517 -1.2148 63 71 136 255 
4.0818 -4.04971 -1.22532 62 74 137 255 
3.91711 -3.88342 -1.22385 61 77 138 255 
3.72969 -3.69905 -1.2166 61 78 138 255 
3.5764 -3.54819 -1.21786 63 72 137 255 
3.44349 -3.41404 -1.2234 64 69 136 255 
3.31017 -3.28743 -1.21955 62 73 137 255 
3.1787 -3.15699 -1.21552 64 69 136 255 
3.05442 -3.03139 -1.21286 65 66 135 255 
2.93073 -2.90364 -1.20875 66 63 133 255 
8.82146 -8.79822 3.74262 60 80 139 255 
11.4924 -11.4425 4.69012 72 28 110 255 
11.3802 -11.3227 4.47314 72 33 115 255 
10.5618 -10.5088 4.0006 70 51 127 255 
10.6659 -10.6267 3.9078 72 36 117 255 
9.33604 -9.29872 3.28046 66 63 133 255 
9.43286 -9.39827 3.1796 62 74 137 255 
9.59852 -9.56702 3.10385 71 14 97 255 
0 -0 0 68 1 84 255 
8.94224 -8.9096 2.65322 59 82 139 255 
8.9501 -8.92662 2.53276 58 84 140 255 
11.0703 -11.0494 2.98367 72 37 118 255 
9.20281 -9.16578 2.36979 61 78 138 255 
9.08187 -9.05188 2.21253 57 86 140 255 
9.29283 -9.27493 2.13591 54 92 141 255 
10.4596 -10.458 2.26863 72 29 111 255 
10.6477 -10.6085 2.18199 71 14 97 255 
10.7571 -10.7254 2.05653 71 13 96 255 
10.6062 -10.5969 1.88606 71 46 124 255 
11.1222 -11.1283 1.83434 68 58 131 255 
10.9748 -10.9344 1.68025 72 32 113 255 
21.0401 -21 2.94094 72 28 110 255 
20.8598 -20.8487 2.63731 72 24 106 255 
18.539 -18.5685 2.10192 72 23 105 255 
18.7462 -18.6838 1.91111 71 16 99 255 
19.5326 -19.5021 1.73172 72 27 109 255 
19.9289 -19.9392 1.5021 72 23 105 255 
19.7729 -19.8182 1.22719 72 35 116 255 
19.7564 -19.7043 1.00365 72 29 111 255 
19.7327 -19.7156 0.740179 72 23 105 255 
19.5981 -19.6151 0.474311 72 24 106 255 
19.5789 -19.6374 0.217797 70 8 92 255 
35.7342 -35.6525 -0.00881007 69 5 89 255 
0 -0 -0 68 2 86 255 
0 -0 -0 68 2 86 255 
42.0455 -42.2007 -1.68478 70 8 92 255 
42.1462 -42.0938 -2.16339 69 5 89 255 
21.766 -21.7776 -1.40355 71 19 101 255 
19.5104 -19.5477 -1.51992 72 24 106 255 
12.7414 -12.7929 -1.16443 71 16 99 255 
11.3604 -11.3502 -1.16519 72 29 111 255 
10.24 -10.2527 -1.18625 71 47 125 255 
9.06829 -9.09516 -1.17337 65 66 135 255 
8.40504 -8.439 -1.20143 70 50 126 255 
7.78733 -7.78851 -1.20037 72 37 118 255 
7.19598 -7.20736 -1.20724 71 45 123 255 
6.71996 -6.74222 -1.21944 70 50 126 255 
6.25042 -6.28005 -1.22003 71 47 125 255 
5.86892 -5.87595 -1.21303 67 61 132 255 
5.51629 -5.52887 -1.21465 67 62 133 255 
5.19163 -5.21065 -1.21374 68 57 131 255 
4.91562 -4.93893 -1.21866 67 61 132 255 
4.70514 -4.71735 -1.22284 62 74 137 255 
4.4708 -4.48569 -1.22188 63 71 136 255 
4.22017 -4.23562 -1.21321 64 70 136 255 
4.0548 -4.0726 -1.2247 63 71 136 255 
3.89114 -3.90531 -1.2232 62 74 137 255 
3.70761 -3.72255 -1.21683 61 78 138 255 
3.56485 -3.5804 -1.22139 63 72 137 255 
3.42727 -3.43991 -1.22511 63 71 136 255 
3.30563 -3.32345 -1.22537 64 70 136 255 
3.15654 -3.17369 -1.21447 68 59 132 255 
3.05274 -3.06713 -1.21964 66 64 134 255 
2.93115 -2.93992 -1.21634 65 68 135 255 
8.8839 -8.9699 3.79239 72 32 113 255 
10.8387 -10.9249 4.45064 72 31 112 255 
11.2596 -11.341 4.45301 71 47 125 255 
10.4965 -10.5728 4.00034 65 68 135 255 
10.441 -10.5311 3.84901 63 71 136 255 
9.32527 -9.40268 3.29689 61 77 138 255 
10.9179 -11.0122 3.70288 72 26 108 255 
9.36673 -9.45126 3.04759 70 8 92 255 
0 -0 0 68 2 86 255 
8.8936 -8.97056 2.65507 65 66 135 255 
8.89861 -8.98485 2.53374 70 52 128 255 
27.2207 -27.5047 7.38189 70 7 90 255 
9.15817 -9.23395 2.37285 62 76 138 255 
9.27657 -9.36011 2.27391 69 56 130 255 
9.29615 -9.39281 2.14988 64 69 136 255 
22.4793 -22.7534 4.90581 71 13 96 255 
9.0544 -9.1325 1.86693 53 94 141 255 
10.3856 -10.4828 1.99776 72 37 118 255 
10.6742 -10.7965 1.9099 65 66 135 255 
11.0628 -11.2055 1.83584 66 63 133 255 
11.0656 -11.1611 1.70462 70 51 127 255 
20.9907 -21.2093 2.95216 72 28 110 255 
21.0325 -21.2809 2.67561 72 20 103 255 
20.0395 -20.3192 2.28613 71 17 100 255 
20.7418 -20.928 2.12761 72 23 105 255 
19.8092 -20.0225 1.7671 72 27 109 255 
19.976 -20.2331 1.51497 72 22 104 255 
19.9083 -20.2003 1.24326 72 22 104 255 
19.6998 -19.8905 1.00696 72 33 115 255 
19.6823 -19.9081 0.742858 72 22 104 255 
19.7296 -19.9904 0.480451 72 20 103 255 
19.6173 -19.9189 0.219579 72 24 106 255 
41.2587 -41.6726 -0.010235 69 4 87 255 
0 -0 -0 68 2 86 255 
0 -0 -0 68 2 86 255 
41.8875 -42.5612 -1.68888 70 10 93 255 
41.9764 -42.4419 -2.168 70 7 90 255 
21.6411 -21.92 -1.40414 71 17 100 255 
18.9687 -19.2397 -1.4869 72 27 109 255 
12.6984 -12.9071 -1.16771 72 23 105 255 
11.3192 -11.4488 -1.16816 72 31 112 255 
10.2476 -10.3869 -1.19449 71 42 122 255 
9.08779 -9.22725 -1.1832 68 59 132 255 
8.36287 -8.50034 -1.20284 67 62 133 255 
7.7862 -7.88353 -1.20763 72 37 118 255 
7.1579 -7.25774 -1.2083 70 48 126 255 
6.69377 -6.79887 -1.22223 70 51 127 255 
6.2076 -6.31404 -1.21921 71 46 124 255 
5.83901 -5.91819 -1.21433 66 64 134 255 
5.48365 -5.56402 -1.21496 67 61 132 255 
5.18309 -5.26631 -1.21928 66 63 133 255 
4.89213 -4.97602 -1.22038 66 65 134 255 
4.68577 -4.75594 -1.22536 62 74 137 255 
4.43769 -4.50744 -1.22036 60 80 139 255 
4.19066 -4.25795 -1.21222 60 79 138 255 
4.02013 -4.08764 -1.22178 62 74 137 255 
3.876 -3.93816 -1.22601 62 76 138 255 
3.70451 -3.76537 -1.22337 62 76 138 255 
3.53531 -3.59459 -1.2188 64 69 136 255 
3.39249 -3.44706 -1.22022 62 73 137 255 
3.27839 -3.33677 -1.22284 62 73 137 255 
3.14919 -3.20539 -1.21918 63 72 137 255 
3.03386 -3.0858 -1.21964 66 65 134 255 
2.90498 -2.94965 -1.21296 67 61 132 255 
8.67666 -8.86884 3.72709 72 40 120 255 
10.7661 -10.9857 4.44842 68 59 132 255 
10.6071 -10.8157 4.2211 72 38 119 255 
10.7911 -11.0038 4.1383 62 73 137 255 
9.27092 -9.46636 3.43902 66 64 134 255 
10.7987 -11.0228 3.84166 72 31 112 255 
9.29027 -9.48622 3.17054 63 72 137 255 
0 -0 0 68 1 84 255 
9.28314 -9.47553 2.92623 71 17 100 255 
0 -0 0 68 2 86 255 
8.81245 -9.00775 2.5249 72 36 117 255 
8.99677 -9.20289 2.45507 71 14 97 255 
9.02217 -9.20916 2.3522 71 45 123 255 
9.09419 -9.2894 2.24313 69 56 130 255 
9.22386 -9.43485 2.1465 61 77 138 255 
9.16449 -9.39081 2.01257 72 32 113 255 
8.99057 -9.1801 1.86535 51 99 141 255 
22.3022 -22.7889 4.31684 72 23 105 255 
10.596 -10.8497 1.90778 62 73 137 255 
10.7185 -10.9908 1.78987 67 62 133 255 
11.1869 -11.4227 1.73406 72 41 121 255 
20.8845 -21.3626 2.95561 72 27 109 255 
21.7448 -22.2733 2.78356 72 20 103 255 
22.2933 -22.8837 2.55922 71 13 96 255 
20.6695 -21.1126 2.13344 72 24 106 255 
22.2885 -22.8068 2.00072 70 10 93 255 
20.3953 -20.9129 1.55648 72 31 112 255 
20.4362 -20.9921 1.28425 71 17 100 255 
19.9359 -20.3775 1.0254 72 32 113 255 
19.8643 -20.3404 0.754423 72 24 106 255 
19.6938 -20.2006 0.482589 72 23 105 255 
19.5958 -20.1428 0.220718 72 29 111 255 
35.4765 -36.2749 -0.00885563 69 5 89 255 
0 -0 -0 68 1 84 255 
0 -0 -0 68 2 86 255 
41.6945 -42.8884 -1.69168 70 11 94 255 
41.7885 -42.7737 -2.17181 70 8 92 255 
14.1822 -14.5423 -0.925956 71 19 101 255 
14.1696 -14.5495 -1.11769 72 35 116 255 
12.6753 -13.0427 -1.17293 72 20 103 255 
11.2669 -11.5366 -1.17004 71 19 101 255 
10.1566 -10.4218 -1.1913 72 27 109 255 
9.07336 -9.32638 -1.18875 68 58 131 255 
8.31264 -8.55363 -1.20314 69 53 129 255 
7.75712 -7.95108 -1.21066 72 35 116 255 
7.14233 -7.33139 -1.21324 70 50 126 255 
6.64087 -6.82844 -1.2202 70 48 126 255 
6.18668 -6.37049 -1.22275 70 52 128 255 
5.79983 -5.95107 -1.21375 68 57 131 255 
5.45423 -5.60252 -1.21604 68 57 131 255 
5.15137 -5.29872 -1.21944 66 65 134 255 
4.87523 -5.02008 -1.22383 67 62 133 255 
4.64827 -4.77614 -1.2232 60 79 138 255 
4.41474 -4.53951 -1.22169 61 77 138 255 
4.16855 -4.2878 -1.21341 64 70 136 255 
4.02564 -4.1438 -1.23116 61 78 138 255 
3.85721 -3.96747 -1.22775 62 73 137 255 
3.69288 -3.79991 -1.22721 62 76 138 255 
3.51048 -3.61342 -1.21786 66 65 134 255 
3.36993 -3.46642 -1.21973 63 72 137 255 
3.25516 -3.35405 -1.22183 64 70 136 255 
3.1429 -3.23851 -1.22442 67 62 133 255 
3.037 -3.12715 -1.22859 64 69 136 255 
2.89218 -2.97292 -1.21521 68 59 132 255 
9.34685 -9.6719 4.04039 72 36 117 255 
10.6798 -11.0323 4.44064 72 37 118 255 
9.08337 -9.37641 3.63757 53 95 141 255 
9.13285 -9.42785 3.52448 52 96 141 255 
9.99805 -10.3349 3.7322 71 44 122 255 
8.9811 -9.28071 3.21523 70 48 126 255 
9.20822 -9.51857 3.16241 65 66 135 255 
11.9164 -12.3228 3.92608 70 8 92 255 
0 -0 0 68 1 84 255 
11.4406 -11.8264 3.4585 72 26 108 255 
10.919 -11.2989 3.14826 70 7 90 255 
11.7473 -12.1649 3.22596 72 22 104 255 
9.00723 -9.30747 2.36315 69 55 129 255 
9.08086 -9.39036 2.25402 70 52 128 255 
9.05403 -9.37554 2.12033 54 93 141 255 
8.98733 -9.32304 1.98619 55 91 141 255 
9.02215 -9.32614 1.88374 72 27 109 255 
22.2832 -23.0507 4.34045 71 17 100 255 
10.4321 -10.8139 1.89018 69 55 129 255 
10.6453 -11.0507 1.78894 70 52 128 255 
11.0827 -11.4561 1.72877 72 28 110 255 
11.0481 -11.4406 1.57345 61 77 138 255 
20.6543 -21.4177 2.66073 71 13 96 255 
20.2849 -21.0793 2.34347 71 16 99 255 
20.3621 -21.0555 2.115 70 10 93 255 
20.3626 -21.0934 1.83942 72 29 111 255 
20.2028 -20.9715 1.55158 72 32 113 255 
20.1893 -20.9947 1.27681 72 35 116 255 
19.9765 -20.6712 1.03399 72 26 108 255 
19.6191 -20.3374 0.749834 72 28 110 255 
19.5105 -20.2599 0.481136 72 32 113 255 
19.6264 -20.4235 0.22247 72 29 111 255 
19.4112 -20.0932 -0.0048761 72 20 103 255 
0 -0 -0 68 2 86 255 
0 -0 -0 68 2 86 255 
13.6936 -14.2598 -0.559135 70 11 94 255 
13.9216 -14.4258 -0.728112 72 37 118 255 
14.0781 -14.614 -0.925 71 17 100 255 
18.6135 -19.3487 -1.47756 72 32 113 255 
12.6627 -13.1908 -1.17923 71 17 100 255 
11.2471 -11.6586 -1.1754 72 26 108 255 
10.06 -10.4502 -1.18747 70 48 126 255 
9.08151 -9.45009 -1.19739 64 69 136 255 
8.27998 -8.62529 -1.20605 65 66 135 255 
7.71025 -8.00068 -1.21099 71 47 125 255 
7.10823 -7.38653 -1.21513 71 44 122 255 
6.57617 -6.84546 -1.21601 71 42 122 255 
6.18451 -6.44693 -1.23012 71 47 125 255 
5.77693 -6.0008 -1.21664 68 57 131 255 
5.44304 -5.66009 -1.22126 67 62 133 255 
5.11808 -5.32952 -1.21928 67 62 133 255 
4.84298 -5.04847 -1.22348 67 62 133 255 
4.62229 -4.80812 -1.2241 62 76 138 255 
4.38952 -4.56935 -1.22244 61 77 138 255 
4.1476 -4.31895 -1.215 62 73 137 255 
3.99947 -4.16772 -1.23095 64 69 136 255 
3.83009 -3.98824 -1.22688 63 71 136 255 
3.66342 -3.81617 -1.22518 65 66 135 255 
3.50709 -3.65453 -1.22444 65 66 135 255 
3.34591 -3.48423 -1.21875 66 63 133 255 
3.23318 -3.37256 -1.22132 63 72 137 255 
3.1223 -3.25704 -1.22416 66 64 134 255 
3.00643 -3.13391 -1.22398 65 66 135 255 
2.89583 -3.01344 -1.22449 67 61 132 255 
8.58172 -8.98989 3.73342 71 44 122 255 
8.91099 -9.3188 3.72887 63 72 137 255 
9.04365 -9.45076 3.64481 60 80 139 255 
9.15495 -9.56745 3.5556 72 32 113 255 
10.224 -10.6991 3.84098 72 35 116 255 
8.95952 -9.37282 3.22803 60 80 139 255 
10.2705 -10.7478 3.54982 62 76 138 255 
11.8574 -12.4133 3.93166 72 24 106 255 
11.2188 -11.736 3.58153 70 11 94 255 
11.3712 -11.8999 3.45953 69 53 129 255 
11.5089 -12.0564 3.33962 72 38 119 255 
8.84587 -9.27351 2.44476 55 91 141 255 
8.98122 -9.39527 2.37141 52 97 141 255 
9.42876 -9.8706 2.35536 72 41 121 255 
9.09307 -9.53233 2.14313 60 80 139 255 
8.93064 -9.37873 1.98634 67 61 132 255 
10.1865 -10.6599 2.14047 71 47 125 255 
9.10483 -9.53482 1.78485 69 56 130 255 
10.2464 -10.7527 1.86846 63 72 137 255 
10.5787 -11.1172 1.78917 69 56 130 255 
10.9359 -11.4441 1.7168 61 77 138 255 
24.0243 -25.1853 3.44343 71 14 97 255 
20.1866 -21.1913 2.61718 71 16 99 255 
23.9447 -25.19 2.78408 70 7 90 255 
20.4406 -21.3978 2.13675 71 19 101 255 
20.2266 -21.2114 1.83885 72 33 115 255 
20.1316 -21.1558 1.55605 72 20 103 255 
20.0546 -21.1123 1.27646 72 31 112 255 
20.1122 -21.0688 1.04768 72 28 110 255 
19.7435 -20.7194 0.759436 72 28 110 255 
19.7731 -20.7863 0.490748 71 13 96 255 
19.8132 -20.8728 0.226035 71 17 100 255 
19.2744 -20.1982 -0.00487278 72 28 110 255 
0 -0 -0 68 1 84 255 
13.4423 -14.1409 -0.367808 72 24 106 255 
13.6038 -14.3413 -0.55905 70 8 92 255 
41.2832 -43.3072 -2.17301 69 5 89 255 
24.9857 -26.2572 -1.65223 71 13 96 255 
18.5068 -19.4756 -1.47854 72 32 113 255 
12.6186 -13.3074 -1.18271 72 20 103 255 
11.2002 -11.7534 -1.178 72 23 105 255 
9.97299 -10.4879 -1.18478 72 41 121 255 
9.07752 -9.5627 -1.20458 67 61 132 255 
8.2981 -8.75102 -1.21648 60 80 139 255 
7.71928 -8.10904 -1.2202 71 42 122 255 
7.07167 -7.43936 -1.21666 71 45 123 255 
6.56613 -6.91949 -1.22198 66 64 134 255 
6.14416 -6.48404 -1.22998 70 50 126 255 
5.75091 -6.04761 -1.21896 69 55 129 255 
5.40617 -5.69124 -1.2208 67 61 132 255 
5.10361 -5.38015 -1.22368 64 70 136 255 
4.81733 -5.08381 -1.22486 67 61 132 255 
4.59541 -4.83924 -1.22482 60 80 139 255 
4.36005 -4.59477 -1.22207 60 79 138 255 
4.12372 -4.34716 -1.2158 62 74 137 255 
3.96911 -4.18721 -1.22949 61 78 138 255 
3.80689 -4.01308 -1.22731 61 77 138 255 
3.63659 -3.83504 -1.22405 63 72 137 255 
3.4846 -3.67598 -1.22444 63 72 137 255 
3.35516 -3.53706 -1.23 62 74 137 255 
3.20644 -3.38601 -1.21904 66 63 133 255 
3.08899 -3.26212 -1.21892 66 64 134 255 
2.98118 -3.14601 -1.22154 65 66 135 255 
2.87794 -3.03185 -1.22477 69 55 129 255 
8.42981 -8.93995 3.69112 66 64 134 255 
8.46116 -8.95778 3.56357 70 50 126 255 
8.20863 -8.68421 3.32969 60 80 139 255 
10.5788 -11.1921 4.13519 72 38 119 255 
10.1881 -10.7933 3.85228 72 41 121 255 
8.80591 -9.32602 3.19325 64 69 136 255 
8.94117 -9.47242 3.11039 67 61 132 255 
11.9978 -12.7156 4.00399 72 28 110 255 
11.1386 -11.7961 3.57894 72 31 112 255 
11.5337 -12.2192 3.53173 72 40 120 255 
8.78709 -9.31895 2.56635 69 53 129 255 
8.80766 -9.34763 2.45001 61 77 138 255 
8.89436 -9.41944 2.36369 57 86 140 255 
9.52559 -10.0953 2.39498 57 86 140 255 
8.87873 -9.42273 2.1062 72 29 111 255 
8.85193 -9.41103 1.98164 56 89 140 255 
8.93556 -9.46638 1.88977 61 78 138 255 
9.32969 -9.89111 1.8408 72 20 103 255 
10.2299 -10.8681 1.87757 71 46 124 255 
10.247 -10.9018 1.74436 69 56 130 255 
10.8778 -11.524 1.71874 69 53 129 255 
10.827 -11.4906 1.56193 61 77 138 255 
10.8233 -11.5025 1.41235 72 36 117 255 
20.0308 -21.3332 2.34419 72 24 106 255 
20.1022 -21.3038 2.115 71 16 99 255 
19.9797 -21.2116 1.82821 71 17 100 255 
23.3663 -24.8587 1.81783 70 11 94 255 
19.9883 -21.3028 1.28053 72 26 108 255 
20.0812 -21.2965 1.05286 70 11 94 255 
19.8606 -21.1 0.768906 72 24 106 255 
20.0978 -21.3889 0.502053 71 17 100 255 
33.0209 -35.2171 0.379171 69 4 87 255 
19.4629 -20.6479 -0.00495237 69 4 87 255 
13.1658 -13.9972 -0.184467 71 45 123 255 
13.1109 -13.963 -0.36108 69 55 129 255 
13.0987 -13.9796 -0.541805 66 64 134 255 
13.1201 -13.9335 -0.695083 72 26 108 255 
13.1212 -13.9595 -0.873315 71 45 123 255 
13.1047 -13.9612 -1.05378 68 58 131 255 
12.5429 -13.3911 -1.18329 71 16 99 255 
11.134 -11.8284 -1.17866 72 22 104 255 
10.0429 -10.692 -1.20085 72 37 118 255 
9.12153 -9.72791 -1.21832 70 52 128 255 
8.27825 -8.83808 -1.2215 59 82 139 255 
7.68504 -8.17291 -1.22269 71 44 122 255 
7.06396 -7.52315 -1.22325 71 45 123 255 
6.54526 -6.98281 -1.22605 70 48 126 255 
6.09681 -6.51366 -1.22848 71 47 125 255 
5.72656 -6.09648 -1.2217 66 63 133 255 
5.39075 -5.7452 -1.22526 68 59 132 255 
5.09749 -5.44016 -1.23019 64 69 136 255 
4.79008 -5.11759 -1.22589 66 64 134 255 
4.57438 -4.87667 -1.22717 60 79 138 255 
4.32774 -4.61714 -1.22093 62 74 137 255 
4.11305 -4.38954 -1.22057 60 79 138 255 
3.94602 -4.21434 -1.23033 64 70 136 255 
3.78887 -4.04349 -1.22948 61 77 138 255 
3.59367 -3.83666 -1.21751 62 73 137 255 
3.46397 -3.69942 -1.22515 61 77 138 255 
3.33141 -3.55545 -1.22927 64 69 136 255 
3.18362 -3.4035 -1.21829 63 71 136 255 
3.07419 -3.28665 -1.22102 67 61 132 255 
2.95261 -3.15441 -1.21774 66 63 133 255 
2.85863 -3.04875 -1.22449 69 56 130 255 
8.77559 -9.42181 3.86777 70 52 128 255 
8.19239 -8.78055 3.473 69 53 129 255 
8.21042 -8.79356 3.35224 63 72 137 255 
8.26571 -8.85313 3.25219 71 14 97 255 
8.36055 -8.9668 3.18201 65 66 135 255 
8.63004 -9.25286 3.15 61 78 138 255 
8.87558 -9.51927 3.10783 63 71 136 255 
11.3134 -12.1386 3.80039 72 40 120 255 
11.1685 -11.9742 3.61211 71 19 101 255 
11.2136 -12.0271 3.45624 70 7 90 255 
9.37129 -10.0615 2.75495 70 52 128 255 
8.75282 -9.40437 2.45076 68 57 131 255 
10.5937 -11.358 2.83377 70 52 128 255 
9.4675 -10.1579 2.396 60 80 139 255 
8.78107 -9.4344 2.09673 72 28 110 255 
8.77518 -9.44489 1.9774 65 68 135 255 
8.84761 -9.48918 1.88345 56 89 140 255 
9.10873 -9.77634 1.809 71 16 99 255 
10.1833 -10.9525 1.88132 72 29 111 255 
10.2989 -11.0926 1.76474 72 40 120 255 
10.8618 -11.6494 1.72748 72 38 119 255 
10.6892 -11.4847 1.55218 72 26 108 255 
19.9379 -21.4513 2.61887 71 14 97 255 
19.9294 -21.4879 2.3477 70 8 92 255 
25.606 -27.4723 2.71176 70 7 90 255 
23.0396 -24.7629 2.12207 71 19 101 255 
23.672 -25.4956 1.85375 70 10 93 255 
23.0021 -24.8183 1.48334 72 26 108 255 
23.2482 -24.9602 1.22691 70 11 94 255 
22.8007 -24.5232 0.888538 72 20 103 255 
19.9872 -21.5345 0.502583 72 24 106 255 
33.7011 -36.3874 0.389538 69 5 89 255 
33.4484 -35.9241 -0.00856695 69 5 89 255 
13.0524 -14.0484 -0.184083 71 13 96 255 
0 -0 -0 68 1 84 255 
0 -0 -0 68 1 84 255 
12.9989 -13.9757 -0.693196 71 13 96 255 
26.929 -29.0041 -1.80414 69 5 89 255 
18.3622 -19.8044 -1.48629 72 28 110 255 
12.5492 -13.5638 -1.19172 71 19 101 255 
11.0952 -11.933 -1.18227 72 24 106 255 
10.0238 -10.8038 -1.20648 72 35 116 255 
8.85934 -9.56524 -1.19111 69 53 129 255 
8.259 -8.92669 -1.22672 66 65 134 255 
7.65504 -8.24176 -1.22594 71 42 122 255 
7.03252 -7.58237 -1.22584 71 42 122 255 
6.51374 -7.03521 -1.22821 70 48 126 255 
6.0695 -6.56477 -1.23108 70 48 126 255 
5.72943 -6.17503 -1.23037 69 56 130 255 
5.3554 -5.77817 -1.22526 68 57 131 255 
5.05664 -5.46337 -1.2284 64 69 136 255 
4.78267 -5.17292 -1.2321 66 64 134 255 
4.53568 -4.89527 -1.22482 62 73 137 255 
4.30267 -4.64721 -1.22188 62 74 137 255 
4.08537 -4.41398 -1.22037 61 78 138 255 
3.91942 -4.23776 -1.23012 53 95 141 255 
3.75404 -4.05592 -1.22623 64 70 136 255 
3.57337 -3.86222 -1.21863 63 72 137 255 
3.45573 -3.7363 -1.23032 63 72 137 255 
3.31414 -3.58081 -1.23098 63 71 136 255 
3.16464 -3.42511 -1.21904 67 62 133 255 
3.05462 -3.30616 -1.22128 67 61 132 255 
2.93843 -3.17812 -1.21991 67 62 133 255 
2.84248 -3.06905 -1.22562 68 59 132 255 
8.98088 -9.76163 3.98457 66 63 133 255 
8.15594 -8.84972 3.4805 72 28 110 255 
8.83551 -9.58022 3.63139 72 41 121 255 
8.28391 -8.98249 3.28098 64 69 136 255 
8.3198 -9.0336 3.18754 62 73 137 255 
8.36928 -9.08439 3.07511 61 78 138 255 
8.38014 -9.09921 2.95385 51 98 141 255 
8.84019 -9.60245 2.98932 72 31 112 255 
11.5011 -12.4835 3.74438 70 48 126 255 
11.4571 -12.4405 3.55477 71 45 123 255 
9.2742 -10.0806 2.74454 71 44 122 255 
9.3305 -10.1492 2.6299 69 53 129 255 
10.5139 -11.4119 2.83108 70 51 127 255 
9.45038 -10.2651 2.40756 61 77 138 255 
10.3757 -11.2857 2.49398 69 56 130 255 
9.88531 -10.7715 2.2424 71 45 123 255 
8.89648 -9.65976 1.90644 72 37 118 255 
8.72915 -9.48497 1.74514 50 100 142 255 
8.93741 -9.73152 1.66214 65 66 135 255 
9.12558 -9.95066 1.57412 70 50 126 255 
10.1112 -10.9787 1.61879 70 10 93 255 
23.5795 -25.6481 3.44678 71 13 96 255 
24.2719 -26.4377 3.20939 70 7 90 255 
23.5309 -25.6853 2.79047 71 19 101 255 
22.7374 -24.6968 2.42397 71 14 97 255 
22.892 -24.909 2.12251 71 17 100 255 
22.7214 -24.7749 1.79117 72 24 106 255 
23.0349 -25.1616 1.49538 70 11 94 255 
23.1054 -25.1141 1.22749 71 17 100 255 
22.7471 -24.7687 0.892358 71 19 101 255 
19.9541 -21.7651 0.505097 70 8 92 255 
35.5615 -38.8719 0.413791 69 5 89 255 
33.2206 -36.1213 -0.0085652 69 4 87 255 
0 -0 -0 68 1 84 255 
0 -0 -0 68 1 84 255 
0 -0 -0 68 1 84 255 
0 -0 -0 68 1 84 255 
23.2017 -25.2991 -1.5648 70 10 93 255 
18.3131 -19.9963 -1.49223 72 29 111 255 
12.5095 -13.6884 -1.1959 71 14 97 255 
11.048 -12.0295 -1.1851 72 22 104 255 
9.97488 -10.8842 -1.2086 72 35 116 255 
8.98063 -9.81634 -1.2155 69 53 129 255 
8.21817 -8.99262 -1.22883 60 80 139 255 
7.61508 -8.30029 -1.22767 72 41 121 255 
6.9919 -7.63197 -1.2269 71 45 123 255 
6.50861 -7.11677 -1.23545 70 50 126 255 
6.06318 -6.63919 -1.23803 70 51 127 255 
5.69143 -6.21007 -1.23037 66 64 134 255 
5.32852 -5.82039 -1.22725 68 58 131 255 
5.02169 -5.49284 -1.22807 65 68 135 255 
4.75416 -5.20581 -1.23296 67 61 132 255 
4.50688 -4.92446 -1.22518 63 72 137 255 
4.29263 -4.69381 -1.22718 62 76 138 255 
4.06813 -4.44981 -1.22335 60 79 138 255 
3.88675 -4.2545 -1.22803 55 90 140 255 
3.7192 -4.06807 -1.22298 64 70 136 255 
3.56538 -3.90133 -1.22405 62 73 137 255 
3.44585 -3.77179 -1.23502 64 69 136 255 
3.30715 -3.61754 -1.23661 65 66 135 255 
3.1514 -3.45304 -1.22208 65 68 135 255 
3.04403 -3.33553 -1.22521 66 64 134 255 
2.93315 -3.21173 -1.22588 66 64 134 255 
2.83266 -3.09635 -1.22955 69 53 129 255 
8.89183 -9.78466 3.97163 71 44 122 255 
7.76069 -8.52523 3.33409 51 98 141 255 
8.08891 -8.87941 3.34687 72 35 116 255 
8.16816 -8.96675 3.25686 69 55 129 255 
9.9108 -10.8945 3.82264 72 41 121 255 
8.28922 -9.10902 3.06617 64 70 136 255 
8.3824 -9.21449 2.97452 66 64 134 255 
8.6788 -9.54401 2.95449 71 47 125 255 
11.3244 -12.4441 3.71164 72 38 119 255 
11.3845 -12.5149 3.556 66 63 133 255 
11.0684 -12.18 3.29757 71 42 122 255 
10.8238 -11.9196 3.07137 72 31 112 255 
10.396 -11.4238 2.81816 72 20 103 255 
10.8445 -11.9253 2.7813 72 31 112 255 
9.81191 -10.8048 2.37435 72 31 112 255 
9.02174 -9.95245 2.06032 72 41 121 255 
9.97714 -10.9674 2.15239 72 38 119 255 
8.67345 -9.54128 1.74568 57 85 140 255 
8.8062 -9.70754 1.64879 59 82 139 255 
8.84696 -9.76648 1.53637 60 79 138 255 
24.1107 -26.5038 3.88604 71 14 97 255 
23.3481 -25.7113 3.43595 71 16 99 255 
24.1105 -26.5876 3.20957 70 11 94 255 
22.8317 -25.2313 2.72587 71 13 96 255 
22.5888 -24.8395 2.42433 71 14 97 255 
24.8149 -27.3361 2.3163 71 16 99 255 
22.5904 -24.9375 1.79288 71 19 101 255 
22.5431 -24.9297 1.47335 71 16 99 255 
22.9724 -25.2791 1.22864 70 7 90 255 
27.4225 -30.2298 1.08303 69 4 87 255 
33.6966 -37.2108 0.858727 69 4 87 255 
0 -0 0 68 2 86 255 
33.6055 -36.9928 -0.00872281 70 7 90 255 
0 -0 -0 68 2 86 255 
0 -0 -0 68 2 86 255 
0 -0 -0 68 1 84 255 
0 -0 -0 68 2 86 255 
21.299 -23.5124 -1.44617 70 8 92 255 
18.2296 -20.1519 -1.49547 72 32 113 255 
12.4146 -13.753 -1.19487 71 17 100 255 
11.0002 -12.1259 -1.18792 72 22 104 255 
9.95339 -10.9955 -1.21415 72 32 113 255 
9.0324 -9.99539 -1.23078 70 52 128 255 
8.17817 -9.05986 -1.23114 61 77 138 255 
7.56201 -8.34465 -1.22735 71 42 122 255 
6.98492 -7.71891 -1.23396 70 48 126 255 
6.46083 -7.15216 -1.23469 70 52 128 255 
6.02432 -6.67848 -1.23844 71 46 124 255 
5.65721 -6.24927 -1.23124 69 56 130 255 
5.30264 -5.86397 -1.22956 68 59 132 255 
4.99914 -5.536 -1.23084 65 66 135 255 
4.72542 -5.23854 -1.23382 66 64 134 255 
4.48252 -4.95859 -1.22681 60 80 139 255 
4.26769 -4.72443 -1.22832 64 69 136 255 
4.05323 -4.48851 -1.22713 55 91 141 255 
3.86777 -4.28626 -1.23033 53 95 141 255 
3.70399 -4.10168 -1.22623 65 66 135 255 
3.55835 -3.94194 -1.22992 61 78 138 255 
3.40376 -3.77194 -1.2282 64 69 136 255 
3.29789 -3.65215 -1.2415 66 65 134 255 
3.1444 -3.48812 -1.22764 64 69 136 255 
3.03062 -3.36203 -1.22809 66 65 134 255 
2.92693 -3.24467 -1.23158 66 64 134 255 
2.81232 -3.11224 -1.22899 67 61 132 255 
7.67945 -8.55543 3.45349 70 48 126 255 
7.69603 -8.55912 3.32881 46 110 142 255 
9.13481 -10.1519 3.80533 62 74 137 255 
8.95212 -9.94931 3.59372 68 57 131 255 
9.84377 -10.9551 3.82264 72 41 121 255 
8.21955 -9.14456 3.0611 60 80 139 255 
8.36926 -9.31422 2.99008 59 82 139 255 
8.49437 -9.45712 2.9114 66 64 134 255 
8.82724 -9.82036 2.91287 72 28 110 255 
11.3134 -12.591 3.55785 72 41 121 255 
9.16944 -10.2155 2.75043 68 59 132 255 
8.66021 -9.6553 2.47418 53 94 141 255 
10.4329 -11.6066 2.84741 70 50 126 255 
10.3859 -11.5628 2.68183 72 26 108 255 
9.40931 -10.4901 2.29246 71 42 122 255 
8.75347 -9.77639 2.01272 69 55 129 255 
8.7614 -9.75054 1.90299 57 85 140 255 
8.74715 -9.74179 1.77251 51 98 141 255 
8.99211 -10.0355 1.6951 64 69 136 255 
8.76236 -9.79319 1.53209 67 62 133 255 
10.5505 -11.7416 1.71206 70 51 127 255 
23.3082 -25.9859 3.45348 71 17 100 255 
23.6313 -26.3827 3.16726 70 10 93 255 
23.2703 -26.0353 2.79726 71 16 99 255 
22.9311 -25.5289 2.47784 71 16 99 255 
22.8924 -25.5313 2.15143 71 16 99 255 
22.3431 -24.9708 1.78537 72 23 105 255 
22.3504 -25.0236 1.47077 72 22 104 255 
22.8015 -25.4024 1.22781 71 19 101 255 
22.785 -25.4294 0.906018 70 7 90 255 
23.6296 -26.4179 0.606298 69 5 89 255 
0 -0 0 68 2 86 255 
0 -0 -0 68 2 86 255 
0 -0 -0 68 2 86 255 
0 -0 -0 68 2 86 255 
0 -0 -0 68 2 86 255 
0 -0 -0 68 1 84 255 
21.1403 -23.627 -1.44522 70 8 92 255 
18.1768 -20.3431 -1.50135 72 29 111 255 
12.3878 -13.8938 -1.20047 71 14 97 255 
10.9788 -12.2526 -1.19371 72 24 106 255 
9.89238 -11.0638 -1.21497 72 35 116 255 
8.97886 -10.0595 -1.23187 71 44 122 255 
8.14759 -9.13809 -1.23495 60 80 139 255 
7.5226 -8.40423 -1.2293 71 45 123 255 
6.92485 -7.74756 -1.23172 70 48 126 255 
6.4122 -7.18648 -1.2338 71 47 125 255 
5.99707 -6.73085 -1.24131 71 46 124 255 
5.62865 -6.29493 -1.23341 66 64 134 255 
5.27512 -5.90598 -1.23156 66 64 134 255 
4.97098 -5.5732 -1.2323 66 65 134 255 
4.6945 -5.26891 -1.23416 67 62 133 255 
4.46904 -5.00507 -1.2315 63 71 136 255 
4.24451 -4.75712 -1.23002 62 74 137 255 
4.02561 -4.5133 -1.22713 61 77 138 255 
3.84726 -4.31648 -1.2322 54 93 141 255 
3.69304 -4.14036 -1.23099 56 88 140 255 
3.52891 -3.95788 -1.22811 63 71 136 255 
3.37796 -3.78985 -1.22726 63 72 137 255 
3.2496 -3.64338 -1.23171 65 68 135 255 
3.12165 -3.5059 -1.22714 63 71 136 255 
3.01635 -3.38777 -1.23071 67 62 133 255 
2.8884 -3.24173 -1.22371 66 64 134 255 
2.78359 -3.1187 -1.22477 66 63 133 255 
7.64905 -8.62748 3.46356 59 81 139 255 
7.65357 -8.61767 3.33326 57 85 140 255 
7.70225 -8.66623 3.23065 65 66 135 255 
10.2767 -11.5634 4.15386 72 40 120 255 
8.83638 -9.95619 3.45509 60 80 139 255 
8.32757 -9.37986 3.1227 64 70 136 255 
8.37329 -9.43451 3.01214 66 65 134 255 
8.65612 -9.75698 2.98731 63 71 136 255 
8.654 -9.74728 2.87539 60 79 138 255 
8.62396 -9.71712 2.73076 62 76 138 255 
8.80282 -9.92894 2.65869 69 53 129 255 
8.59169 -9.69796 2.47156 56 88 140 255 
8.61299 -9.70109 2.36692 63 71 136 255 
9.28207 -10.4623 2.41334 70 51 127 255 
9.35851 -10.5632 2.29583 72 38 119 255 
8.88322 -10.0446 2.05669 68 59 132 255 
8.7106 -9.81448 1.905 51 99 141 255 
8.69839 -9.80788 1.77479 52 96 141 255 
8.83962 -9.988 1.67787 71 46 124 255 
8.70145 -9.84603 1.53197 66 65 134 255 
10.4143 -11.734 1.7016 68 59 132 255 
10.3718 -11.7071 1.54736 59 82 139 255 
23.2261 -26.2526 3.13449 71 14 97 255 
23.0745 -26.1372 2.79295 70 11 94 255 
22.5437 -25.4095 2.45277 72 20 103 255 
22.4501 -25.3493 2.12445 72 20 103 255 
24.0787 -27.2451 1.93739 70 10 93 255 
0 -0 0 69 4 87 255 
22.6485 -25.5456 1.22799 71 17 100 255 
0 -0 0 68 2 86 255 
23.4095 -26.4972 0.60481 70 8 92 255 
34.8519 -39.5333 0.413932 70 7 90 255 
33.1046 -37.3523 -0.00871111 69 5 89 255 
0 -0 -0 68 2 86 255 
0 -0 -0 68 2 86 255 
0 -0 -0 68 1 84 255 
0 -0 -0 68 1 84 255 
27.4158 -31.0216 -1.8872 70 7 90 255 
18.3364 -20.7769 -1.52503 72 20 103 255 
12.3313 -14.0025 -1.2033 72 22 104 255 
10.9318 -12.3518 -1.19682 72 22 104 255 
9.81243 -11.1108 -1.2135 72 35 116 255 
8.9354 -10.1354 -1.23442 72 41 121 255 
8.14463 -9.24839 -1.24308 63 72 137 255 
7.50579 -8.4897 -1.23504 72 41 121 255 
6.89755 -7.81298 -1.23537 71 47 125 255 
6.37651 -7.23537 -1.23545 71 47 125 255 
5.9694 -6.78314 -1.24417 71 46 124 255 
5.60171 -6.3427 -1.23601 67 62 133 255 
5.23617 -5.93527 -1.23094 65 66 135 255 
4.93539 -5.60211 -1.23198 65 66 135 255 
4.66404 -5.29983 -1.23468 67 61 132 255 
4.43304 -5.0265 -1.23006 65 68 135 255 
4.2094 -4.77645 -1.22832 63 72 137 255 
3.99007 -4.52909 -1.22475 60 80 139 255 
3.82199 -4.34148 -1.23262 55 91 141 255 
3.67467 -4.171 -1.23338 54 92 141 255 
3.49232 -3.96557 -1.22382 62 74 137 255 
3.35785 -3.81415 -1.22844 66 65 134 255 
3.2368 -3.67416 -1.23538 65 66 135 255 
3.11286 -3.53952 -1.2322 64 70 136 255 
3.0108 -3.42361 -1.23699 66 63 133 255 
2.88435 -3.27745 -1.23049 64 69 136 255 
2.77265 -3.14508 -1.22843 67 62 133 255 
7.57388 -8.64903 3.45349 72 37 118 255 
7.59802 -8.66158 3.33215 55 91 141 255 
7.67816 -8.74663 3.243 71 47 125 255 
8.8867 -10.1237 3.61706 67 62 133 255 
8.79618 -10.0342 3.46338 67 61 132 255 
8.66908 -9.88605 3.27345 68 58 131 255 
8.29665 -9.4645 3.00541 64 69 136 255 
8.60701 -9.82237 2.99111 68 59 132 255 
8.57407 -9.77744 2.86871 72 28 110 255 
8.76673 -10.0009 2.79535 66 64 134 255 
8.56022 -9.77548 2.60348 68 59 132 255 
8.52555 -9.7431 2.46969 58 84 140 255 
8.52541 -9.72195 2.3592 64 70 136 255 
9.90677 -11.3054 2.59375 72 23 105 255 
9.35722 -10.6932 2.31157 72 36 117 255 
9.37609 -10.734 2.186 71 46 124 255 
8.68545 -9.90792 1.91276 54 93 141 255 
8.73926 -9.97661 1.79559 58 84 140 255 
8.69916 -9.95166 1.66277 60 79 138 255 
8.74734 -10.0212 1.55085 54 93 141 255 
10.0065 -11.415 1.64639 72 23 105 255 
10.1576 -11.608 1.526 69 53 129 255 
9.96589 -11.4048 1.35437 70 52 128 255 
22.8725 -26.231 2.78792 71 14 97 255 
22.9921 -26.2375 2.51903 71 14 97 255 
22.7607 -26.0199 2.1689 72 22 104 255 
23.0187 -26.37 1.86508 70 7 90 255 
23.2913 -26.7301 1.55415 70 7 90 255 
23.3657 -26.6825 1.27572 70 11 94 255 
27.9009 -31.9186 1.12494 70 7 90 255 
23.1511 -26.5311 0.60233 71 14 97 255 
33.2152 -38.1462 0.397266 69 5 89 255 
0 -0 -0 68 2 86 255 
0 -0 -0 68 2 86 255 
0 -0 -0 68 2 86 255 
0 -0 -0 68 2 86 255 
0 -0 -0 68 1 84 255 
19.0948 -21.8753 -1.32363 70 10 93 255 
18.3332 -21.032 -1.53547 72 23 105 255 
12.3224 -14.1667 -1.2109 71 19 101 255 
10.8591 -12.4224 -1.19718 72 22 104 255 
9.74669 -11.1738 -1.21382 72 31 112 255 
8.89332 -10.2133 -1.23724 71 42 122 255 
8.13344 -9.35074 -1.25011 63 71 136 255 
7.47448 -8.55956 -1.23851 72 40 120 255 
6.88146 -7.89183 -1.24114 71 44 122 255 
6.37302 -7.32149 -1.24345 72 38 119 255 
5.94976 -6.84506 -1.24881 70 48 126 255 
5.55293 -6.36577 -1.23384 68 59 132 255 
5.21004 -5.97921 -1.2334 67 61 132 255 
4.90934 -5.64196 -1.2341 66 64 134 255 
4.63401 -5.33132 -1.23537 67 62 133 255 
4.39372 -5.04396 -1.22771 64 70 136 255 
4.16196 -4.78145 -1.22301 62 73 137 255 
3.9622 -4.55348 -1.22475 50 102 142 255 
3.80491 -4.37592 -1.23574 53 94 141 255 
3.64709 -4.19126 -1.23273 62 73 137 255 
3.48199 -4.00309 -1.22879 61 78 138 255 
3.33311 -3.83321 -1.22797 65 66 135 255 
3.20146 -3.67932 -1.23049 65 66 135 255 
3.09362 -3.56147 -1.23321 64 69 136 255 
2.991 -3.44348 -1.23751 63 71 136 255 
2.84335 -3.27112 -1.22154 66 64 134 255 
2.75456 -3.16348 -1.22899 67 61 132 255 
7.27132 -8.40704 3.33899 72 29 111 255 
7.49881 -8.65504 3.31186 58 83 139 255 
10.2066 -11.7718 4.34135 71 44 122 255 
8.84339 -10.2 3.62484 72 31 112 255 
8.72621 -10.0785 3.46012 72 38 119 255 
10.2569 -11.8425 3.90036 65 66 135 255 
8.26198 -9.54243 3.014 70 51 127 255 
10.7135 -12.3788 3.74949 72 40 120 255 
8.4551 -9.76195 2.84889 65 68 135 255 
8.54122 -9.86513 2.74269 57 85 140 255 
8.52701 -9.85897 2.61173 72 29 111 255 
9.09443 -10.5228 2.65313 72 41 121 255 
9.84583 -11.3676 2.74385 72 27 109 255 
9.31356 -10.761 2.45568 72 22 104 255 
9.22689 -10.6757 2.29551 71 19 101 255 
9.22095 -10.688 2.16508 72 20 103 255 
8.62319 -9.95953 1.91247 51 99 141 255 
9.12915 -10.5516 1.88896 64 69 136 255 
8.62302 -9.98758 1.6599 60 80 139 255 
8.64288 -10.025 1.5432 61 77 138 255 
9.63891 -11.1327 1.59712 70 51 127 255 
10.1024 -11.6889 1.52846 70 52 128 255 
9.87034 -11.4363 1.3509 71 44 122 255 
22.8223 -26.5 2.80157 70 10 93 255 
22.6617 -26.1828 2.50038 70 8 92 255 
22.7931 -26.3819 2.18738 72 29 111 255 
22.6197 -26.2362 1.84576 71 17 100 255 
23.1724 -26.9255 1.55722 70 7 90 255 
23.2283 -26.8564 1.2772 70 8 92 255 
23.0232 -26.667 0.934852 71 17 100 255 
27.7445 -32.1917 0.726963 69 4 87 255 
32.6806 -38.0005 0.393653 70 8 92 255 
32.5901 -37.6937 -0.0086968 69 5 89 255 
0 -0 -0 68 1 84 255 
0 -0 -0 68 2 86 255 
0 -0 -0 68 2 86 255 
0 -0 -0 68 2 86 255 
18.8415 -21.8543 -1.31535 71 16 99 255 
18.2501 -21.1978 -1.53937 72 20 103 255 
12.2665 -14.2784 -1.21399 71 14 97 255 
10.7944 -12.5024 -1.19848 72 22 104 255 
9.72869 -11.2923 -1.22019 72 31 112 255 
8.88048 -10.3258 -1.24425 71 42 122 255 
8.10508 -9.43443 -1.25462 69 56 130 255 
7.42766 -8.61203 -1.23948 72 40 120 255 
6.84458 -7.94745 -1.24326 72 41 121 255 
6.35902 -7.39656 -1.24955 71 47 125 255 
5.90765 -6.88144 -1.24881 71 45 123 255 
5.51376 -6.39972 -1.23384 68 59 132 255 
5.19323 -6.03428 -1.23817 67 62 133 255 
4.89264 -5.69293 -1.23865 68 58 131 255 
4.59993 -5.35816 -1.23502 67 61 132 255 
4.36204 -5.07008 -1.22753 59 81 139 255 
4.13574 -4.81062 -1.22396 62 76 138 255 
3.93738 -4.58143 -1.22574 48 105 142 255 
3.76461 -4.3836 -1.23137 55 90 140 255 
3.62575 -4.21874 -1.23424 54 93 141 255 
3.47069 -4.0399 -1.23353 63 71 136 255 
3.31586 -3.86097 -1.23032 66 65 134 255 
3.18768 -3.70919 -1.23392 65 66 135 255 
3.06856 -3.57672 -1.23194 63 72 137 255 
2.96102 -3.45151 -1.23385 66 64 134 255 
2.82699 -3.29289 -1.22317 66 64 134 255 
2.74073 -3.18687 -1.23152 66 63 133 255 
7.23639 -8.47116 3.34675 53 94 141 255 
7.76472 -9.07385 3.45383 70 52 128 255 
10.0321 -11.715 4.2976 72 32 113 255 
10.3379 -12.0726 4.26771 70 51 127 255 
10.3218 -12.0703 4.1221 72 26 108 255 
10.0711 -11.7732 3.85712 67 62 133 255 
8.06293 -9.42884 2.96244 70 48 126 255 
10.5772 -12.3739 3.72828 72 36 117 255 
8.5785 -10.0281 2.91115 72 35 116 255 
8.52187 -9.9657 2.75606 62 73 137 255 
8.48865 -9.9372 2.61861 62 73 137 255 
9.10048 -10.6613 2.67393 69 56 130 255 
9.22146 -10.7797 2.58823 62 73 137 255 
9.60273 -11.2336 2.55005 72 20 103 255 
9.19197 -10.7682 2.30322 72 24 106 255 
9.0757 -10.6511 2.14628 71 45 123 255 
8.70985 -10.1852 1.94552 70 50 126 255 
9.07196 -10.6165 1.89057 58 84 140 255 
8.57316 -10.0539 1.66214 65 68 135 255 
9.79633 -11.5049 1.76173 72 33 115 255 
8.55665 -10.0061 1.42794 60 80 139 255 
9.76173 -11.4358 1.4875 72 24 106 255 
9.81097 -11.5095 1.35241 70 11 94 255 
22.193 -26.0913 2.74392 70 11 94 255 
22.5304 -26.3562 2.50369 71 14 97 255 
22.7299 -26.6374 2.19696 71 17 100 255 
22.5774 -26.5144 1.85556 72 22 104 255 
23.0197 -27.0824 1.55809 70 8 92 255 
22.8801 -26.7841 1.26706 71 17 100 255 
22.7281 -26.6541 0.929494 72 24 106 255 
23.7026 -27.8456 0.625522 70 10 93 255 
0 -0 0 69 4 87 255 
33.7596 -39.534 -0.00907344 70 8 92 255 
0 -0 -0 68 2 86 255 
0 -0 -0 68 1 84 255 
0 -0 -0 68 1 84 255 
0 -0 -0 68 2 86 255 
18.6831 -21.9414 -1.31366 71 14 97 255 
18.7988 -22.1081 -1.59707 70 10 93 255 
12.2096 -14.3899 -1.21708 72 20 103 255 
10.7777 -12.639 -1.20521 72 28 110 255 
9.65922 -11.3518 -1.22019 72 28 110 255 
8.82083 -10.3846 -1.24479 72 36 117 255 
8.06185 -9.50144 -1.25693 71 47 125 255 
7.38499 -8.66956 -1.24122 72 38 119 255 
6.82592 -8.02485 -1.24879 72 41 121 255 
6.3347 -7.46039 -1.25375 72 41 121 255 
5.84738 -6.8964 -1.24499 71 44 122 255 
5.48593 -6.447 -1.23644 69 56 130 255 
5.16955 -6.08184 -1.24139 69 56 130 255 
4.85634 -5.72134 -1.23833 66 65 134 255 
4.56697 -5.38629 -1.23502 70 51 127 255 
4.34932 -5.11849 -1.23277 64 69 136 255 
4.1106 -4.84115 -1.22529 63 72 137 255 
3.93457 -4.63539 -1.2337 50 100 142 255 
3.73258 -4.40065 -1.2297 57 85 140 255 
3.60738 -4.24984 -1.23684 53 95 141 255 
3.44899 -4.06483 -1.23465 62 76 138 255 
3.30657 -3.89829 -1.23572 61 77 138 255 
3.16486 -3.72868 -1.23392 65 68 135 255 
3.05281 -3.60286 -1.23447 65 68 135 255 
2.93854 -3.46814 -1.23332 67 62 133 255 
2.82042 -3.32632 -1.22914 66 63 133 255 
2.72858 -3.21241 -1.2349 64 70 136 255 
7.94081 -9.4121 3.69918 68 57 131 255 
8.06421 -9.54173 3.61302 67 61 132 255 
10.1018 -11.944 4.3588 70 48 126 255 
8.56975 -10.133 3.56338 72 40 120 255 
8.86543 -10.4969 3.56614 66 64 134 255 
9.95858 -11.7874 3.84166 70 52 128 255 
8.58984 -10.1707 3.1789 68 59 132 255 
10.1986 -12.0803 3.62089 68 57 131 255 
9.28378 -10.9884 3.17331 71 46 124 255 
8.52118 -10.0896 2.77581 64 69 136 255 
8.44079 -10.0048 2.62274 53 95 141 255 
8.45683 -10.0313 2.50285 65 68 135 255 
9.45671 -11.193 2.67349 71 47 125 255 
9.13503 -10.8202 2.44344 72 20 103 255 
22.3003 -26.4511 5.62831 71 13 96 255 
8.50484 -10.1061 2.02591 69 53 129 255 
8.81577 -10.4381 1.98344 71 44 122 255 
9.26549 -10.9787 1.94491 60 80 139 255 
9.38437 -11.143 1.83264 70 50 126 255 
8.38304 -9.96842 1.51854 71 13 96 255 
8.47456 -10.0341 1.42449 67 61 132 255 
21.9363 -26.0199 3.36694 71 19 101 255 
22.29 -26.4764 3.09494 71 19 101 255 
22.0248 -26.2179 2.74296 71 13 96 255 
22.3451 -26.4665 2.5011 71 13 96 255 
22.3783 -26.5535 2.17867 72 26 108 255 
22.5679 -26.8351 1.86827 72 20 103 255 
22.8679 -27.2408 1.5591 71 13 96 255 
22.839 -27.0707 1.27396 71 14 97 255 
22.7451 -27.0079 0.936948 71 16 99 255 
23.5255 -27.9836 0.625368 70 8 92 255 
0 -0 0 69 4 87 255 
33.5254 -39.7511 -0.00907589 70 8 92 255 
0 -0 -0 68 2 86 255 
0 -0 -0 68 2 86 255 
25.912 -30.9107 -1.14075 70 7 90 255 
0 -0 -0 68 2 86 255 
25.9743 -30.8861 -1.83962 70 10 93 255 
18.3931 -21.9019 -1.57399 72 20 103 255 
12.182 -14.5372 -1.22319 71 16 99 255 
10.7128 -12.7202 -1.20666 72 23 105 255 
9.63747 -11.4681 -1.22631 72 31 112 255 
8.75822 -10.4401 -1.24497 71 42 122 255 
8.0264 -9.57818 -1.26054 71 45 123 255 
7.35918 -8.74742 -1.24588 71 45 123 255 
6.79125 -8.08407 -1.2515 72 40 120 255 
6.29581 -7.50748 -1.25514 71 44 122 255 
5.8412 -6.97544 -1.25276 71 44 122 255 
5.44818 -6.48281 -1.23688 69 53 129 255 
5.13658 -6.11874 -1.24247 69 55 129 255 
4.82241 -5.75255 -1.23865 63 71 136 255 
4.52688 -5.4059 -1.23313 68 57 131 255 
4.30961 -5.13529 -1.23042 63 71 136 255 
4.08839 -4.8753 -1.22756 62 73 137 255 
3.88905 -4.63916 -1.22833 50 100 142 255 
3.71618 -4.43621 -1.23324 55 91 141 255 
3.58625 -4.27788 -1.23858 50 102 142 255 
3.42837 -4.09115 -1.23623 63 72 137 255 
3.27884 -3.91404 -1.23431 62 74 137 255 
3.14379 -3.75026 -1.23465 66 65 134 255 
3.03934 -3.63191 -1.23801 66 63 133 255 
2.90853 -3.47574 -1.22966 66 64 134 255 
2.79749 -3.34061 -1.22805 66 65 134 255 
2.70326 -3.22247 -1.23236 68 58 131 255 
7.9056 -9.48788 3.70983 70 50 126 255 
8.02336 -9.61242 3.62108 71 44 122 255 
8.06825 -9.65917 3.50685 71 17 100 255 
8.66839 -10.3781 3.63081 72 33 115 255 
8.82318 -10.5779 3.57518 67 62 133 255 
10.1466 -12.1604 3.94288 68 58 131 255 
8.5441 -10.2434 3.18518 68 59 132 255 
8.89583 -10.6693 3.18154 70 48 126 255 
8.60932 -10.3178 2.96435 72 35 116 255 
8.64089 -10.3596 2.83546 67 62 133 255 
9.45191 -11.3438 2.95848 68 58 131 255 
8.43158 -10.1268 2.51372 70 51 127 255 
9.6116 -11.519 2.73721 68 59 132 255 
21.5453 -25.84 5.80525 72 20 103 255 
24.0727 -28.9116 6.1203 70 7 90 255 
22.248 -26.7685 5.33865 70 8 92 255 
22.5635 -27.0507 5.11377 71 17 100 255 
9.80515 -11.7638 2.0733 72 31 112 255 
9.37228 -11.2682 1.84375 63 71 136 255 
22.3112 -26.8635 4.07132 70 11 94 255 
9.42663 -11.3013 1.59615 70 52 128 255 
22.1506 -26.6037 3.42483 72 20 103 255 
21.8826 -26.3186 3.06074 71 17 100 255 
14.7153 -17.7366 1.84615 71 13 96 255 
14.8968 -17.8656 1.67964 72 35 116 255 
22.4639 -26.9895 2.20309 70 10 93 255 
22.3741 -26.9385 1.86588 71 14 97 255 
23.8092 -28.718 1.63526 69 4 87 255 
22.7563 -27.3109 1.27867 70 11 94 255 
23.493 -28.246 0.97488 70 7 90 255 
25.4994 -30.7122 0.682836 71 14 97 255 
25.5252 -30.8098 0.314242 70 11 94 255 
25.7877 -30.96 -0.00703245 71 13 96 255 
25.7191 -30.9444 -0.386261 71 13 96 255 
25.6947 -30.9694 -0.758612 70 8 92 255 
25.7155 -31.0614 -1.14046 69 4 87 255 
25.759 -30.9584 -1.46268 70 10 93 255 
25.7007 -30.9442 -1.83365 70 11 94 255 
18.2437 -21.9967 -1.57273 71 14 97 255 
12.1454 -14.6755 -1.22853 71 17 100 255 
10.6843 -12.8455 -1.21231 72 24 106 255 
9.59366 -11.5592 -1.22973 72 33 115 255 
8.69336 -10.4929 -1.24488 72 37 118 255 
7.9605 -9.61881 -1.25944 71 42 122 255 
7.35047 -8.8467 -1.25357 71 47 125 255 
6.74215 -8.12635 -1.25162 72 40 120 255 
6.24773 -7.54367 -1.25476 72 41 121 255 
5.80145 -7.01497 -1.25345 71 42 122 255 
5.44053 -6.55495 -1.24425 69 55 129 255 
5.09957 -6.15091 -1.24262 66 64 134 255 
4.78639 -5.78127 -1.23849 67 61 132 255 
4.49362 -5.43357 -1.23313 67 62 133 255 
4.28618 -5.17148 -1.23277 62 74 137 255 
4.07155 -4.91618 -1.23154 62 76 138 255 
