ply
format ascii 1.0
comment VTK generated PLY File
obj_info vtkPolyData points and polygons: vtk4.0
element vertex 1253
property float x
property float y
property float z
property uchar red
property uchar green
property uchar blue
property uchar alpha
element face 0
property list uchar int vertex_indices
end_header
8.46516 -10.2765 2.79844 70 50 126 255 
9.57527 -11.6363 3.01939 72 36 117 255 
8.42231 -10.2428 2.52965 62 76 138 255 
9.38997 -11.3948 2.69395 71 13 96 255 
21.7096 -26.3642 5.89299 70 10 93 255 
9.74386 -11.8496 2.49574 71 17 100 255 
24.4996 -29.8483 5.92279 70 10 93 255 
22.4921 -27.304 5.13546 71 19 101 255 
9.30641 -11.3058 1.98247 72 32 113 255 
9.28407 -11.3025 1.84 72 35 116 255 
22.8388 -27.8447 4.19871 70 7 90 255 
9.42348 -11.4395 1.60747 72 27 109 255 
21.9807 -26.7314 3.42384 71 16 99 255 
14.6699 -17.8656 2.06718 72 27 109 255 
14.5859 -17.8019 1.8436 72 37 118 255 
14.7158 -17.8705 1.67158 72 40 120 255 
23.8468 -29.0111 2.35613 70 8 92 255 
23.6061 -28.7792 1.98331 70 11 94 255 
23.7173 -28.9672 1.64113 71 13 96 255 
23.6576 -28.7495 1.33921 71 13 96 255 
25.1625 -30.6336 1.05194 70 10 93 255 
25.282 -30.8333 0.682066 70 7 90 255 
25.3889 -31.0308 0.314902 70 8 92 255 
25.5655 -31.079 -0.00702373 70 8 92 255 
25.5326 -31.1063 -0.386318 70 7 90 255 
0 -0 -0 68 2 86 255 
0 -0 -0 68 1 84 255 
25.6028 -31.1576 -1.46464 69 4 87 255 
26.5994 -32.429 -1.91193 69 4 87 255 
21.7148 -26.5112 -1.88595 71 16 99 255 
12.1233 -14.8332 -1.23548 72 20 103 255 
10.6072 -12.9131 -1.21252 72 22 104 255 
9.53708 -11.6356 -1.23161 72 29 111 255 
8.67044 -10.5969 -1.25089 72 35 116 255 
7.91959 -9.68982 -1.26235 71 44 122 255 
7.32506 -8.92698 -1.25855 69 55 129 255 
6.72048 -8.20213 -1.25692 72 36 117 255 
6.19944 -7.57957 -1.25438 72 40 120 255 
5.77898 -7.07575 -1.25795 71 45 123 255 
5.40899 -6.59892 -1.24627 68 57 131 255 
5.0561 -6.1752 -1.24124 67 61 132 255 
4.73521 -5.79143 -1.23442 66 63 133 255 
4.47889 -5.48393 -1.2383 68 58 131 255 
4.23506 -5.17408 -1.22717 59 81 139 255 
4.03074 -4.92815 -1.22832 56 88 140 255 
3.84299 -4.70019 -1.23191 50 102 142 255 
3.68126 -4.50572 -1.23991 53 95 141 255 
3.52422 -4.31023 -1.23533 51 98 141 255 
3.38407 -4.14045 -1.23849 61 78 138 255 
3.2361 -3.96075 -1.23643 64 69 136 255 
3.10121 -3.79306 -1.23612 67 61 132 255 
2.98781 -3.66069 -1.23523 66 64 134 255 
2.88336 -3.53286 -1.23725 68 58 131 255 
2.76785 -3.38885 -1.2332 66 65 134 255 
2.66899 -3.26209 -1.2349 68 59 132 255 
9.40849 -11.5776 4.48142 72 33 115 255 
9.33062 -11.4616 4.27422 66 65 134 255 
9.33632 -11.4603 4.11884 72 41 121 255 
9.93907 -12.2006 4.22544 72 32 113 255 
8.45143 -10.3887 3.47595 72 35 116 255 
9.63641 -11.8415 3.80083 72 37 118 255 
8.73632 -10.7391 3.30572 67 62 133 255 
8.46904 -10.4146 3.07438 72 29 111 255 
8.71074 -10.7037 3.04427 72 32 113 255 
8.56622 -10.5301 2.85315 62 74 137 255 
9.11412 -11.2155 2.89562 72 36 117 255 
8.3946 -10.3378 2.54033 66 64 134 255 
8.64366 -10.6213 2.49849 71 45 123 255 
9.49326 -11.6739 2.5963 70 50 126 255 
20.9535 -25.8028 5.40737 71 17 100 255 
22.8981 -28.2489 5.57743 70 8 92 255 
22.2124 -27.3041 5.10975 70 8 92 255 
9.23874 -11.365 1.98287 72 23 105 255 
23.8727 -29.4292 4.76701 69 5 89 255 
22.565 -27.8577 4.17971 70 7 90 255 
22.4643 -27.6138 3.86081 70 11 94 255 
14.4358 -17.7771 2.26556 71 19 101 255 
14.5305 -17.9189 2.063 72 41 121 255 
14.5617 -17.9964 1.85446 72 33 115 255 
14.6015 -17.955 1.67107 72 32 113 255 
21.3743 -26.331 2.12777 71 19 101 255 
21.5742 -26.6337 1.82629 72 22 104 255 
24.8325 -30.7117 1.7313 70 10 93 255 
23.4726 -28.884 1.33874 70 10 93 255 
25.0572 -30.8899 1.05544 70 7 90 255 
23.3141 -28.7919 0.633732 70 8 92 255 
30.5506 -37.8106 0.381794 69 5 89 255 
30.846 -37.9709 -0.00853833 70 10 93 255 
0 -0 -0 68 2 86 255 
0 -0 -0 68 2 86 255 
0 -0 -0 68 1 84 255 
0 -0 -0 68 2 86 255 
26.3603 -32.5427 -1.90906 70 7 90 255 
21.5637 -26.6587 -1.88699 71 13 96 255 
12.0014 -14.8692 -1.23233 72 32 113 255 
10.5906 -13.0554 -1.21976 72 22 104 255 
9.48871 -11.7225 -1.23463 72 33 115 255 
8.63842 -10.6909 -1.25571 72 37 118 255 
7.86749 -9.74752 -1.26355 72 41 121 255 
7.28704 -8.99261 -1.26148 68 59 132 255 
6.70438 -8.28567 -1.26339 71 44 122 255 
6.1684 -7.63675 -1.25756 71 44 122 255 
5.73234 -7.10722 -1.25727 71 46 124 255 
5.37711 -6.64275 -1.2483 66 64 134 255 
5.04732 -6.24222 -1.24846 67 62 133 255 
4.72004 -5.84571 -1.23979 64 69 136 255 
4.43897 -5.50364 -1.23658 68 59 132 255 
4.20509 -5.20227 -1.22771 63 72 137 255 
4.00412 -4.95737 -1.22945 61 78 138 255 
3.82516 -4.73741 -1.23548 49 104 142 255 
3.65355 -4.52822 -1.23991 50 101 142 255 
3.50445 -4.34013 -1.23771 50 101 142 255 
3.36044 -4.16341 -1.23917 62 76 138 255 
3.20441 -3.97146 -1.23361 65 66 135 255 
3.0657 -3.79693 -1.23123 68 58 131 255 
2.95376 -3.66464 -1.23043 65 66 135 255 
2.85254 -3.53921 -1.23332 68 59 132 255 
2.74821 -3.40727 -1.23375 68 59 132 255 
2.66701 -3.3008 -1.24333 69 55 129 255 
7.60733 -9.47941 3.65114 68 58 131 255 
9.51411 -11.8346 4.39146 70 51 127 255 
9.78633 -12.1643 4.35021 71 47 125 255 
8.49769 -10.563 3.64014 72 37 118 255 
8.48573 -10.5627 3.51664 63 71 136 255 
8.83292 -10.9912 3.51045 72 33 115 255 
8.48568 -10.5627 3.23534 64 69 136 255 
8.34577 -10.3927 3.05272 65 66 135 255 
9.98763 -12.4277 3.51712 67 62 133 255 
8.54006 -10.6306 2.86611 57 85 140 255 
9.15498 -11.408 2.93078 70 50 126 255 
8.98547 -11.2052 2.73989 70 48 126 255 
8.95362 -11.1411 2.6078 63 71 136 255 
9.41096 -11.7189 2.59341 64 69 136 255 
9.46063 -11.7973 2.4601 65 68 135 255 
21.7317 -27.1488 5.3338 70 11 94 255 
22.8315 -28.4197 5.2922 71 14 97 255 
22.5412 -28.0791 4.87481 70 8 92 255 
22.278 -27.8103 4.48256 71 14 97 255 
21.9271 -27.4124 4.09263 71 16 99 255 
22.4625 -27.9603 3.88993 70 10 93 255 
14.3184 -17.8553 2.26428 71 14 97 255 
14.381 -17.9587 2.05738 72 23 105 255 
14.4423 -18.0745 1.85334 72 38 119 255 
14.5004 -18.0559 1.67215 72 24 106 255 
21.3803 -26.6711 2.14461 72 22 104 255 
21.4379 -26.7999 1.82863 72 28 110 255 
23.6742 -29.6495 1.6632 70 11 94 255 
23.5689 -29.3689 1.35448 69 5 89 255 
23.2116 -28.9764 0.985172 71 13 96 255 
23.1726 -28.9789 0.634707 71 13 96 255 
0 -0 0 68 2 86 255 
30.5574 -38.0908 -0.00852297 71 13 96 255 
0 -0 -0 68 2 86 255 
0 -0 -0 68 2 86 255 
0 -0 -0 68 2 86 255 
0 -0 -0 68 1 84 255 
26.2025 -32.7569 -1.91216 70 8 92 255 
21.6938 -27.1587 -1.91293 71 13 96 255 
11.9074 -14.9395 -1.23207 72 23 105 255 
10.572 -13.1972 -1.22692 72 24 106 255 
9.46016 -11.835 -1.24034 72 33 115 255 
8.56769 -10.7375 -1.25498 72 36 117 255 
7.80257 -9.78939 -1.26275 72 36 117 255 
7.25285 -9.06355 -1.26516 66 63 133 255 
6.659 -8.33364 -1.26445 71 46 124 255 
6.14307 -7.7016 -1.26201 72 41 121 255 
5.71146 -7.17093 -1.26231 70 48 126 255 
5.33008 -6.66789 -1.24685 68 58 131 255 
5.01508 -6.2808 -1.25 68 58 131 255 
4.67671 -5.8653 -1.23784 67 62 133 255 
4.41678 -5.54542 -1.23985 66 63 133 255 
4.1964 -5.25718 -1.23457 64 69 136 255 
3.97608 -4.98492 -1.23021 57 85 140 255 
3.81008 -4.77842 -1.24006 47 107 142 255 
3.61533 -4.53755 -1.23637 53 95 141 255 
3.47775 -4.36155 -1.23771 52 96 141 255 
3.33361 -4.18243 -1.23872 56 89 140 255 
3.18059 -3.9918 -1.23384 61 77 138 255 
3.04476 -3.8187 -1.2322 66 64 134 255 
2.93845 -3.69178 -1.23346 65 68 135 255 
2.83017 -3.55589 -1.23306 66 63 133 255 
2.71406 -3.40751 -1.22778 67 62 133 255 
2.63773 -3.30585 -1.23911 68 58 131 255 
7.53772 -9.51165 3.64567 71 13 96 255 
9.47477 -11.9349 4.40702 69 56 130 255 
9.49339 -11.9496 4.25251 72 35 116 255 
8.41349 -10.5907 3.63184 60 79 138 255 
8.46708 -10.6729 3.53599 69 53 129 255 
8.71645 -10.9836 3.49088 62 74 137 255 
8.42434 -10.6191 3.23674 67 61 132 255 
8.30002 -10.4666 3.05942 62 76 138 255 
8.34259 -10.5122 2.96048 70 50 126 255 
8.47832 -10.6874 2.86734 62 76 138 255 
9.16215 -11.5616 2.95573 72 41 121 255 
9.33792 -11.7923 2.86937 70 48 126 255 
8.89121 -11.2035 2.60959 63 71 136 255 
9.36215 -11.8057 2.59987 62 76 138 255 
9.20179 -11.6199 2.41128 66 63 133 255 
21.5917 -27.3157 5.34047 71 16 99 255 
21.6628 -27.3064 5.06004 70 11 94 255 
21.5103 -27.1344 4.68779 72 26 108 255 
21.8767 -27.6555 4.43588 70 8 92 255 
21.5332 -27.2611 4.05024 71 13 96 255 
14.3514 -18.0903 2.50447 71 17 100 255 
14.2839 -18.038 2.27629 72 37 118 255 
14.2632 -18.0373 2.05632 72 26 108 255 
14.0687 -17.8302 1.8194 71 17 100 255 
21.294 -26.8511 2.47452 71 16 99 255 
24.0985 -30.4429 2.43596 70 10 93 255 
23.5248 -29.7817 2.0222 70 10 93 255 
0 -0 0 69 4 87 255 
23.305 -29.408 1.34967 70 8 92 255 
23.0712 -29.1661 0.98679 70 7 90 255 
0 -0 0 69 4 87 255 
24.4483 -31.0295 0.310268 70 11 94 255 
0 -0 -0 69 4 87 255 
0 -0 -0 68 2 86 255 
0 -0 -0 68 2 86 255 
0 -0 -0 68 2 86 255 
0 -0 -0 68 2 86 255 
25.9398 -32.8395 -1.90765 70 8 92 255 
21.4433 -27.1855 -1.90551 71 14 97 255 
11.9198 -15.1448 -1.24295 71 14 97 255 
10.4772 -13.2446 -1.22533 72 22 104 255 
9.39046 -11.8968 -1.24075 72 36 117 255 
8.53863 -10.8368 -1.26044 72 33 115 255 
7.81804 -9.93324 -1.2751 72 35 116 255 
7.20881 -9.1227 -1.26722 68 58 131 255 
6.62619 -8.39773 -1.26798 71 45 123 255 
6.11964 -7.76953 -1.26696 71 47 125 255 
5.68266 -7.22531 -1.26572 71 46 124 255 
5.28416 -6.69426 -1.24569 69 55 129 255 
4.96789 -6.30059 -1.24785 67 61 132 255 
4.65711 -5.91482 -1.24224 63 71 136 255 
4.37962 -5.56854 -1.23899 68 59 132 255 
4.1525 -5.26816 -1.23114 65 68 135 255 
3.95575 -5.02233 -1.23343 59 82 139 255 
3.77462 -4.79401 -1.23807 50 102 142 255 
3.58561 -4.55734 -1.23574 52 96 141 255 
3.44972 -4.38127 -1.23728 53 95 141 255 
3.31271 -4.20893 -1.24052 53 95 141 255 
3.17166 -4.0311 -1.23995 61 78 138 255 
3.04766 -3.87083 -1.24297 64 69 136 255 
2.91933 -3.7143 -1.23498 64 69 136 255 
2.81546 -3.5823 -1.2362 66 63 133 255 
2.67585 -3.40216 -1.21991 69 53 129 255 
2.61502 -3.31895 -1.23799 69 53 129 255 
0 -0 0 68 2 86 255 
9.55723 -12.1916 4.48009 72 40 120 255 
0 -0 0 68 2 86 255 
9.8976 -12.6171 4.30583 72 29 111 255 
8.34115 -10.6477 3.51062 69 55 129 255 
8.45915 -10.7948 3.4143 70 52 128 255 
8.12869 -10.3766 3.14755 68 57 131 255 
8.07939 -10.3178 3.00137 70 52 128 255 
8.29781 -10.5886 2.96759 64 70 136 255 
8.38724 -10.7068 2.8587 52 97 141 255 
9.10917 -11.6408 2.96163 68 57 131 255 
9.15527 -11.7085 2.83527 70 52 128 255 
9.18031 -11.7147 2.71549 68 57 131 255 
9.25855 -11.8234 2.5912 71 46 124 255 
9.13275 -11.6793 2.41193 71 46 124 255 
9.30635 -11.9231 2.31987 67 61 132 255 
22.0624 -28.1633 5.19365 70 10 93 255 
22.0856 -28.2139 4.85079 71 19 101 255 
21.9857 -28.1465 4.49292 71 16 99 255 
21.6648 -27.7765 4.10699 71 14 97 255 
21.1797 -27.0365 3.72495 72 24 106 255 
14.0179 -17.9269 2.25139 71 44 122 255 
13.8782 -17.7735 2.0165 72 37 118 255 
13.8635 -17.7936 1.80695 72 26 108 255 
0 -0 0 69 4 87 255 
23.7748 -30.4156 2.42206 70 8 92 255 
23.4553 -30.0711 2.03204 70 11 94 255 
23.4412 -30.1081 1.67266 69 5 89 255 
23.0441 -29.4481 1.34499 72 20 103 255 
22.9066 -29.326 0.987426 70 7 90 255 
26.0725 -33.4386 0.725321 70 8 92 255 
24.2452 -31.1631 0.310111 70 7 90 255 
0 -0 -0 68 2 86 255 
0 -0 -0 68 1 84 255 
0 -0 -0 68 2 86 255 
0 -0 -0 68 2 86 255 
0 -0 -0 68 2 86 255 
25.7322 -32.9909 -1.90724 70 10 93 255 
21.2816 -27.3236 -1.906 71 13 96 255 
18.2982 -23.5447 -1.92309 72 20 103 255 
10.4019 -13.3165 -1.22606 72 23 105 255 
9.31054 -11.9455 -1.23985 72 31 112 255 
8.47626 -10.8945 -1.26108 72 35 116 255 
7.74779 -9.96924 -1.27359 72 38 119 255 
7.13802 -9.14795 -1.26462 68 59 132 255 
6.63618 -8.51734 -1.27987 67 62 133 255 
6.10778 -7.85313 -1.27446 72 41 121 255 
5.66496 -7.29447 -1.27172 70 51 127 255 
5.28982 -6.78665 -1.25682 69 56 130 255 
4.93642 -6.34031 -1.24969 67 61 132 255 
4.62981 -5.95497 -1.24468 68 59 132 255 
4.3629 -5.61787 -1.24398 68 59 132 255 
4.14063 -5.31993 -1.23728 65 68 135 255 
3.93209 -5.05581 -1.23571 61 78 138 255 
3.74092 -4.81166 -1.23668 49 104 142 255 
3.57918 -4.60706 -1.24325 52 96 141 255 
3.41498 -4.39233 -1.23446 54 92 141 255 
3.29339 -4.23764 -1.243 52 96 141 255 
3.15581 -4.062 -1.24347 62 76 138 255 
3.02862 -3.89558 -1.24492 66 65 134 255 
2.89055 -3.7245 -1.23245 66 65 134 255 
2.78455 -3.58807 -1.23228 65 66 135 255 
2.68267 -3.45424 -1.23266 68 58 131 255 
2.61464 -3.36069 -1.24755 69 55 129 255 
0 -0 0 68 2 86 255 
0 -0 0 68 1 84 255 
9.76724 -12.6089 4.44416 70 10 93 255 
8.34144 -10.7687 3.65752 72 38 119 255 
8.19393 -10.593 3.47595 66 64 134 255 
8.44502 -10.914 3.43555 66 64 134 255 
8.26066 -10.6794 3.22396 71 46 124 255 
0 -0 0 68 2 86 255 
8.23447 -10.6416 2.96823 65 66 135 255 
8.3112 -10.7449 2.85521 64 70 136 255 
8.5076 -11.0106 2.78796 65 68 135 255 
9.04363 -11.7132 2.8229 72 36 117 255 
9.09321 -11.7514 2.711 72 23 105 255 
9.16412 -11.8519 2.58508 72 40 120 255 
9.06453 -11.7398 2.41289 69 53 129 255 
9.09846 -11.8054 2.28606 70 48 126 255 
21.2401 -27.459 5.03964 71 19 101 255 
21.4666 -27.7726 4.75219 70 11 94 255 
21.7399 -28.1866 4.47794 71 16 99 255 
21.0509 -27.3337 4.02234 71 16 99 255 
20.9143 -27.0377 3.70738 72 22 104 255 
13.9435 -18.0591 2.25719 72 27 109 255 
13.8826 -18.0059 2.03316 72 32 113 255 
20.7274 -26.9427 2.72308 71 19 101 255 
0 -0 0 69 4 87 255 
23.2865 -30.1706 2.39113 70 8 92 255 
23.5677 -30.6006 2.05801 70 8 92 255 
22.7926 -29.6486 1.63933 70 11 94 255 
13.7513 -17.7967 0.808966 72 22 104 255 
22.6322 -29.3441 0.983341 71 16 99 255 
0 -0 0 68 2 86 255 
0 -0 0 68 2 86 255 
0 -0 -0 68 2 86 255 
0 -0 -0 68 2 86 255 
58.8007 -76.4303 -1.81791 69 5 89 255 
0 -0 -0 68 2 86 255 
0 -0 -0 68 2 86 255 
25.5098 -33.1229 -1.90578 70 11 94 255 
21.144 -27.4933 -1.90875 70 11 94 255 
18.1643 -23.6708 -1.92424 71 19 101 255 
10.4162 -13.5048 -1.23749 72 20 103 255 
9.26929 -12.0443 -1.24418 72 31 112 255 
8.44019 -10.9866 -1.26572 72 35 116 255 
7.68163 -10.0103 -1.27279 72 36 117 255 
7.0945 -9.20811 -1.26689 71 46 124 255 
6.59954 -8.57837 -1.28293 70 52 128 255 
6.06914 -7.90305 -1.27649 71 45 123 255 
5.62793 -7.33931 -1.2735 70 51 127 255 
5.24808 -6.81898 -1.25682 68 59 132 255 
4.90886 -6.38536 -1.25261 65 68 135 255 
4.58297 -5.96996 -1.24191 66 64 134 255 
4.33614 -5.6547 -1.24622 66 64 134 255 
4.1181 -5.35849 -1.24035 66 63 133 255 
3.90638 -5.08685 -1.23741 53 94 141 255 
3.72028 -4.84618 -1.23966 47 108 142 255 
3.54846 -4.62583 -1.24241 50 102 142 255 
3.40402 -4.43411 -1.24031 53 95 141 255 
3.25428 -4.24076 -1.23804 57 86 140 255 
3.13793 -4.09055 -1.24629 52 96 141 255 
3.00111 -3.90948 -1.24346 64 69 136 255 
2.87529 -3.75215 -1.23574 66 65 134 255 
2.7572 -3.59819 -1.22992 67 61 132 255 
2.6626 -3.47216 -1.2332 67 61 132 255 
2.59163 -3.37363 -1.24642 69 55 129 255 
7.31257 -9.58482 3.6215 57 86 140 255 
0 -0 0 68 2 86 255 
9.53284 -12.4636 4.37222 70 7 90 255 
8.37789 -10.954 3.7029 70 48 126 255 
8.34616 -10.9277 3.5689 70 51 127 255 
8.34961 -10.9286 3.42396 64 69 136 255 
7.89448 -10.3364 3.10574 71 13 96 255 
8.50286 -11.1375 3.20922 69 5 89 255 
0 -0 0 68 1 84 255 
8.21245 -10.753 2.84389 59 81 139 255 
8.39528 -11.0041 2.77322 65 66 135 255 
8.66788 -11.37 2.72733 72 35 116 255 
9.24251 -12.097 2.77759 70 10 93 255 
8.96864 -11.7473 2.55022 71 44 122 255 
8.98814 -11.7897 2.41177 62 74 137 255 
9.0091 -11.839 2.28182 72 23 105 255 
21.0388 -27.5463 5.03188 72 24 106 255 
20.878 -27.3563 4.65894 71 16 99 255 
21.3898 -28.0874 4.44125 71 14 97 255 
21.4377 -28.1921 4.12922 70 10 93 255 
20.5265 -26.8756 3.6678 71 17 100 255 
13.7691 -18.0612 2.24686 72 38 119 255 
13.9137 -18.2769 2.05409 72 35 116 255 
13.6947 -18.029 1.81366 71 14 97 255 
0 -0 0 69 4 87 255 
21.9933 -28.8595 2.27648 71 14 97 255 
23.9676 -31.518 2.10978 69 4 87 255 
13.5621 -17.8673 0.983301 72 29 111 255 
13.6679 -17.9149 0.810511 71 46 124 255 
0 -0 0 68 2 86 255 
25.0684 -32.9775 0.708594 70 10 93 255 
25.1312 -33.133 0.32662 69 5 89 255 
0 -0 -0 68 2 86 255 
0 -0 -0 68 2 86 255 
0 -0 -0 68 2 86 255 
0 -0 -0 68 2 86 255 
0 -0 -0 68 2 86 255 
25.222 -33.1682 -1.89945 70 11 94 255 
21.1367 -27.8356 -1.92348 71 14 97 255 
18.0175 -23.7802 -1.92412 72 20 103 255 
10.3597 -13.6034 -1.24067 72 23 105 255 
9.22958 -12.1461 -1.24883 72 28 110 255 
8.38285 -11.0516 -1.26726 72 35 116 255 
7.63088 -10.0715 -1.27459 72 38 119 255 
7.06495 -9.28708 -1.27177 71 44 122 255 
6.55699 -8.63214 -1.28493 69 56 130 255 
6.04032 -7.96622 -1.28068 71 46 124 255 
5.58638 -7.37844 -1.27432 70 50 126 255 
5.20255 -6.84632 -1.25596 70 51 127 255 
4.87736 -6.42559 -1.25461 66 64 134 255 
4.55996 -6.01605 -1.24565 64 69 136 255 
4.29125 -5.66785 -1.24329 66 63 133 255 
4.09109 -5.39149 -1.24215 66 65 134 255 
3.88696 -5.12637 -1.2412 49 104 142 255 
3.6958 -4.87595 -1.24145 50 102 142 255 
3.50938 -4.63349 -1.23866 52 97 141 255 
3.37969 -4.45881 -1.24139 51 98 141 255 
3.24291 -4.28006 -1.24368 51 98 141 255 
3.10984 -4.10585 -1.24512 63 71 136 255 
2.96477 -3.91159 -1.23832 66 64 134 255 
2.88199 -3.80907 -1.24864 66 63 133 255 
2.73856 -3.61966 -1.23149 68 57 131 255 
2.62672 -3.46925 -1.22642 68 59 132 255 
2.56799 -3.38564 -1.24502 69 53 129 255 
7.24959 -9.62415 3.61949 62 76 138 255 
9.64425 -12.7803 4.63039 71 19 101 255 
9.73078 -12.8854 4.49918 72 35 116 255 
7.98168 -10.5697 3.55638 72 29 111 255 
8.135 -10.7878 3.50685 68 59 132 255 
8.23273 -10.9138 3.40342 62 73 137 255 
8.68708 -11.5201 3.4453 69 5 89 255 
0 -0 0 68 2 86 255 
8.13561 -10.7847 2.98008 71 19 101 255 
8.13571 -10.7891 2.84019 57 86 140 255 
8.20843 -10.8972 2.73354 57 86 140 255 
8.6139 -11.4442 2.73239 71 46 124 255 
23.1623 -30.7044 7.0173 71 16 99 255 
21.4188 -28.4147 6.13988 70 8 92 255 
20.8277 -27.6701 5.63409 71 14 97 255 
22.1944 -29.5404 5.66718 70 8 92 255 
22.2636 -29.5238 5.36806 72 20 103 255 
21.6526 -28.7352 4.87105 70 10 93 255 
20.5069 -27.2736 4.29259 72 20 103 255 
20.3865 -27.1539 3.95876 72 20 103 255 
13.6266 -18.0703 2.45466 72 27 109 255 
13.5515 -18.0038 2.22933 72 26 108 255 
13.6295 -18.1335 2.02853 72 31 112 255 
13.6155 -18.155 1.81789 70 48 126 255 
13.678 -18.145 1.64075 72 38 119 255 
13.658 -18.1519 1.42521 71 46 124 255 
13.3606 -17.7951 1.18567 72 40 120 255 
13.4372 -17.9302 0.982206 72 29 111 255 
13.6359 -18.1022 0.815184 72 37 118 255 
22.2614 -29.6076 0.982943 71 13 96 255 
22.2038 -29.5841 0.63274 70 11 94 255 
0 -0 0 69 4 87 255 
57.0588 -75.7757 -0.0165555 69 4 87 255 
0 -0 -0 68 1 84 255 
0 -0 -0 68 1 84 255 
0 -0 -0 68 2 86 255 
0 -0 -0 69 4 87 255 
24.9893 -33.284 -1.89727 70 7 90 255 
20.8685 -27.8353 -1.91457 71 14 97 255 
17.8671 -23.8847 -1.92366 72 20 103 255 
10.3037 -13.7034 -1.244 72 22 104 255 
9.17881 -12.2344 -1.25209 72 35 116 255 
8.3113 -11.0981 -1.26672 72 31 112 255 
7.58622 -10.1412 -1.2775 72 38 119 255 
7.0132 -9.3374 -1.27274 71 46 124 255 
6.51224 -8.68333 -1.28658 69 56 130 255 
6.04007 -8.06825 -1.2911 72 37 118 255 
5.53032 -7.3983 -1.27186 72 38 119 255 
5.18301 -6.90819 -1.26145 66 63 133 255 
4.8568 -6.4807 -1.25953 66 64 134 255 
4.53006 -6.0534 -1.24761 65 68 135 255 
4.2676 -5.70906 -1.24657 68 58 131 255 
4.05439 -5.41177 -1.24107 62 74 137 255 
3.85837 -5.15406 -1.24215 49 104 142 255 
3.66758 -4.90089 -1.24205 47 108 142 255 
3.4926 -4.6706 -1.24283 53 94 141 255 
3.35227 -4.47946 -1.24139 51 99 141 255 
3.22009 -4.30456 -1.24503 49 103 142 255 
3.07003 -4.10539 -1.23924 62 73 137 255 
2.94885 -3.94058 -1.24174 64 70 136 255 
2.84814 -3.81273 -1.24408 64 70 136 255 
2.72554 -3.64877 -1.23568 68 57 131 255 
2.62843 -3.51614 -1.23727 66 63 133 255 
2.523 -3.36907 -1.23321 68 57 131 255 
7.18468 -9.66077 3.61661 69 53 129 255 
9.55244 -12.8216 4.624 72 22 104 255 
9.61641 -12.8978 4.48281 69 56 130 255 
9.58268 -12.8531 4.30479 72 37 118 255 
7.92299 -10.6419 3.44354 68 57 131 255 
8.43918 -11.3314 3.51745 59 81 139 255 
8.47625 -11.3851 3.38933 70 10 93 255 
8.14033 -10.9383 3.12282 71 13 96 255 
8.0652 -10.829 2.97857 72 23 105 255 
8.09741 -10.8765 2.85007 60 80 139 255 
8.16248 -10.9757 2.74061 66 64 134 255 
8.52887 -11.4771 2.72771 71 19 101 255 
20.3968 -27.3863 6.23024 70 11 94 255 
0 -0 0 69 4 87 255 
22.4967 -30.2722 6.13571 70 8 92 255 
20.6418 -27.8278 5.31424 70 7 90 255 
22.1323 -29.7274 5.38027 69 5 89 255 
21.9585 -29.5163 4.98052 71 13 96 255 
20.3699 -27.4404 4.29908 70 10 93 255 
21.8023 -29.4138 4.26865 70 8 92 255 
22.5866 -30.3375 4.10213 69 4 87 255 
13.4491 -18.0978 2.23071 72 32 113 255 
13.5672 -18.2831 2.03592 72 36 117 255 
13.5525 -18.3039 1.82444 72 33 115 255 
13.5521 -18.2094 1.63902 72 41 121 255 
13.2392 -17.822 1.3929 72 37 118 255 
13.379 -18.0492 1.19711 72 33 115 255 
13.5349 -18.2934 0.997534 72 35 116 255 
13.6766 -18.39 0.82435 72 36 117 255 
12.8295 -17.283 0.571156 71 19 101 255 
22.1564 -29.9014 0.636605 71 13 96 255 
23.2359 -31.4279 0.306978 71 13 96 255 
0 -0 -0 68 2 86 255 
0 -0 -0 68 2 86 255 
0 -0 -0 68 2 86 255 
0 -0 -0 68 2 86 255 
0 -0 -0 69 4 87 255 
24.8452 -33.5186 -1.90191 70 8 92 255 
20.3979 -27.5584 -1.88688 71 16 99 255 
17.6734 -23.9305 -1.91858 72 20 103 255 
10.3038 -13.8801 -1.25428 72 26 108 255 
9.17594 -12.3882 -1.26204 72 36 117 255 
8.25962 -11.1713 -1.26926 72 36 117 255 
7.53094 -10.1972 -1.27871 72 40 120 255 
6.96821 -9.39703 -1.27502 70 51 127 255 
6.45943 -8.72393 -1.2867 67 62 133 255 
5.99811 -8.11552 -1.29276 69 56 130 255 
5.49777 -7.44963 -1.27486 71 42 122 255 
5.1523 -6.95577 -1.26434 69 53 129 255 
4.80813 -6.49846 -1.25722 68 59 132 255 
4.50162 -6.09298 -1.25005 66 65 134 255 
4.24477 -5.75178 -1.25018 68 59 132 255 
4.00415 -5.41361 -1.23583 65 66 135 255 
3.83834 -5.19343 -1.24594 46 110 142 255 
3.64676 -4.93591 -1.24523 46 109 142 255 
3.47317 -4.70453 -1.24617 50 100 142 255 
3.33981 -4.52036 -1.24702 50 100 142 255 
3.18841 -4.31719 -1.243 50 100 142 255 
3.04305 -4.12181 -1.23854 55 91 141 255 
2.93498 -3.97264 -1.24615 67 62 133 255 
2.8178 -3.82079 -1.24105 65 66 135 255 
2.71627 -3.68329 -1.2417 68 58 131 255 
2.61195 -3.53917 -1.23972 68 59 132 255 
2.5 -3.3814 -1.23208 69 56 130 255 
7.12414 -9.70313 3.61604 70 11 94 255 
9.45766 -12.8583 4.61622 71 13 96 255 
9.49083 -12.8937 4.46107 70 7 90 255 
8.24469 -11.2012 3.73454 72 22 104 255 
7.91086 -10.7628 3.4669 65 68 135 255 
8.53102 -11.6027 3.58534 70 52 128 255 
8.31982 -11.3194 3.35449 71 42 122 255 
8.34893 -11.3636 3.22954 72 28 110 255 
8.06281 -10.9656 3.00248 60 79 138 255 
8.10702 -11.03 2.87722 71 45 123 255 
14.5153 -19.7701 4.91424 72 31 112 255 
20.3052 -27.6775 6.54823 70 10 93 255 
20.191 -27.4602 6.21876 71 14 97 255 
0 -0 0 68 2 86 255 
20.6074 -28.0883 5.66733 71 19 101 255 
16.3605 -22.3413 4.24724 70 11 94 255 
16.3886 -22.2969 4.01717 72 22 104 255 
21.6333 -29.4548 4.94766 71 13 96 255 
22.8222 -31.1413 4.85688 69 5 89 255 
14.643 -20.0106 2.89093 70 8 92 255 
14.675 -19.9656 2.68745 71 16 99 255 
13.399 -18.2634 2.24095 72 33 115 255 
13.2411 -18.0744 2.00359 72 37 118 255 
13.3658 -18.2853 1.81437 72 35 116 255 
13.5004 -18.3742 1.64637 70 50 126 255 
12.9095 -17.6027 1.36954 71 42 122 255 
12.6075 -17.2284 1.13752 72 37 118 255 
13.4194 -18.3721 0.997315 72 23 105 255 
13.615 -18.5437 0.827478 72 31 112 255 
12.6334 -17.2389 0.567124 72 23 105 255 
21.9477 -30.0029 0.635887 71 17 100 255 
0 -0 0 68 2 86 255 
0 -0 -0 68 1 84 255 
0 -0 -0 68 2 86 255 
0 -0 -0 68 2 86 255 
0 -0 -0 68 2 86 255 
0 -0 -0 68 2 86 255 
24.389 -33.3286 -1.8826 70 11 94 255 
20.1907 -27.6314 -1.88336 71 13 96 255 
17.5374 -24.0538 -1.9198 71 19 101 255 
10.2161 -13.9398 -1.25399 72 28 110 255 
9.08328 -12.4218 -1.25976 72 32 113 255 
8.1921 -11.2234 -1.26945 72 29 111 255 
7.46706 -10.2416 -1.27851 72 35 116 255 
6.91747 -9.44923 -1.27632 70 50 126 255 
6.40813 -8.7666 -1.28717 68 57 131 255 
5.95229 -8.15778 -1.29364 64 70 136 255 
5.4782 -7.51926 -1.281 71 44 122 255 
5.11946 -7.00083 -1.2668 68 59 132 255 
4.77399 -6.53582 -1.25876 67 61 132 255 
4.47055 -6.12926 -1.25184 66 65 134 255 
4.20244 -5.76817 -1.24812 69 56 130 255 
4.00624 -5.48654 -1.24685 61 78 138 255 
3.82319 -5.23988 -1.25143 50 102 142 255 
3.61756 -4.95978 -1.24563 46 109 142 255 
3.44021 -4.72022 -1.24471 53 95 141 255 
3.30626 -4.53288 -1.24486 50 102 142 255 
3.16013 -4.33431 -1.24233 50 100 142 255 
3.02343 -4.14826 -1.24089 54 93 141 255 
2.90541 -3.98352 -1.24395 68 59 132 255 
2.79601 -3.84036 -1.24181 67 61 132 255 
2.69078 -3.69598 -1.24039 70 52 128 255 
2.57942 -3.54035 -1.23456 69 56 130 255 
2.48656 -3.40676 -1.23574 67 62 133 255 
0 -0 0 68 2 86 255 
0 -0 0 68 1 84 255 
8.43754 -11.6113 3.99939 72 24 106 255 
8.20816 -11.2961 3.74932 72 29 111 255 
8.15561 -11.2397 3.60432 71 44 122 255 
8.54232 -11.7687 3.62037 72 23 105 255 
8.50498 -11.7213 3.45808 70 48 126 255 
7.93795 -10.9443 3.09648 72 41 121 255 
8.08601 -11.1397 3.03652 62 73 137 255 
14.3151 -19.7291 5.12337 72 28 110 255 
20.3407 -28.0639 6.94465 72 20 103 255 
19.9028 -27.4809 6.47271 71 14 97 255 
20.0979 -27.6879 6.24227 71 13 96 255 
20.0596 -27.6562 5.8952 70 7 90 255 
15.9876 -22.0742 4.43399 72 27 109 255 
16.1768 -22.3772 4.23511 72 29 111 255 
16.2683 -22.4203 4.02134 72 38 119 255 
16.2757 -22.4475 3.75377 70 11 94 255 
20.1189 -27.8088 4.31781 70 8 92 255 
14.4095 -19.9471 2.86893 72 29 111 255 
14.714 -20.2782 2.71732 72 35 116 255 
13.2371 -18.2768 2.23258 72 24 106 255 
12.687 -17.5427 1.93599 72 35 116 255 
13.1262 -18.1907 1.79697 72 23 105 255 
13.2978 -18.3331 1.63535 72 31 112 255 
12.5888 -17.3881 1.34681 70 50 126 255 
12.4835 -17.2803 1.13587 70 50 126 255 
12.4469 -17.2621 0.932895 72 40 120 255 
12.5362 -17.2958 0.768347 72 32 113 255 
12.5216 -17.308 0.566858 71 14 97 255 
22.5973 -31.2921 0.660259 71 16 99 255 
0 -0 0 68 2 86 255 
0 -0 -0 68 2 86 255 
0 -0 -0 68 2 86 255 
0 -0 -0 68 2 86 255 
0 -0 -0 68 2 86 255 
0 -0 -0 68 2 86 255 
24.2501 -33.5691 -1.88775 70 8 92 255 
19.9583 -27.6681 -1.87748 70 11 94 255 
17.3632 -24.1245 -1.91691 71 17 100 255 
10.1491 -14.0281 -1.25631 72 29 111 255 
9.05356 -12.5419 -1.26629 72 32 113 255 
8.13879 -11.2953 -1.2719 72 32 113 255 
7.41163 -10.2977 -1.27981 72 32 113 255 
6.87275 -9.51003 -1.27881 71 46 124 255 
6.35538 -8.80737 -1.2874 67 61 132 255 
5.9056 -8.19898 -1.29441 67 62 133 255 
5.45105 -7.57927 -1.2855 71 46 124 255 
5.07814 -7.03452 -1.26723 68 58 131 255 
4.74247 -6.57702 -1.26106 68 58 131 255 
4.44439 -6.17259 -1.2551 66 64 134 255 
4.1917 -5.82823 -1.25553 67 62 133 255 
3.97595 -5.5158 -1.24793 62 73 137 255 
3.78121 -5.2497 -1.24821 51 99 141 255 
3.58877 -4.98427 -1.24622 45 112 142 255 
3.41689 -4.74918 -1.24679 52 96 141 255 
3.27153 -4.54358 -1.24226 51 98 141 255 
3.14885 -4.37496 -1.24842 48 106 142 255 
3.00473 -4.1762 -1.24371 52 96 141 255 
2.86788 -3.98317 -1.23832 67 61 132 255 
2.77239 -3.85744 -1.24181 69 56 130 255 
2.67256 -3.71869 -1.24249 68 57 131 255 
2.55764 -3.55611 -1.23456 68 57 131 255 
2.46842 -3.42584 -1.23714 70 52 128 255 
8.48579 -11.8601 4.38073 72 22 104 255 
8.42722 -11.7569 4.18338 71 46 124 255 
8.40207 -11.713 4.01657 71 44 122 255 
8.14038 -11.3486 3.7501 71 46 124 255 
8.27926 -11.5587 3.69024 72 33 115 255 
8.31452 -11.604 3.55393 62 73 137 255 
8.4312 -11.7709 3.45738 69 55 129 255 
8.34731 -11.6585 3.28401 72 29 111 255 
8.30019 -11.5836 3.14358 71 14 97 255 
14.0639 -19.6351 5.07647 72 26 108 255 
14.0296 -19.6087 4.83094 72 23 105 255 
19.8795 -27.8063 6.52049 71 13 96 255 
14.3272 -19.9948 4.48794 71 16 99 255 
15.7929 -22.0572 4.68096 72 26 108 255 
15.8226 -22.1309 4.4258 72 29 111 255 
16.0369 -22.4728 4.2345 72 36 117 255 
16.1097 -22.4907 4.01616 72 31 112 255 
16.1428 -22.5542 3.75498 72 38 119 255 
21.0752 -29.5103 4.56182 70 11 94 255 
14.2124 -19.9308 2.85399 72 29 111 255 
14.4532 -20.1782 2.69198 72 33 115 255 
13.0471 -18.2492 2.21939 72 26 108 255 
12.2863 -17.21 1.89092 71 44 122 255 
12.4436 -17.4696 1.71815 72 23 105 255 
12.5004 -17.4582 1.55044 72 40 120 255 
12.4592 -17.4333 1.34437 72 38 119 255 
12.3308 -17.2916 1.13162 72 23 105 255 
12.302 -17.2836 0.92996 72 37 118 255 
12.4292 -17.3716 0.768311 72 28 110 255 
24.3823 -34.1417 1.11327 70 10 93 255 
22.189 -31.1273 0.653897 71 13 96 255 
0 -0 0 68 2 86 255 
0 -0 -0 68 2 86 255 
0 -0 -0 68 2 86 255 
0 -0 -0 68 1 84 255 
0 -0 -0 68 2 86 255 
0 -0 -0 68 2 86 255 
23.9903 -33.6424 -1.88356 70 11 94 255 
19.8455 -27.8706 -1.88292 71 13 96 255 
17.1357 -24.1191 -1.90809 71 19 101 255 
11.1288 -15.5827 -1.38939 72 31 112 255 
8.97585 -12.5964 -1.2662 72 28 110 255 
8.09358 -11.3791 -1.27572 72 32 113 255 
7.37136 -10.3755 -1.28383 72 37 118 255 
6.82293 -9.56416 -1.28044 70 50 126 255 
6.30525 -8.85186 -1.28823 70 52 128 255 
5.86438 -8.248 -1.29644 68 59 132 255 
5.40387 -7.61176 -1.28537 71 44 122 255 
5.03546 -7.06635 -1.26737 69 56 130 255 
4.70031 -6.60358 -1.2606 70 48 126 255 
4.411 -6.20618 -1.2564 67 62 133 255 
4.15015 -5.84581 -1.2538 68 57 131 255 
3.94887 -5.54971 -1.2501 57 86 140 255 
3.74381 -5.2656 -1.2465 49 104 142 255 
3.55642 -5.0038 -1.24563 48 105 142 255 
3.39901 -4.786 -1.25096 50 101 142 255 
3.24303 -4.56277 -1.24204 51 99 141 255 
3.11856 -4.38944 -1.24706 52 97 141 255 
2.98581 -4.20406 -1.24653 53 95 141 255 
2.85294 -4.01413 -1.24248 62 74 137 255 
2.75707 -3.88622 -1.2456 66 65 134 255 
2.64132 -3.72321 -1.23856 70 52 128 255 
2.53466 -3.57017 -1.23402 68 58 131 255 
2.4607 -3.45969 -1.24389 69 53 129 255 
8.39021 -11.8799 4.36893 69 55 129 255 
8.39154 -11.8601 4.20171 70 50 126 255 
8.30499 -11.7289 4.00449 70 48 126 255 
8.04325 -11.3597 3.73739 70 48 126 255 
8.17801 -11.5666 3.67667 64 69 136 255 
8.25718 -11.6746 3.55997 62 73 137 255 
7.76023 -10.9758 3.20979 72 37 118 255 
8.38701 -11.8672 3.32821 72 33 115 255 
8.14945 -11.5219 3.11321 71 17 100 255 
8.2303 -11.6409 2.99652 72 26 108 255 
8.3132 -11.771 2.88737 66 63 133 255 
8.31996 -11.7897 2.75263 72 32 113 255 
22.2465 -31.4527 7.02897 70 7 90 255 
15.6715 -22.1738 4.68521 72 35 116 255 
15.74 -22.3034 4.44089 72 35 116 255 
15.6864 -22.2694 4.17795 72 23 105 255 
15.7126 -22.2231 3.95108 72 26 108 255 
16.1711 -22.8892 3.79415 71 16 99 255 
16.3799 -23.2359 3.57629 72 27 109 255 
12.9739 -18.4322 2.62794 71 19 101 255 
13.9492 -19.7291 2.6206 72 23 105 255 
12.2406 -17.3451 2.10026 72 36 117 255 
12.1971 -17.3087 1.8935 72 37 118 255 
12.155 -17.2879 1.69292 70 51 127 255 
12.0776 -17.0883 1.51097 72 32 113 255 
12.3388 -17.4907 1.34293 70 52 128 255 
12.2227 -17.3645 1.13146 72 41 121 255 
12.2049 -17.3718 0.930661 72 37 118 255 
15.518 -21.9723 0.967559 70 11 94 255 
25.0225 -35.4967 1.15242 70 8 92 255 
0 -0 0 68 2 86 255 
0 -0 0 68 2 86 255 
0 -0 -0 68 2 86 255 
0 -0 -0 68 2 86 255 
0 -0 -0 68 2 86 255 
0 -0 -0 68 1 84 255 
0 -0 -0 68 2 86 255 
24.1693 -34.3371 -1.91412 70 7 90 255 
19.7378 -28.0825 -1.88902 71 13 96 255 
16.9942 -24.2336 -1.90886 71 19 101 255 
10.9439 -15.5244 -1.37817 70 48 126 255 
8.93796 -12.7075 -1.27183 72 29 111 255 
8.02647 -11.4326 -1.27618 72 28 110 255 
7.32527 -10.4457 -1.28694 72 33 115 255 
6.78472 -9.63511 -1.28434 71 46 124 255 
6.26852 -8.91557 -1.29188 69 56 130 255 
5.84899 -8.33416 -1.30432 66 64 134 255 
5.40027 -7.70644 -1.29573 70 52 128 255 
5.01022 -7.12301 -1.272 68 57 131 255 
4.66992 -6.64685 -1.26337 69 56 130 255 
4.39154 -6.25978 -1.26177 66 63 133 255 
4.12947 -5.89294 -1.25845 68 58 131 255 
3.93114 -5.59718 -1.25533 58 83 139 255 
3.71481 -5.29329 -1.24764 51 99 141 255 
3.52621 -5.02633 -1.24583 48 105 142 255 
3.36509 -4.80036 -1.24929 52 97 141 255 
3.2217 -4.59217 -1.24464 49 104 142 255 
3.09324 -4.41088 -1.24774 50 102 142 255 
2.96386 -4.22788 -1.24817 55 91 141 255 
2.85108 -4.06411 -1.25251 59 82 139 255 
2.73484 -3.90544 -1.24636 68 59 132 255 
2.6151 -3.73461 -1.23699 69 55 129 255 
2.50884 -3.58013 -1.23212 69 56 130 255 
2.43115 -3.46294 -1.23968 70 51 127 255 
8.32757 -11.9461 4.3744 69 55 129 255 
8.46602 -12.1225 4.27617 67 62 133 255 
8.10816 -11.6012 3.94383 71 45 123 255 
8.01268 -11.4651 3.7558 72 37 118 255 
8.02047 -11.4927 3.63748 63 72 137 255 
8.19039 -11.7322 3.56214 72 38 119 255 
0 -0 0 68 1 84 255 
8.29396 -11.8896 3.32018 72 28 110 255 
13.8491 -19.8373 5.33696 72 28 110 255 
8.18896 -11.7345 3.00763 61 77 138 255 
8.22904 -11.8049 2.88324 66 65 134 255 
13.9702 -20.0564 4.66261 71 13 96 255 
14.0047 -20.0602 4.46371 71 19 101 255 
15.6248 -22.398 4.71225 72 33 115 255 
15.4404 -22.1663 4.39465 72 36 117 255 
15.5111 -22.31 4.16764 72 26 108 255 
15.5232 -22.2436 3.93772 72 33 115 255 
16.2412 -23.2904 3.84406 72 24 106 255 
14.1765 -20.3746 3.12247 72 20 103 255 
12.7602 -18.367 2.60744 72 23 105 255 
13.0359 -18.6794 2.47051 72 20 103 255 
12.1482 -17.4403 2.10272 72 40 120 255 
12.7646 -18.3522 1.99905 72 37 118 255 
12.0606 -17.3794 1.6946 71 45 123 255 
12.0849 -17.3232 1.52516 72 31 112 255 
12.1628 -17.4678 1.33542 72 31 112 255 
11.9433 -17.1906 1.11533 72 40 120 255 
11.8504 -17.0892 0.911611 71 44 122 255 
11.9562 -17.1514 0.752027 71 19 101 255 
15.514 -22.2973 0.720788 72 26 108 255 
15.2424 -21.9473 0.457088 72 20 103 255 
0 -0 0 68 2 86 255 
0 -0 -0 68 2 86 255 
0 -0 -0 68 2 86 255 
0 -0 -0 68 1 84 255 
0 -0 -0 68 2 86 255 
0 -0 -0 68 2 86 255 
24.1183 -34.7153 -1.92691 70 7 90 255 
19.5919 -28.2417 -1.89161 70 10 93 255 
16.856 -24.353 -1.91009 72 23 105 255 
10.7214 -15.4087 -1.36204 70 48 126 255 
8.87005 -12.7769 -1.2733 72 32 113 255 
7.97148 -11.5037 -1.27864 72 33 115 255 
7.26953 -10.5028 -1.28844 72 35 116 255 
6.73682 -9.69288 -1.2865 70 51 127 255 
6.23521 -8.98486 -1.29635 67 61 132 255 
5.79492 -8.36582 -1.30368 63 71 136 255 
5.38219 -7.78179 -1.30283 68 57 131 255 
4.97601 -7.16744 -1.27446 68 59 132 255 
4.63581 -6.68512 -1.26521 68 59 132 255 
4.36203 -6.29959 -1.26438 64 69 136 255 
4.09155 -5.91574 -1.25794 67 62 133 255 
3.90849 -5.63817 -1.25912 57 85 140 255 
3.68953 -5.32648 -1.2501 52 96 141 255 
3.49252 -5.04384 -1.24483 50 100 142 255 
3.33446 -4.81931 -1.24888 51 99 141 255 
3.20346 -4.6263 -1.24854 50 101 142 255 
3.06723 -4.43138 -1.24819 49 103 142 255 
2.93399 -4.24039 -1.24653 51 99 141 255 
2.81561 -4.06638 -1.24786 66 63 133 255 
2.69377 -3.89747 -1.23852 68 59 132 255 
2.60146 -3.76408 -1.24144 69 55 129 255 
2.50544 -3.62238 -1.24134 69 56 130 255 
2.40931 -3.47701 -1.23939 68 59 132 255 
8.35019 -12.1366 4.42532 70 51 127 255 
8.21211 -11.914 4.18477 69 55 129 255 
7.9225 -11.485 3.88773 64 69 136 255 
8.12424 -11.778 3.8419 72 28 110 255 
8.00415 -11.6206 3.66235 70 51 127 255 
8.12871 -11.7974 3.56673 70 52 128 255 
8.16069 -11.848 3.43532 68 58 131 255 
8.25568 -11.9909 3.33424 72 20 103 255 
7.84898 -11.3911 3.0516 72 28 110 255 
8.10792 -11.7716 3.00433 61 78 138 255 
8.1131 -11.7921 2.86792 71 17 100 255 
13.8218 -20.1053 4.65418 72 29 111 255 
15.4733 -22.4561 4.97562 70 7 90 255 
15.4552 -22.4472 4.70256 71 19 101 255 
15.1766 -22.0752 4.35804 72 36 117 255 
15.417 -22.4675 4.17932 72 28 110 255 
14.9901 -21.763 3.8363 72 29 111 255 
14.9142 -21.6696 3.56139 72 35 116 255 
13.967 -20.3386 3.10374 72 26 108 255 
13.8027 -20.1301 2.84565 71 16 99 255 
13.3412 -19.369 2.55084 72 24 106 255 
12.1001 -17.6006 2.11306 70 50 126 255 
12.3524 -17.9941 1.95175 71 46 124 255 
12.0517 -17.5962 1.70849 72 33 115 255 
11.9252 -17.3198 1.51839 72 40 120 255 
11.8841 -17.2929 1.31645 71 47 125 255 
11.8314 -17.2545 1.11475 71 44 122 255 
11.742 -17.1567 0.911348 72 38 119 255 
15.152 -22.0227 0.961521 72 27 109 255 
15.0979 -21.9858 0.707711 70 11 94 255 
14.9639 -21.831 0.452744 72 29 111 255 
0 -0 0 68 2 86 255 
0 -0 -0 68 1 84 255 
0 -0 -0 68 1 84 255 
0 -0 -0 68 1 84 255 
0 -0 -0 68 2 86 255 
0 -0 -0 68 2 86 255 
24.0291 -35.0439 -1.93693 70 7 90 255 
19.5119 -28.4981 -1.90073 70 11 94 255 
16.7755 -24.5573 -1.918 72 20 103 255 
10.5256 -15.327 -1.34908 72 40 120 255 
8.82697 -12.8828 -1.27844 72 32 113 255 
7.90974 -11.5656 -1.28009 72 31 112 255 
7.22627 -10.5784 -1.29226 71 44 122 255 
6.68116 -9.73978 -1.28726 71 46 124 255 
6.18614 -9.03196 -1.29764 68 59 132 255 
5.71437 -8.35864 -1.29708 60 80 139 255 
5.3416 -7.82531 -1.3046 67 61 132 255 
4.94089 -7.2109 -1.27677 69 53 129 255 
4.60642 -6.73056 -1.26844 68 58 131 255 
4.31773 -6.31809 -1.26275 69 53 129 255 
4.0885 -5.98955 -1.26827 68 59 132 255 
3.87493 -5.66367 -1.25948 61 77 138 255 
3.66121 -5.3555 -1.25162 51 99 141 255 
3.4709 -5.07893 -1.24821 49 103 142 255 
3.30703 -4.84291 -1.24971 53 95 141 255 
3.17502 -4.64587 -1.24854 50 101 142 255 
3.03723 -4.4461 -1.24706 50 100 142 255 
2.90518 -4.2543 -1.24535 53 94 141 255 
2.79443 -4.08918 -1.24957 62 76 138 255 
2.69979 -3.95789 -1.25243 63 71 136 255 
2.59028 -3.79751 -1.2472 66 63 133 255 
2.49511 -3.65517 -1.24731 69 53 129 255 
2.3966 -3.5044 -1.24389 70 52 128 255 
14.6832 -21.6242 7.85177 71 19 101 255 
7.90111 -11.6147 4.06253 66 63 133 255 
7.85839 -11.543 3.89095 68 59 132 255 
7.76812 -11.4109 3.70653 68 57 131 255 
7.92563 -11.6591 3.65909 72 37 118 255 
8.05453 -11.8446 3.56601 72 23 105 255 
8.05831 -11.8544 3.42277 68 58 131 255 
7.79572 -11.4729 3.17685 71 47 125 255 
7.7383 -11.3793 3.03566 65 66 135 255 
8.04874 -11.8406 3.00927 72 36 117 255 
8.08521 -11.9074 2.88383 72 40 120 255 
13.6954 -20.1857 4.65324 71 14 97 255 
21.7097 -31.9244 7.04387 69 4 87 255 
15.1366 -22.2759 4.64713 72 36 117 255 
15.2154 -22.4251 4.40862 72 29 111 255 
15.853 -23.4096 4.33638 70 7 90 255 
14.8591 -21.8587 3.83701 72 20 103 255 
13.791 -20.3032 3.32285 72 33 115 255 
12.1776 -17.9681 2.73055 72 38 119 255 
12.2739 -18.1381 2.55336 72 26 108 255 
12.1037 -17.8053 2.33508 72 23 105 255 
12.1601 -17.9224 2.1427 72 26 108 255 
12.1948 -18.0003 1.94427 72 33 115 255 
11.814 -17.4782 1.68997 72 32 113 255 
11.8272 -17.405 1.51947 70 48 126 255 
11.7699 -17.3539 1.31557 71 45 123 255 
11.7236 -17.3243 1.11459 70 48 126 255 
11.6393 -17.2326 0.911567 71 44 122 255 
12.0744 -17.7822 0.773127 72 20 103 255 
14.8018 -21.8405 0.700098 72 24 106 255 
14.684 -21.7071 0.448297 72 28 110 255 
0 -0 0 68 1 84 255 
0 -0 -0 68 1 84 255 
0 -0 -0 68 1 84 255 
0 -0 -0 68 1 84 255 
0 -0 -0 68 1 84 255 
0 -0 -0 68 2 86 255 
23.9312 -35.3644 -1.94649 70 8 92 255 
19.3383 -28.6198 -1.90089 71 14 97 255 
16.8622 -25.0123 -1.94542 72 22 104 255 
10.4207 -15.3756 -1.34771 70 48 126 255 
8.79968 -13.0135 -1.28603 72 35 116 255 
7.86481 -11.6527 -1.28437 72 31 112 255 
7.18125 -10.6522 -1.29587 72 33 115 255 
6.63855 -9.80611 -1.29062 71 46 124 255 
6.14006 -9.08374 -1.29964 67 61 132 255 
5.70292 -8.45275 -1.30622 66 65 134 255 
5.30455 -7.87437 -1.30733 66 63 133 255 
4.90875 -7.25911 -1.27995 69 56 130 255 
4.56946 -6.76525 -1.26967 68 59 132 255 
4.29047 -6.36164 -1.26617 66 65 134 255 
4.04837 -6.00962 -1.26724 67 61 132 255 
3.83681 -5.68245 -1.2584 60 80 139 255 
3.6162 -5.35996 -1.24745 53 94 141 255 
3.44296 -5.10501 -1.2494 50 101 142 255 
3.27835 -4.86473 -1.25013 51 99 141 255 
3.13881 -4.65393 -1.24551 50 102 142 255 
3.00173 -4.45253 -1.24368 50 102 142 255 
2.88608 -4.28252 -1.24841 52 96 141 255 
2.77146 -4.10946 -1.25055 55 90 140 255 
2.6787 -3.97919 -1.25395 62 74 137 255 
2.57556 -3.82614 -1.25139 66 64 134 255 
2.47317 -3.67121 -1.24758 69 55 129 255 
2.36968 -3.51108 -1.24108 70 50 126 255 
12.5414 -18.716 6.76773 72 20 103 255 
7.8645 -11.7148 4.08059 66 64 134 255 
7.80568 -11.6182 3.90008 62 73 137 255 
7.69688 -11.4567 3.70601 72 26 108 255 
14.4126 -21.4843 6.71474 70 10 93 255 
14.7624 -21.9981 6.59546 72 20 103 255 
7.57415 -11.2906 3.24649 63 71 136 255 
7.73658 -11.5375 3.18154 70 51 127 255 
7.65364 -11.4046 3.02984 62 74 137 255 
7.68645 -11.4582 2.90005 61 78 138 255 
7.77074 -11.5967 2.79699 71 13 96 255 
21.4972 -32.107 7.37083 71 13 96 255 
22.9847 -34.2494 7.52562 70 8 92 255 
14.998 -22.3659 4.64662 72 29 111 255 
14.9309 -22.2991 4.36575 72 28 110 255 
15.1588 -22.683 4.18447 72 20 103 255 
14.7434 -21.9774 3.8419 71 14 97 255 
12.3739 -18.4597 3.00865 72 29 111 255 
12.0997 -18.0912 2.73791 72 40 120 255 
12.6346 -18.9201 2.65249 72 24 106 255 
13.2044 -19.6832 2.57068 72 24 106 255 
13.0764 -19.5298 2.32522 72 24 106 255 
11.9009 -17.8007 1.91479 72 23 105 255 
11.9179 -17.8671 1.72047 72 31 112 255 
12.9639 -19.332 1.68072 72 22 104 255 
11.7282 -17.5228 1.3229 71 47 125 255 
11.6044 -17.3768 1.11336 70 50 126 255 
11.54 -17.3136 0.912093 72 35 116 255 
11.579 -17.2798 0.748181 69 55 129 255 
14.6186 -21.8578 0.697764 72 22 104 255 
14.5111 -21.7377 0.447083 72 26 108 255 
0 -0 0 68 1 84 255 
0 -0 -0 68 2 86 255 
0 -0 -0 68 1 84 255 
0 -0 -0 68 1 84 255 
0 -0 -0 68 2 86 255 
29.7855 -44.5172 -1.94533 69 5 89 255 
23.6683 -35.4425 -1.94276 70 7 90 255 
19.0593 -28.5834 -1.89067 70 11 94 255 
16.7349 -25.1552 -1.94851 71 16 99 255 
10.3339 -15.4508 -1.34872 68 58 131 255 
8.72298 -13.0723 -1.28652 72 33 115 255 
7.81193 -11.7289 -1.28746 72 36 117 255 
7.12898 -10.716 -1.29828 72 33 115 255 
6.58653 -9.85906 -1.29225 71 45 123 255 
6.1079 -9.15676 -1.30471 70 51 127 255 
5.6339 -8.46199 -1.30229 72 41 121 255 
5.26491 -7.91997 -1.30951 64 70 136 255 
4.86576 -7.29156 -1.28038 69 53 129 255 
4.54266 -6.81536 -1.27382 68 57 131 255 
4.26393 -6.40674 -1.26991 67 62 133 255 
4.01469 -6.03927 -1.26827 68 58 131 255 
3.80623 -5.71243 -1.25984 54 92 141 255 
3.5827 -5.38123 -1.24726 54 92 141 255 
3.41049 -5.12441 -1.24901 48 105 142 255 
3.25602 -4.89616 -1.25304 50 100 142 255 
3.10857 -4.67067 -1.24486 49 103 142 255 
2.97543 -4.47249 -1.24413 49 103 142 255 
2.85975 -4.30015 -1.24841 50 102 142 255 
2.74619 -4.12639 -1.25055 58 84 140 255 
2.65958 -4.00361 -1.25648 60 79 138 255 
2.54509 -3.83142 -1.24799 67 61 132 255 
2.4458 -3.6791 -1.24514 67 62 133 255 
2.35182 -3.53115 -1.24305 70 51 127 255 
7.8507 -11.8728 4.27572 72 23 105 255 
7.94208 -11.9886 4.15893 70 50 126 255 
7.89819 -11.9131 3.98275 68 57 131 255 
0 -0 0 68 1 84 255 
14.2768 -21.5667 6.71298 71 16 99 255 
7.64979 -11.5518 3.44932 70 50 126 255 
7.53104 -11.3766 3.25787 66 63 133 255 
7.53278 -11.384 3.12639 71 45 123 255 
7.46167 -11.2674 2.98116 62 76 138 255 
7.54739 -11.4015 2.87393 53 94 141 255 
7.64428 -11.5608 2.77696 72 28 110 255 
7.59215 -11.4911 2.62727 70 8 92 255 
21.6416 -32.6797 7.15138 70 8 92 255 
14.7691 -22.3195 4.61805 71 16 99 255 
14.7715 -22.3565 4.35916 72 26 108 255 
14.2918 -21.6723 3.98178 72 35 116 255 
12.0425 -18.1915 3.1671 71 45 123 255 
12.01 -18.1567 2.94721 71 42 122 255 
11.9944 -18.1742 2.73929 72 33 115 255 
12.9565 -19.6625 2.74537 72 29 111 255 
12.9676 -19.5889 2.54792 72 36 117 255 
12.9497 -19.5997 2.32404 72 22 104 255 
13.89 -21.0543 2.25556 70 11 94 255 
11.7439 -17.8425 1.71113 72 24 106 255 
11.6716 -17.6379 1.52718 71 42 122 255 
11.654 -17.6453 1.32671 69 53 129 255 
11.5239 -17.4877 1.11592 71 45 123 255 
11.4785 -17.4525 0.915684 71 47 125 255 
11.8437 -17.9115 0.772372 71 45 123 255 
14.4005 -21.8203 0.693732 72 27 109 255 
14.3571 -21.7954 0.44645 72 26 108 255 
0 -0 0 68 1 84 255 
0 -0 -0 68 1 84 255 
0 -0 -0 68 1 84 255 
0 -0 -0 68 1 84 255 
0 -0 -0 68 2 86 255 
29.2607 -44.3189 -1.92878 69 5 89 255 
0 -0 -0 69 5 89 255 
19.1487 -29.1027 -1.91721 71 13 96 255 
16.5835 -25.2624 -1.94889 71 19 101 255 
10.1741 -15.4157 -1.34018 71 45 123 255 
8.6607 -13.153 -1.28921 72 32 113 255 
7.78084 -11.839 -1.29428 72 38 119 255 
7.07074 -10.7712 -1.29968 72 33 115 255 
6.53029 -9.90592 -1.29311 71 46 124 255 
6.04014 -9.17665 -1.30223 70 50 126 255 
5.59222 -8.51215 -1.3047 71 42 122 255 
5.21893 -7.95627 -1.31019 66 65 134 255 
4.82691 -7.33037 -1.28197 68 57 131 255 
4.50619 -6.85136 -1.27535 68 58 131 255 
4.2332 -6.44597 -1.27252 65 66 135 255 
3.97972 -6.06709 -1.26896 67 61 132 255 
3.79867 -5.77759 -1.26905 50 100 142 255 
3.55501 -5.41132 -1.24916 53 94 141 255 
3.37736 -5.14278 -1.24841 48 106 142 255 
3.21733 -4.90296 -1.24971 52 96 141 255 
3.08521 -4.69781 -1.24702 50 102 142 255 
2.95969 -4.50858 -1.24909 50 101 142 255 
2.82851 -4.3103 -1.24629 51 99 141 255 
2.71869 -4.13992 -1.24957 55 90 140 255 
2.63125 -4.01419 -1.25471 63 72 137 255 
2.51624 -3.8389 -1.24537 66 63 133 255 
2.43691 -3.71496 -1.25219 66 65 134 255 
2.3143 -3.52145 -1.23461 70 48 126 255 
7.8091 -11.9689 4.29298 71 44 122 255 
7.98243 -12.2116 4.21922 72 38 119 255 
14.2919 -21.8469 7.27433 71 13 96 255 
7.72806 -11.8138 3.79055 72 31 112 255 
14.2755 -21.8548 6.77528 71 14 97 255 
7.64883 -11.7058 3.48121 68 58 131 255 
7.46854 -11.434 3.26112 72 41 121 255 
7.4063 -11.3435 3.10273 71 44 122 255 
7.4597 -11.416 3.0083 63 71 136 255 
7.48907 -11.4656 2.87845 57 85 140 255 
7.62892 -11.6929 2.79739 66 64 134 255 
7.66258 -11.7539 2.67655 71 13 96 255 
21.5053 -32.9107 7.17292 70 8 92 255 
14.5322 -22.257 4.58659 71 17 100 255 
14.3694 -22.0408 4.28032 72 22 104 255 
14.1935 -21.8134 3.99163 72 20 103 255 
12.7717 -19.5526 3.39036 72 24 106 255 
11.913 -18.2525 2.95083 71 44 122 255 
12.0841 -18.5567 2.78572 72 31 112 255 
12.807 -19.6975 2.73923 72 31 112 255 
12.9428 -19.8146 2.5669 71 16 99 255 
11.4363 -17.5422 2.07171 72 23 105 255 
12.0701 -18.5423 1.97847 71 14 97 255 
11.5734 -17.8206 1.70218 72 26 108 255 
11.5495 -17.6883 1.52538 71 42 122 255 
11.4921 -17.6345 1.32058 69 56 130 255 
11.4104 -17.5489 1.11533 70 51 127 255 
11.3881 -17.5486 0.917041 70 48 126 255 
11.9023 -18.2425 0.78348 72 36 117 255 
14.2609 -21.8998 0.693466 72 29 111 255 
0 -0 0 68 2 86 255 
0 -0 0 68 1 84 255 
0 -0 -0 68 2 86 255 
0 -0 -0 68 2 86 255 
0 -0 -0 68 2 86 255 
0 -0 -0 68 1 84 255 
0 -0 -0 68 2 86 255 
0 -0 -0 69 4 87 255 
18.9676 -29.2163 -1.91699 71 17 100 255 
16.3702 -25.274 -1.94201 71 14 97 255 
9.96393 -15.3007 -1.32484 70 52 128 255 
8.82743 -13.587 -1.32642 72 37 118 255 
7.72214 -11.9083 -1.29665 72 32 113 255 
7.01371 -10.8285 -1.30139 72 31 112 255 
6.48077 -9.96331 -1.29539 71 47 125 255 
5.98209 -9.21104 -1.30188 69 53 129 255 
5.55499 -8.5696 -1.30826 70 48 126 255 
5.17701 -7.99895 -1.31196 67 62 133 255 
4.79802 -7.38474 -1.28631 67 61 132 255 
4.48343 -6.90872 -1.28089 65 66 135 255 
4.20001 -6.48176 -1.27447 66 65 134 255 
3.95312 -6.10793 -1.27241 66 64 134 255 
3.76368 -5.80162 -1.26923 53 95 141 255 
3.53669 -5.4561 -1.25446 49 103 142 255 
3.35001 -5.16998 -1.25 46 110 142 255 
3.18825 -4.92425 -1.25013 52 96 141 255 
3.0627 -4.72649 -1.24962 51 98 141 255 
2.93303 -4.52829 -1.24955 47 107 142 255 
2.81363 -4.34553 -1.25146 52 97 141 255 
2.68691 -4.14676 -1.24664 53 94 141 255 
2.6092 -4.03432 -1.25597 57 85 140 255 
2.49893 -3.86399 -1.24851 68 58 131 255 
2.42505 -3.74681 -1.25789 69 56 130 255 
2.2963 -3.54122 -1.23658 71 45 123 255 
7.69145 -11.9481 4.26853 64 70 136 255 
14.3391 -22.2329 7.6511 72 20 103 255 
7.68924 -11.9128 3.95081 72 37 118 255 
7.635 -11.8293 3.78044 72 31 112 255 
7.56213 -11.7338 3.62316 72 38 119 255 
7.57528 -11.75 3.48049 67 61 132 255 
11.0818 -17.1953 4.88483 72 35 116 255 
7.31703 -11.3584 3.09447 63 71 136 255 
7.43607 -11.5337 3.02726 59 82 139 255 
7.37882 -11.4497 2.86302 55 91 141 255 
7.56765 -11.756 2.80132 72 33 115 255 
14.704 -22.8603 5.18503 71 19 101 255 
15.4995 -24.0405 5.21882 69 5 89 255 
15.0326 -23.3349 4.78962 71 19 101 255 
14.3946 -22.3784 4.32865 72 20 103 255 
13.2467 -20.6341 3.76089 71 17 100 255 
12.0644 -18.7197 3.23304 72 38 119 255 
11.8056 -18.3327 2.95204 72 27 109 255 
12.0124 -18.6965 2.79558 72 33 115 255 
12.6762 -19.7606 2.73714 72 32 113 255 
12.6998 -19.7057 2.54264 72 29 111 255 
11.5023 -17.8823 2.10351 72 27 109 255 
11.9954 -18.6772 1.98497 72 24 106 255 
11.8774 -18.5367 1.76359 72 22 104 255 
11.3268 -17.5819 1.51018 71 42 122 255 
11.3286 -17.6191 1.31419 68 57 131 255 
11.3009 -17.6161 1.11517 70 48 126 255 
11.6853 -18.2509 0.949974 72 29 111 255 
12.1223 -18.8311 0.805551 71 45 123 255 
13.8204 -21.5109 0.678453 72 28 110 255 
13.8408 -21.5837 0.438599 71 13 96 255 
0 -0 0 68 1 84 255 
0 -0 -0 68 1 84 255 
0 -0 -0 68 1 84 255 
0 -0 -0 68 1 84 255 
0 -0 -0 68 1 84 255 
0 -0 -0 69 5 89 255 
21.3608 -33.2984 -1.80337 70 7 90 255 
18.7836 -29.3254 -1.91655 71 17 100 255 
16.1116 -25.2126 -1.92965 72 20 103 255 
9.76258 -15.1946 -1.31044 69 55 129 255 
8.91709 -13.9111 -1.35269 69 55 129 255 
7.64678 -11.9521 -1.29629 72 32 113 255 
6.96803 -10.9041 -1.3053 72 37 118 255 
6.4367 -10.0297 -1.29886 71 45 123 255 
5.96618 -9.31112 -1.31083 71 46 124 255 
