ply
format ascii 1.0
comment VTK generated PLY File
obj_info vtkPolyData points and polygons: vtk4.0
element vertex 1235
property float x
property float y
property float z
property uchar red
property uchar green
property uchar blue
property uchar alpha
element face 0
property list uchar int vertex_indices
end_header
-7.09305 -14.686 -1.64513 71 19 101 255 
-6.29253 -13.0934 -1.58327 71 14 97 255 
-5.69762 -11.8339 -1.55684 72 31 112 255 
-5.15592 -10.6851 -1.51982 72 24 106 255 
-4.70046 -9.72357 -1.48711 72 29 111 255 
-4.36074 -9.06162 -1.46885 72 32 113 255 
-4.08544 -8.47783 -1.46361 69 53 129 255 
-3.81156 -7.89557 -1.44672 68 57 131 255 
-3.56435 -7.37337 -1.43228 60 80 139 255 
-3.33031 -6.90805 -1.40751 62 73 137 255 
-3.1586 -6.54573 -1.40222 58 83 139 255 
-2.97815 -6.16917 -1.39 59 82 139 255 
-2.83902 -5.87552 -1.3906 61 77 138 255 
-2.70731 -5.60828 -1.38176 58 83 139 255 
-2.57689 -5.33547 -1.37229 63 72 137 255 
-2.46113 -5.09363 -1.36754 61 78 138 255 
-2.36149 -4.8916 -1.37042 59 81 139 255 
-2.25847 -4.6681 -1.35562 59 82 139 255 
-2.195 -4.53668 -1.36739 61 78 138 255 
-2.08734 -4.31811 -1.35175 58 83 139 255 
-2.00744 -4.16192 -1.35383 67 61 132 255 
-0 -0 0 68 2 86 255 
-0 -0 0 68 2 86 255 
-0 -0 0 68 2 86 255 
-0 -0 0 68 2 86 255 
-0 -0 0 68 2 86 255 
-0 -0 0 68 2 86 255 
-8.8059 -18.1267 4.81214 71 17 100 255 
-0 -0 0 68 2 86 255 
-0 -0 0 68 2 86 255 
-0 -0 0 68 2 86 255 
-9.53984 -19.6113 4.36965 70 7 90 255 
-8.84662 -18.1693 3.855 72 38 119 255 
-8.80991 -18.1432 3.67988 70 50 126 255 
-8.69368 -17.8873 3.4317 68 57 131 255 
-8.6254 -17.7158 3.20546 69 55 129 255 
-8.8122 -18.0586 3.082 72 35 116 255 
-8.77352 -18.0602 2.91483 71 45 123 255 
-8.12717 -16.7143 2.51615 71 46 124 255 
-8.66543 -17.7743 2.48754 71 46 124 255 
-8.75523 -17.926 2.32592 72 41 121 255 
-9.0423 -18.6135 2.2444 72 33 115 255 
-8.86509 -18.2077 2.00349 72 38 119 255 
-8.93311 -18.3153 1.82225 72 26 108 255 
-7.6817 -15.7072 1.40067 72 41 121 255 
-8.09619 -16.6586 1.33741 71 44 122 255 
-8.10256 -16.6342 1.16084 67 62 133 255 
-8.19088 -16.7712 0.9945 70 52 128 255 
-7.63896 -15.606 0.761661 72 38 119 255 
-7.90801 -16.257 0.650264 72 35 116 255 
-8.0921 -16.598 0.489986 70 51 127 255 
-12.0959 -24.7559 0.471318 71 46 124 255 
-12.1279 -24.7549 0.216508 72 33 115 255 
-12.0708 -24.8038 -0.00481449 71 42 122 255 
-12.1001 -24.797 -0.26487 72 38 119 255 
-12.112 -24.7671 -0.519746 72 35 116 255 
-12.1233 -24.7236 -0.778769 72 31 112 255 
-12.0724 -24.7739 -1.0009 72 40 120 255 
-12.0718 -24.717 -1.25392 72 40 120 255 
-12.0941 -24.7194 -1.51448 72 37 118 255 
-12.0945 -24.6541 -1.77101 71 19 101 255 
-9.57916 -19.6489 -1.58609 72 26 108 255 
-8.80837 -18.0192 -1.64193 72 26 108 255 
-8.09427 -16.5222 -1.68086 72 22 104 255 
-7.20143 -14.6798 -1.64934 71 16 99 255 
-6.37406 -13.0572 -1.58359 71 17 100 255 
-5.7806 -11.8201 -1.55967 72 31 112 255 
-5.20392 -10.6177 -1.51474 72 32 113 255 
-4.76134 -9.69721 -1.48752 72 28 110 255 
-4.42538 -9.05336 -1.47188 72 32 113 255 
-4.14477 -8.46769 -1.46622 66 64 134 255 
-3.85255 -7.85697 -1.44396 69 53 129 255 
-3.613 -7.35843 -1.43366 59 81 139 255 
-3.38993 -6.92282 -1.41473 61 77 138 255 
-3.20259 -6.53417 -1.40393 58 84 140 255 
-3.02112 -6.16134 -1.39238 58 84 140 255 
-2.87157 -5.85097 -1.38894 58 83 139 255 
-2.73222 -5.57228 -1.37699 60 80 139 255 
-2.61472 -5.33005 -1.375 57 86 140 255 
-2.49362 -5.08105 -1.36824 62 74 137 255 
-2.39146 -4.87702 -1.37042 60 80 139 255 
-2.29475 -4.66979 -1.36017 57 86 140 255 
-2.21769 -4.51273 -1.36425 62 76 138 255 
-2.10744 -4.29226 -1.34768 62 76 138 255 
-2.0304 -4.14435 -1.35214 66 65 134 255 
-0 -0 0 68 2 86 255 
-0 -0 0 68 2 86 255 
-0 -0 0 68 2 86 255 
-0 -0 0 68 2 86 255 
-0 -0 0 68 2 86 255 
-0 -0 0 68 2 86 255 
-0 -0 0 68 2 86 255 
-0 -0 0 68 2 86 255 
-0 -0 0 68 2 86 255 
-0 -0 0 68 2 86 255 
-8.89907 -18.0123 4.02546 72 31 112 255 
-9.71688 -19.6494 4.1816 72 28 110 255 
-9.41234 -19.0849 3.88253 72 37 118 255 
-8.80458 -17.8363 3.43221 68 58 131 255 
-8.81663 -17.8297 3.23581 69 56 130 255 
-9.24677 -18.6578 3.19388 72 38 119 255 
-9.01466 -18.2705 2.95764 71 42 122 255 
-8.8667 -17.9543 2.71095 72 37 118 255 
-8.93106 -18.0374 2.53197 69 53 129 255 
-8.96702 -18.0775 2.35267 72 24 106 255 
-9.265 -18.7779 2.27103 72 33 115 255 
-8.85225 -17.9014 1.97572 71 46 124 255 
-8.85079 -17.8674 1.78306 71 47 125 255 
-8.81109 -17.7399 1.58672 72 38 119 255 
-8.72008 -17.6657 1.42253 72 23 105 255 
-8.23545 -16.6468 1.16523 69 55 129 255 
-8.19646 -16.5247 0.982847 67 61 132 255 
-8.66804 -17.4366 0.853584 71 46 124 255 
-7.68934 -15.5639 0.624419 71 42 122 255 
-8.33618 -16.8356 0.498501 72 28 110 255 
-8.38266 -16.8927 0.322587 71 45 123 255 
-13.7625 -27.6604 0.242654 71 17 100 255 
-12.221 -24.7256 -0.00481379 72 32 113 255 
-12.2725 -24.7635 -0.265311 72 23 105 255 
-13.751 -27.6867 -0.582775 71 13 96 255 
-13.788 -27.6875 -0.874776 72 26 108 255 
-12.2303 -24.7119 -1.00141 72 20 103 255 
-13.7325 -27.6852 -1.40874 71 17 100 255 
-13.7446 -27.6617 -1.69988 71 17 100 255 
-13.7804 -27.6601 -1.99298 71 14 97 255 
-9.77123 -19.7345 -1.59781 72 23 105 255 
-8.97018 -18.0684 -1.65139 72 29 111 255 
-8.22965 -16.5409 -1.68786 72 22 104 255 
-7.31843 -14.6896 -1.65547 71 17 100 255 
-6.47923 -13.0686 -1.58977 71 13 96 255 
-5.84241 -11.7631 -1.55684 72 29 111 255 
-5.27782 -10.6033 -1.51728 72 31 112 255 
-4.85479 -9.73608 -1.49802 72 31 112 255 
-4.47689 -9.01806 -1.47058 72 32 113 255 
-4.18477 -8.41821 -1.46207 68 59 132 255 
-3.89189 -7.81552 -1.4407 68 58 131 255 
-3.65676 -7.33348 -1.43314 61 78 138 255 
-3.43716 -6.91158 -1.41671 61 77 138 255 
-3.24262 -6.51439 -1.40393 57 86 140 255 
-3.06411 -6.15321 -1.39477 54 92 141 255 
-2.91876 -5.856 -1.39436 60 79 138 255 
-2.75591 -5.53444 -1.37179 62 73 137 255 
-2.64955 -5.31827 -1.37612 60 80 139 255 
-2.53125 -5.0787 -1.37177 60 79 138 255 
-2.42782 -4.87527 -1.37409 58 84 140 255 
-2.32812 -4.66514 -1.36295 55 90 140 255 
-2.23887 -4.48609 -1.36032 58 83 139 255 
-2.1376 -4.287 -1.35012 61 77 138 255 
-2.06135 -4.14299 -1.3558 63 72 137 255 
-0 -0 0 68 2 86 255 
-0 -0 0 68 2 86 255 
-0 -0 0 68 2 86 255 
-0 -0 0 68 2 86 255 
-0 -0 0 68 2 86 255 
-0 -0 0 68 2 86 255 
-0 -0 0 68 2 86 255 
-0 -0 0 68 2 86 255 
-0 -0 0 68 2 86 255 
-0 -0 0 68 2 86 255 
-9.01734 -17.9731 4.02899 72 24 106 255 
-9.62038 -19.1576 4.08941 72 31 112 255 
-9.60636 -19.1807 3.91394 72 33 115 255 
-8.99202 -17.9379 3.4623 71 42 122 255 
-9.06185 -18.0461 3.28511 72 26 108 255 
-9.23843 -18.3571 3.15204 72 33 115 255 
-9.40279 -18.7661 3.04714 71 45 123 255 
-8.88741 -17.7215 2.68399 72 28 110 255 
-8.81961 -17.5408 2.46981 71 42 122 255 
-9.08581 -18.0381 2.35476 71 44 122 255 
-9.19433 -18.3501 2.22606 72 37 118 255 
-8.91771 -17.7587 1.96598 70 51 127 255 
-8.8582 -17.6099 1.76275 67 61 132 255 
-9.00282 -17.8501 1.60149 72 36 117 255 
-8.8444 -17.644 1.42513 67 62 133 255 
-8.42481 -16.7698 1.17744 72 41 121 255 
-8.28287 -16.4447 0.981091 68 58 131 255 
-8.32467 -16.4912 0.80979 71 47 125 255 
-8.65992 -17.2609 0.694621 72 28 110 255 
-8.5462 -16.9967 0.504814 72 28 110 255 
-8.4875 -16.8437 0.322638 72 36 117 255 
-13.9473 -27.6058 0.242921 72 31 112 255 
-13.8861 -27.6657 -0.00540267 72 36 117 255 
-13.9031 -27.6264 -0.296893 72 32 113 255 
-13.9643 -27.6884 -0.584603 72 35 116 255 
-13.9549 -27.597 -0.874607 72 35 116 255 
-13.8864 -27.6304 -1.12311 72 31 112 255 
-13.9079 -27.612 -1.40934 72 29 111 255 
-13.9312 -27.6107 -1.70197 72 29 111 255 
-13.9742 -27.6232 -1.99645 72 22 104 255 
-10.1305 -20.1483 -1.63631 71 16 99 255 
-9.09478 -18.0406 -1.65392 72 29 111 255 
-8.33908 -16.5061 -1.6895 71 19 101 255 
-7.41427 -14.656 -1.65677 72 22 104 255 
-6.54946 -13.0091 -1.58738 71 16 99 255 
-5.89436 -11.6871 -1.55155 72 27 109 255 
-5.34994 -10.5849 -1.51931 72 36 117 255 
-4.9225 -9.72202 -1.50048 72 31 112 255 
-4.5268 -8.97982 -1.46885 72 29 111 255 
-4.23768 -8.39502 -1.46253 67 61 132 255 
-3.94734 -7.80646 -1.44347 68 57 131 255 
-3.70169 -7.31091 -1.43314 60 79 138 255 
-3.47463 -6.8807 -1.41473 61 78 138 255 
-3.27988 -6.48912 -1.40279 57 85 140 255 
-3.10579 -6.14217 -1.39656 53 95 141 255 
-2.95905 -5.84671 -1.39644 58 83 139 255 
-2.79511 -5.52788 -1.37439 60 79 138 255 
-2.67422 -5.28626 -1.37206 60 80 139 255 
-2.56325 -5.06481 -1.37224 58 83 139 255 
-2.45113 -4.8473 -1.37042 60 80 139 255 
-2.35451 -4.64645 -1.36169 60 80 139 255 
-2.26941 -4.47829 -1.36216 58 84 140 255 
-2.1756 -4.29699 -1.35745 60 79 138 255 
-2.085 -4.12683 -1.35467 60 79 138 255 
-0 -0 0 68 2 86 255 
-0 -0 0 68 2 86 255 
-0 -0 0 68 2 86 255 
-0 -0 0 68 2 86 255 
-0 -0 0 68 2 86 255 
-0 -0 0 68 2 86 255 
-0 -0 0 68 2 86 255 
-0 -0 0 68 2 86 255 
-0 -0 0 68 2 86 255 
-0 -0 0 68 2 86 255 
-9.85915 -19.3538 4.35197 72 22 104 255 
-9.87562 -19.3686 4.14731 71 17 100 255 
-9.71495 -19.1039 3.91035 72 33 115 255 
-9.52791 -18.7193 3.62435 72 41 121 255 
-9.78348 -19.1887 3.50397 71 44 122 255 
-9.90545 -19.3853 3.33897 72 40 120 255 
-10.0212 -19.6977 3.20833 71 46 124 255 
-10.0711 -19.778 3.00476 72 35 116 255 
-9.25324 -18.1253 2.56005 72 35 116 255 
-9.19949 -17.9882 2.35557 72 36 117 255 
-9.11832 -17.9229 2.18099 69 53 129 255 
-8.93701 -17.5281 1.94648 70 50 126 255 
-8.97334 -17.5694 1.76417 71 46 124 255 
-9.0931 -17.7573 1.59814 70 51 127 255 
-9.71663 -19.0907 1.54677 72 20 103 255 
-8.97787 -17.6006 1.23962 72 33 115 255 
-8.31451 -16.2584 0.973004 67 62 133 255 
-8.28399 -16.1634 0.79617 72 41 121 255 
-8.64637 -16.9733 0.685167 71 47 125 255 
-8.70169 -17.0445 0.507812 72 24 106 255 
-14.1429 -27.6436 0.531163 72 31 112 255 
-14.1789 -27.6416 0.243997 72 32 113 255 
-14.0619 -27.5924 -0.00540511 72 33 115 255 
-14.1119 -27.6181 -0.297728 72 36 117 255 
-14.1408 -27.6156 -0.584886 72 33 115 255 
-9.1897 -17.8998 -0.569058 72 37 118 255 
-9.20362 -18.0361 -0.735407 71 44 122 255 
-9.09469 -17.7836 -0.910519 71 45 123 255 
-14.1299 -27.5825 -1.70554 72 31 112 255 
-14.1598 -27.5688 -1.99877 72 26 108 255 
-10.258 -20.0937 -1.63696 71 17 100 255 
-9.14128 -17.8594 -1.64242 72 27 109 255 
-8.45429 -16.4821 -1.69232 72 23 105 255 
-7.53679 -14.6739 -1.664 71 16 99 255 
-6.6373 -12.9846 -1.58933 71 19 101 255 
-5.96053 -11.6401 -1.55013 72 26 108 255 
-5.43199 -10.5854 -1.52414 72 29 111 255 
-4.97662 -9.68106 -1.49884 72 35 116 255 
-4.58091 -8.95011 -1.46856 72 31 112 255 
-4.28912 -8.36886 -1.46253 68 58 131 255 
-3.99968 -7.79087 -1.4451 66 65 134 255 
-3.74963 -7.29419 -1.43434 59 81 139 255 
-3.51679 -6.85925 -1.41473 60 80 139 255 
-3.32098 -6.47149 -1.40336 56 88 140 255 
-3.15193 -6.13956 -1.40034 52 97 141 255 
-2.99845 -5.8354 -1.39811 59 82 139 255 
-2.83967 -5.53147 -1.37959 60 80 139 255 
-2.70571 -5.26802 -1.37161 60 80 139 255 
-2.59739 -5.05504 -1.37388 57 85 140 255 
-2.48127 -4.83303 -1.37066 60 80 139 255 
-2.38032 -4.62676 -1.36017 58 83 139 255 
-2.29508 -4.46085 -1.36111 59 82 139 255 
-2.20325 -4.28613 -1.35826 61 78 138 255 
-2.11466 -4.1225 -1.35749 61 78 138 255 
-0 -0 0 68 2 86 255 
-0 -0 0 69 4 87 255 
-0 -0 0 69 4 87 255 
-0 -0 0 68 2 86 255 
-0 -0 0 68 2 86 255 
-0 -0 0 68 2 86 255 
-0 -0 0 68 2 86 255 
-0 -0 0 68 2 86 255 
-0 -0 0 68 2 86 255 
-0 -0 0 68 2 86 255 
-9.89439 -19.1318 4.31563 71 13 96 255 
-9.94416 -19.2108 4.12651 71 19 101 255 
-9.80626 -18.9941 3.90012 72 40 120 255 
-9.79821 -18.9616 3.68284 72 29 111 255 
-9.75675 -18.8495 3.4529 72 41 121 255 
-9.76022 -18.8153 3.25104 72 24 106 255 
-9.4171 -18.2325 2.97904 72 29 111 255 
-9.28852 -17.9676 2.73832 71 42 122 255 
-9.06524 -17.4911 2.4783 71 46 124 255 
-9.30694 -17.9262 2.35487 72 41 121 255 
-9.22675 -17.864 2.18067 71 44 122 255 
-9.03753 -17.4597 1.94501 67 61 132 255 
-9.09335 -17.5379 1.76658 70 52 128 255 
-9.19315 -17.6844 1.59662 70 52 128 255 
-9.12252 -17.6546 1.43492 72 41 121 255 
-8.60518 -16.6173 1.17406 70 50 126 255 
-8.3796 -16.1406 0.969013 68 57 131 255 
-8.3286 -16.0076 0.791003 66 65 134 255 
-8.82151 -17.0575 0.690739 72 33 115 255 
-8.63086 -16.6527 0.497705 72 35 116 255 
-8.64517 -16.6451 0.320843 69 56 130 255 
-14.3686 -27.5931 0.244343 72 32 113 255 
-14.3031 -27.6451 -0.00543251 72 33 115 255 
-14.312 -27.5904 -0.298371 72 31 112 255 
-14.3537 -27.6126 -0.586677 72 33 115 255 
-9.255 -17.758 -0.566344 71 44 122 255 
-9.247 -17.8497 -0.730108 72 35 116 255 
-9.19719 -17.7151 -0.909882 69 55 129 255 
-14.3675 -27.6273 -1.71373 72 23 105 255 
-14.3836 -27.5867 -2.00643 72 26 108 255 
-11.813 -22.7932 -1.86275 71 14 97 255 
-9.21347 -17.7313 -1.63581 72 32 113 255 
-8.5617 -16.4422 -1.6936 71 17 100 255 
-7.61334 -14.6018 -1.66109 71 19 101 255 
-6.73196 -12.9727 -1.59291 71 16 99 255 
-6.01031 -11.5619 -1.5446 72 26 108 255 
-5.49684 -10.5519 -1.52414 72 29 111 255 
-5.03685 -9.65209 -1.49912 72 32 113 255 
-4.64897 -8.9473 -1.47275 72 33 115 255 
-4.34403 -8.34939 -1.46376 69 55 129 255 
-4.04284 -7.75743 -1.44347 65 68 135 255 
-3.7966 -7.27541 -1.43521 59 82 139 255 
-3.56562 -6.85063 -1.41744 60 79 138 255 
-3.36879 -6.46666 -1.40677 55 90 140 255 
-3.1909 -6.12271 -1.40093 57 86 140 255 
-3.03601 -5.82036 -1.39894 61 78 138 255 
-2.87898 -5.52433 -1.38219 60 79 138 255 
-2.73574 -5.247 -1.37048 60 80 139 255 
-2.62161 -5.02608 -1.37036 59 82 139 255 
-2.51177 -4.81944 -1.37115 60 80 139 255 
-2.40419 -4.60349 -1.35764 59 82 139 255 
-2.31973 -4.44155 -1.35954 61 78 138 255 
-2.22861 -4.27082 -1.35772 63 72 137 255 
-2.13992 -4.10945 -1.35749 60 79 138 255 
-0 -0 0 68 2 86 255 
-0 -0 0 68 2 86 255 
-0 -0 0 68 2 86 255 
-0 -0 0 68 2 86 255 
-0 -0 0 68 2 86 255 
-0 -0 0 68 2 86 255 
-0 -0 0 68 2 86 255 
-0 -0 0 68 1 84 255 
-0 -0 0 68 2 86 255 
-0 -0 0 68 2 86 255 
-10.2199 -19.4675 4.40541 72 37 118 255 
-10.1322 -19.2833 4.15537 69 5 89 255 
-10.0783 -19.2307 3.96132 72 35 116 255 
-9.83702 -18.7537 3.65411 72 32 113 255 
-10.0338 -19.0969 3.50942 72 40 120 255 
-9.54114 -18.1201 3.14097 72 29 111 255 
-9.51823 -18.1542 2.97574 70 48 126 255 
-9.14027 -17.418 2.66306 72 40 120 255 
-9.22552 -17.5362 2.49266 70 50 126 255 
-9.41028 -17.8564 2.35325 72 41 121 255 
-9.42575 -17.9778 2.20159 72 33 115 255 
-9.15837 -17.4303 1.94796 69 55 129 255 
-9.19105 -17.4633 1.76471 70 52 128 255 
-9.30892 -17.6417 1.5979 72 31 112 255 
-9.22188 -17.5816 1.43355 72 36 117 255 
-8.60296 -16.3663 1.16003 68 58 131 255 
-8.54645 -16.2179 0.976782 64 69 136 255 
-8.49384 -16.0835 0.797309 69 55 129 255 
-8.84332 -16.8456 0.684341 72 38 119 255 
-8.73613 -16.6056 0.497891 72 28 110 255 
-14.5511 -27.6007 0.533728 72 36 117 255 
-14.575 -27.5751 0.244971 72 36 117 255 
-14.4994 -27.6081 -0.00544263 72 33 115 255 
-14.5276 -27.5906 -0.299331 72 37 118 255 
-14.5528 -27.5806 -0.587883 72 29 111 255 
-9.31985 -17.6178 -0.563687 70 48 126 255 
-9.24611 -17.583 -0.721506 70 48 126 255 
-9.2992 -17.6459 -0.909244 72 37 118 255 
-9.42207 -17.8493 -1.11076 72 40 120 255 
-9.53604 -18.0189 -1.31477 71 16 99 255 
-11.9601 -22.7344 -1.86391 71 13 96 255 
-9.29187 -17.6171 -1.63051 72 36 117 255 
-8.66941 -16.4026 -1.69496 72 23 105 255 
-7.6893 -14.5293 -1.65818 71 16 99 255 
-6.79429 -12.8987 -1.5889 71 14 97 255 
-6.0626 -11.4897 -1.53989 72 29 111 255 
-5.5536 -10.503 -1.52198 72 32 113 255 
-5.08949 -9.60875 -1.49721 72 27 109 255 
-4.70471 -8.92036 -1.47304 72 37 118 255 
-4.39887 -8.32957 -1.46499 66 63 133 255 
-4.07929 -7.71155 -1.43956 60 79 138 255 
-3.84394 -7.2572 -1.43624 59 81 139 255 
-3.61402 -6.8408 -1.41996 59 82 139 255 
-3.40565 -6.44066 -1.40563 59 82 139 255 
-3.23161 -6.10908 -1.40232 55 91 141 255 
-3.07486 -5.80767 -1.4004 59 82 139 255 
-2.90734 -5.4962 -1.37959 60 80 139 255 
-2.76697 -5.22839 -1.37003 59 81 139 255 
-2.64285 -4.99186 -1.36542 59 81 139 255 
-2.54084 -4.80308 -1.37091 60 80 139 255 
-2.4419 -4.6066 -1.36295 59 82 139 255 
-2.34196 -4.41786 -1.35666 60 80 139 255 
-2.25883 -4.26472 -1.36016 60 79 138 255 
-2.16061 -4.08776 -1.35467 62 74 137 255 
-0 -0 0 68 2 86 255 
-0 -0 0 68 2 86 255 
-0 -0 0 68 2 86 255 
-0 -0 0 68 2 86 255 
-0 -0 0 68 2 86 255 
-0 -0 0 68 2 86 255 
-0 -0 0 68 2 86 255 
-0 -0 0 68 2 86 255 
-27.726 -52.1242 13.0239 70 11 94 255 
-27.7015 -52.0546 12.394 70 11 94 255 
-27.7484 -52.0779 11.8233 71 13 96 255 
-27.7715 -52.0754 11.2582 71 14 97 255 
-10.3782 -19.5107 4.03204 72 26 108 255 
-12.9481 -24.3209 4.75425 72 20 103 255 
-10.1838 -19.0968 3.52082 72 35 116 255 
-9.62512 -18.0106 3.13218 72 35 116 255 
-9.59969 -18.0396 2.96655 72 36 117 255 
-9.4347 -17.7141 2.71713 72 27 109 255 
-9.33108 -17.4757 2.49216 71 45 123 255 
-9.46158 -17.6897 2.33889 70 48 126 255 
-9.3911 -17.6476 2.16816 67 61 132 255 
-9.32415 -17.4844 1.96036 72 36 117 255 
-9.33088 -17.468 1.77094 70 51 127 255 
-9.41794 -17.586 1.59806 72 27 109 255 
-9.37458 -17.6092 1.44047 70 51 127 255 
-8.82537 -16.5422 1.17631 72 37 118 255 
-8.60907 -16.0965 0.972631 67 61 132 255 
-8.57396 -15.9967 0.795601 68 58 131 255 
-8.85253 -16.6146 0.677151 71 45 123 255 
-14.74 -27.6052 0.830393 71 19 101 255 
-14.7838 -27.6299 0.536037 72 20 103 255 
-14.7874 -27.5662 0.245694 72 36 117 255 
-14.6855 -27.5504 -0.00544892 72 37 118 255 
-14.7206 -27.5459 -0.29982 72 29 111 255 
-14.7538 -27.5507 -0.589165 72 31 112 255 
-9.44196 -17.5867 -0.564535 70 48 126 255 
-9.32465 -17.4713 -0.719256 71 46 124 255 
-9.3371 -17.4573 -0.902459 67 61 132 255 
-9.54132 -17.8096 -1.11192 72 28 110 255 
-9.56096 -17.8009 -1.30312 72 36 117 255 
-9.54144 -17.87 -1.46986 72 35 116 255 
-9.38803 -17.5378 -1.62847 72 37 118 255 
-8.77177 -16.3526 -1.69533 72 22 104 255 
-7.76324 -14.4538 -1.65496 71 13 96 255 
-6.88596 -12.8804 -1.59182 71 14 97 255 
-6.14986 -11.4838 -1.54413 71 42 122 255 
-5.60246 -10.4399 -1.51779 72 20 103 255 
-5.14084 -9.56338 -1.49502 72 29 111 255 
-4.75141 -8.87649 -1.47058 72 31 112 255 
-4.43683 -8.27804 -1.46069 68 57 131 255 
-4.12653 -7.68637 -1.43956 58 84 140 255 
-3.88979 -7.23608 -1.43676 62 73 137 255 
-3.67452 -6.85317 -1.42718 55 90 140 255 
-3.44557 -6.42051 -1.40582 57 86 140 255 
-3.27089 -6.09259 -1.40312 57 85 140 255 
-3.10998 -5.78783 -1.40019 58 84 140 255 
-2.94609 -5.48772 -1.38197 57 85 140 255 
-2.79992 -5.21303 -1.37048 57 85 140 255 
-2.68309 -4.99353 -1.37036 58 84 140 255 
-2.56797 -4.78313 -1.36969 62 76 138 255 
-2.47471 -4.60005 -1.36548 57 86 140 255 
-2.37406 -4.41275 -1.35954 59 81 139 255 
-2.28086 -4.24315 -1.35772 62 76 138 255 
-2.19019 -4.08288 -1.35749 62 76 138 255 
-0 -0 0 68 2 86 255 
-0 -0 0 68 2 86 255 
-0 -0 0 68 2 86 255 
-0 -0 0 68 2 86 255 
-0 -0 0 68 2 86 255 
-0 -0 0 68 2 86 255 
-0 -0 0 69 4 87 255 
-0 -0 0 68 2 86 255 
-28.0467 -51.9557 13.0245 70 11 94 255 
-28.0376 -51.9155 12.4016 70 11 94 255 
-28.0707 -51.9127 11.8247 71 14 97 255 
-28.0727 -51.8711 11.2511 71 16 99 255 
-13.0707 -24.2131 5.02031 71 17 100 255 
-13.165 -24.3667 4.7789 71 17 100 255 
-13.1509 -24.3005 4.49501 72 24 106 255 
-12.5581 -23.1558 4.0403 72 36 117 255 
-12.5204 -23.184 3.82509 72 33 115 255 
-9.32458 -17.2513 2.65488 71 46 124 255 
-9.48256 -17.5002 2.50389 70 52 128 255 
-9.84666 -18.1412 2.40652 72 29 111 255 
-9.44157 -17.4829 2.15501 71 42 122 255 
-9.44405 -17.4505 1.96302 70 51 127 255 
-9.69468 -17.8842 1.81913 72 40 120 255 
-9.66989 -17.7933 1.62225 72 32 113 255 
-9.61899 -17.804 1.46121 70 51 127 255 
-9.26313 -17.1091 1.22064 70 52 128 255 
-8.78294 -16.182 0.981038 70 52 128 255 
-8.66241 -15.9262 0.794725 69 55 129 255 
-8.93007 -16.5151 0.675318 69 55 129 255 
-8.87448 -16.3776 0.494283 69 56 130 255 
-9.1333 -16.8205 0.32741 71 19 101 255 
-14.9811 -27.5207 0.246102 72 36 117 255 
-14.9014 -27.5469 -0.0054662 72 36 117 255 
-14.9437 -27.5552 -0.300915 72 32 113 255 
-14.9488 -27.508 -0.590201 72 28 110 255 
-9.57074 -17.567 -0.565779 71 44 122 255 
-9.42169 -17.3953 -0.718493 72 37 118 255 
-9.44737 -17.4058 -0.902778 69 55 129 255 
-9.66473 -17.777 -1.11357 72 22 104 255 
-9.66666 -17.7358 -1.30267 72 27 109 255 
-9.65091 -17.8111 -1.46986 72 20 103 255 
-9.4693 -17.4317 -1.62398 71 44 122 255 
-8.86671 -16.2889 -1.69432 72 22 104 255 
-7.84987 -14.4024 -1.65456 71 16 99 255 
-6.95017 -12.8108 -1.58847 71 17 100 255 
-6.23206 -11.4676 -1.54707 70 50 126 255 
-5.66309 -10.3992 -1.5169 72 24 106 255 
-5.20464 -9.54122 -1.49652 72 27 109 255 
-4.80154 -8.83934 -1.46928 72 40 120 255 
-4.48187 -8.24024 -1.45884 67 61 132 255 
-4.18495 -7.6817 -1.44347 58 84 140 255 
-3.93412 -7.21208 -1.43676 62 74 137 255 
-3.70709 -6.81321 -1.42357 54 93 141 255 
-3.4849 -6.39925 -1.40582 59 82 139 255 
-3.30399 -6.06466 -1.40133 58 84 140 255 
-3.14075 -5.76006 -1.39811 59 81 139 255 
-2.98484 -5.47897 -1.38435 56 88 140 255 
-2.83698 -5.20516 -1.37297 56 88 140 255 
-2.71275 -4.97527 -1.36989 57 85 140 255 
-2.60145 -4.77494 -1.37189 62 73 137 255 
-2.50799 -4.59412 -1.36826 54 93 141 255 
-2.40525 -4.40573 -1.36189 61 78 138 255 
-2.30454 -4.22485 -1.35636 58 84 140 255 
-2.2152 -4.06936 -1.35749 60 79 138 255 
-0 -0 0 68 2 86 255 
-0 -0 0 69 4 87 255 
-0 -0 0 68 2 86 255 
-0 -0 0 68 2 86 255 
-0 -0 0 68 2 86 255 
-0 -0 0 68 2 86 255 
-0 -0 0 68 2 86 255 
-0 -0 0 68 2 86 255 
-28.3636 -51.7801 13.0239 70 10 93 255 
-28.3524 -51.7365 12.4001 70 11 94 255 
-28.3731 -51.7111 11.8182 71 14 97 255 
-28.3933 -51.7031 11.2522 71 14 97 255 
-13.1562 -24.0177 4.99644 72 32 113 255 
-13.1949 -24.0677 4.73605 72 33 115 255 
-13.2176 -24.0696 4.46723 72 22 104 255 
-12.6227 -22.9381 4.01574 72 28 110 255 
-9.64675 -17.6037 2.91411 72 36 117 255 
-9.62087 -17.5413 2.70854 70 51 127 255 
-9.4736 -17.2304 2.47356 70 51 127 255 
-9.48819 -17.2278 2.29303 70 52 128 255 
-9.56348 -17.4517 2.15835 70 50 126 255 
-9.48867 -17.2788 1.95022 69 55 129 255 
-9.82584 -17.8636 1.82314 72 41 121 255 
-9.82509 -17.8174 1.62992 71 42 122 255 
-9.28166 -16.9304 1.39416 71 47 125 255 
-9.53661 -17.3589 1.24262 66 64 134 255 
-9.74242 -17.69 1.07607 72 29 111 255 
-8.87099 -16.074 0.804798 72 40 120 255 
-9.12209 -16.6256 0.682112 72 38 119 255 
-9.02537 -16.4148 0.497069 70 51 127 255 
-9.25274 -16.7939 0.327992 71 46 124 255 
-15.1961 -27.5123 0.246856 72 31 112 255 
-15.0903 -27.4917 -0.00547353 72 31 112 255 
-15.1415 -27.5156 -0.301491 72 33 115 255 
-15.1565 -27.4866 -0.591728 72 32 113 255 
-9.67593 -17.5036 -0.565638 71 46 124 255 
-9.5576 -17.3906 -0.720707 69 56 130 255 
-9.56219 -17.3624 -0.903552 68 58 131 255 
-9.668 -17.5259 -1.10153 72 41 121 255 
-15.1819 -27.4525 -2.02316 72 26 108 255 
-12.3924 -22.5393 -1.86629 71 13 96 255 
-9.59436 -17.4064 -1.62708 72 32 113 255 
-8.96167 -16.2254 -1.69341 72 24 106 255 
-7.93328 -14.3453 -1.65356 71 17 100 255 
-7.03248 -12.7749 -1.58933 72 20 103 255 
-6.31046 -11.444 -1.54907 70 51 127 255 
-5.7479 -10.4025 -1.52249 71 19 101 255 
-5.29427 -9.56545 -1.50539 72 27 109 255 
-4.88052 -8.85478 -1.4768 72 36 117 255 
-4.53904 -8.2247 -1.46099 68 58 131 255 
-4.23725 -7.66538 -1.44526 60 79 138 255 
-3.97973 -7.19039 -1.43727 62 73 137 255 
-3.75596 -6.80326 -1.42628 56 89 140 255 
-3.52837 -6.38548 -1.40753 58 83 139 255 
-3.34351 -6.04856 -1.40232 55 90 140 255 
-3.17698 -5.74239 -1.39852 57 86 140 255 
-3.02171 -5.46654 -1.38587 56 89 140 255 
-2.87405 -5.19704 -1.37545 56 88 140 255 
-2.74699 -4.96533 -1.37177 58 84 140 255 
-2.62647 -4.75125 -1.36969 60 80 139 255 
-2.53191 -4.57103 -1.36599 57 85 140 255 
-2.43598 -4.39764 -1.36399 58 83 139 255 
-2.31924 -4.19042 -1.34985 61 77 138 255 
-2.23595 -4.04813 -1.35495 59 81 139 255 
-0 -0 0 68 2 86 255 
-0 -0 0 68 2 86 255 
-0 -0 0 68 2 86 255 
-0 -0 0 68 2 86 255 
-0 -0 0 68 2 86 255 
-0 -0 0 68 2 86 255 
-0 -0 0 68 2 86 255 
-0 -0 0 68 2 86 255 
-28.6694 -51.5846 13.0187 71 13 96 255 
-28.6716 -51.5658 12.4012 71 13 96 255 
-28.6775 -51.5138 11.8131 71 16 99 255 
-28.6952 -51.5013 11.2464 71 16 99 255 
-13.3334 -23.9907 5.00774 72 28 110 255 
-13.3213 -23.9484 4.72857 72 32 113 255 
-13.3544 -23.9691 4.46369 72 28 110 255 
-9.75842 -17.4783 3.07032 72 31 112 255 
-9.74064 -17.5191 2.90994 72 38 119 255 
-9.67725 -17.3902 2.69432 70 50 126 255 
-9.80439 -17.5757 2.53172 71 44 122 255 
-9.59663 -17.1744 2.29373 69 53 129 255 
-9.74333 -17.5239 2.17463 72 38 119 255 
-9.97037 -17.8949 2.02662 71 45 123 255 
-9.8445 -17.6404 1.80648 72 38 119 255 
-9.80818 -17.5315 1.60924 69 55 129 255 
-9.49348 -17.0675 1.41022 72 40 120 255 
-9.58269 -17.192 1.23486 68 58 131 255 
-9.55464 -17.0999 1.04372 72 32 113 255 
-9.00948 -16.0907 0.808389 72 31 112 255 
-9.31726 -16.737 0.689014 71 45 123 255 
-9.404 -16.8576 0.512215 68 57 131 255 
-15.3787 -27.5119 0.53915 72 22 104 255 
-15.3725 -27.4324 0.246982 72 24 106 255 
-15.3288 -27.5244 -0.00549866 72 32 113 255 
-15.3339 -27.465 -0.301961 72 29 111 255 
-15.3815 -27.4943 -0.593914 72 32 113 255 
-9.79977 -17.4736 -0.566599 71 46 124 255 
-9.73275 -17.4547 -0.725825 71 44 122 255 
-9.7124 -17.3819 -0.90765 69 53 129 255 
-9.7695 -17.4558 -1.10087 71 47 125 255 
-15.3515 -27.3614 -2.02336 72 23 105 255 
-12.6135 -22.6118 -1.87867 70 11 94 255 
-9.75255 -17.4395 -1.63573 72 32 113 255 
-9.08248 -16.2084 -1.69742 72 26 108 255 
-8.03333 -14.318 -1.65607 72 23 105 255 
-7.11752 -12.7437 -1.59085 71 17 100 255 
-6.3888 -11.4197 -1.55107 72 37 118 255 
-5.80483 -10.3549 -1.52071 71 19 101 255 
-5.33443 -9.49996 -1.50021 72 24 106 255 
-4.94539 -8.84367 -1.47998 72 36 117 255 
-4.61645 -8.24498 -1.4696 67 61 132 255 
-4.28469 -7.6401 -1.44542 61 78 138 255 
-4.02474 -7.16755 -1.43762 61 77 138 255 
-3.79235 -6.77064 -1.4243 57 86 140 255 
-3.56557 -6.36028 -1.40677 53 94 141 255 
-3.38488 -6.03563 -1.40411 56 88 140 255 
-3.20641 -5.71255 -1.39602 58 83 139 255 
-3.0614 -5.45896 -1.38869 54 92 141 255 
-2.90064 -5.16996 -1.37297 56 88 140 255 
-2.77741 -4.94838 -1.37177 60 80 139 255 
-2.657 -4.73758 -1.37042 62 74 137 255 
-2.56086 -4.5571 -1.36649 55 90 140 255 
-2.45299 -4.36494 -1.35849 58 83 139 255 
-2.3548 -4.19373 -1.35555 60 79 138 255 
-2.26309 -4.03852 -1.35636 58 83 139 255 
-0 -0 0 69 4 87 255 
-0 -0 0 68 2 86 255 
-0 -0 0 68 2 86 255 
-0 -0 0 68 2 86 255 
-0 -0 0 68 2 86 255 
-0 -0 0 68 2 86 255 
-0 -0 0 68 2 86 255 
-0 -0 0 68 2 86 255 
-28.9945 -51.4239 13.0228 71 13 96 255 
-29.0005 -51.4119 12.4067 70 11 94 255 
-28.9882 -51.3283 11.8111 71 13 96 255 
-29.0271 -51.3533 11.2528 71 13 96 255 
-13.4422 -23.8407 4.99357 72 29 111 255 
-13.5731 -24.0524 4.76547 72 31 112 255 
-13.5124 -23.9065 4.46739 72 27 109 255 
-9.82845 -17.3527 3.0588 71 16 99 255 
-10.0035 -17.7348 2.95591 72 23 105 255 
-9.7711 -17.308 2.69083 70 50 126 255 
-10.2131 -18.0471 2.60861 71 47 125 255 
-9.74689 -17.1947 2.30438 72 41 121 255 
-9.88877 -17.5313 2.18304 71 46 124 255 
-10.0795 -17.8325 2.02652 71 42 122 255 
-10.0271 -17.7114 1.82002 71 45 123 255 
-9.91261 -17.4658 1.60876 68 57 131 255 
-9.86419 -17.4806 1.44932 69 56 130 255 
-9.7661 -17.271 1.24481 66 63 133 255 
-9.62393 -16.9784 1.03989 72 41 121 255 
-9.78452 -17.2261 0.86843 72 31 112 255 
-9.56868 -16.9431 0.699905 68 59 132 255 
-9.53336 -16.8457 0.513621 69 55 129 255 
-9.55036 -16.8418 0.33119 68 59 132 255 
-9.48433 -16.6841 0.150732 72 33 115 255 
-15.5397 -27.5047 -0.00551367 72 36 117 255 
-15.5415 -27.44 -0.302729 72 31 112 255 
-15.58 -27.4525 -0.595064 72 29 111 255 
-10.0175 -17.6077 -0.572931 72 35 116 255 
-9.8377 -17.3912 -0.72568 70 48 126 255 
-9.83808 -17.3559 -0.909426 68 58 131 255 
-9.88481 -17.4103 -1.10181 72 31 112 255 
-15.5734 -27.3621 -2.03043 72 24 106 255 
-12.7407 -22.514 -1.877 70 7 90 255 
-9.91298 -17.4738 -1.64462 72 27 109 255 
-9.21129 -16.2043 -1.70288 72 22 104 255 
-8.1353 -14.2935 -1.65898 71 19 101 255 
-7.19264 -12.6945 -1.5902 71 16 99 255 
-6.44748 -11.3605 -1.54837 72 24 106 255 
-5.9168 -10.4045 -1.53329 72 20 103 255 
-5.41126 -9.49976 -1.50539 72 26 108 255 
-4.9854 -8.7882 -1.47578 72 37 118 255 
-4.67232 -8.22595 -1.47129 67 61 132 255 
-4.33734 -7.62395 -1.44738 60 80 139 255 
-4.0662 -7.13844 -1.43676 60 79 138 255 
-3.83625 -6.75152 -1.4252 54 93 141 255 
-3.60404 -6.33743 -1.40658 54 93 141 255 
-3.42185 -6.01474 -1.40411 57 86 140 255 
-3.24528 -5.69957 -1.39769 62 74 137 255 
-3.09581 -5.44177 -1.38912 53 95 141 255 
-2.93761 -5.16138 -1.37545 56 88 140 255 
-2.80627 -4.92872 -1.37106 59 82 139 255 
-2.68842 -4.72541 -1.37164 62 73 137 255 
-2.58685 -4.53794 -1.36548 57 85 140 255 
-2.49072 -4.36909 -1.36451 58 84 140 255 
-2.38716 -4.19092 -1.35935 60 79 138 255 
-2.28261 -4.01538 -1.35327 59 82 139 255 
-0 -0 0 68 2 86 255 
-0 -0 0 68 2 86 255 
-0 -0 0 68 2 86 255 
-0 -0 0 68 2 86 255 
-0 -0 0 68 2 86 255 
-0 -0 0 68 2 86 255 
-0 -0 0 68 2 86 255 
-0 -0 0 68 2 86 255 
-29.2993 -51.2272 13.0183 70 8 92 255 
-29.2707 -51.1549 12.3878 71 13 96 255 
-29.3065 -51.1563 11.8127 71 13 96 255 
-29.3436 -51.1777 11.2536 71 13 96 255 
-13.6791 -23.9166 5.02695 71 16 99 255 
-13.6783 -23.8951 4.75085 71 17 100 255 
-13.7212 -23.9319 4.48778 71 19 101 255 
-13.9661 -24.3088 4.3 70 7 90 255 
-13.5918 -23.7545 3.97307 72 20 103 255 
-9.85496 -17.2091 2.68479 71 42 122 255 
-9.79656 -17.066 2.47543 71 46 124 255 
-9.75863 -16.9718 2.2825 72 37 118 255 
-10.0426 -17.5514 2.19318 69 55 129 255 
-9.98628 -17.4172 1.98626 69 56 130 255 
-10.1837 -17.7333 1.82866 71 46 124 255 
-10.0007 -17.3718 1.60572 69 53 129 255 
-9.95937 -17.399 1.4476 69 56 130 255 
-9.94837 -17.3441 1.25446 69 56 130 255 
-9.85286 -17.1363 1.05324 68 57 131 255 
-10.0012 -17.3588 0.878196 72 24 106 255 
-9.66501 -16.8711 0.699366 70 52 128 255 
-9.70074 -16.8987 0.517043 69 53 129 255 
-9.70686 -16.8756 0.33302 72 40 120 255 
-15.8239 -27.4427 0.248804 72 32 113 255 
-15.7365 -27.4583 -0.00552362 72 29 111 255 
-15.7749 -27.4577 -0.303986 72 29 111 255 
-15.7761 -27.4049 -0.59612 72 32 113 255 
-15.8226 -27.4184 -0.895301 72 32 113 255 
-10.0765 -17.5611 -0.735334 72 40 120 255 
-9.98173 -17.3601 -0.912842 67 61 132 255 
-15.7772 -27.3959 -1.73983 72 26 108 255 
-15.7884 -27.3482 -2.03655 72 23 105 255 
-12.8985 -22.47 -1.8799 70 8 92 255 
-10.1647 -17.664 -1.66836 72 20 103 255 
-9.33044 -16.182 -1.70652 72 23 105 255 
-8.23181 -14.2589 -1.66079 72 23 105 255 
-7.28823 -12.6812 -1.5941 71 17 100 255 
-6.57503 -11.4214 -1.56214 72 26 108 255 
-5.9052 -10.2374 -1.51397 72 22 104 255 
-5.4744 -9.47495 -1.50675 72 23 105 255 
-5.04219 -8.76259 -1.47665 72 41 121 255 
-4.7158 -8.18514 -1.46914 68 57 131 255 
-4.387 -7.60232 -1.44835 57 85 140 255 
-4.12027 -7.13127 -1.44037 57 86 140 255 
-3.88743 -6.7449 -1.42881 56 88 140 255 
-3.65512 -6.33646 -1.41131 53 95 141 255 
-3.45477 -5.98684 -1.40252 58 84 140 255 
-3.28116 -5.68124 -1.39811 60 79 138 255 
-3.13304 -5.42944 -1.39085 55 90 140 255 
-2.96825 -5.14157 -1.375 55 90 140 255 
-2.82382 -4.88952 -1.36496 58 84 140 255 
-2.72124 -4.71554 -1.3736 63 72 137 255 
-2.61707 -4.52617 -1.36675 51 98 141 255 
-2.51603 -4.35122 -1.36373 57 85 140 255 
-2.40464 -4.16202 -1.35473 59 81 139 255 
-2.30529 -3.99798 -1.35214 60 80 139 255 
-0 -0 0 68 2 86 255 
-0 -0 0 68 2 86 255 
-0 -0 0 68 2 86 255 
-0 -0 0 68 2 86 255 
-0 -0 0 68 2 86 255 
-0 -0 0 68 2 86 255 
-0 -0 0 68 2 86 255 
-0 -0 0 68 2 86 255 
-29.5939 -51.0135 13.0099 70 10 93 255 
-29.5683 -50.9472 12.3812 70 10 93 255 
-29.6272 -50.9882 11.8157 70 11 94 255 
-29.6561 -50.9949 11.2532 70 11 94 255 
-29.6331 -51.081 10.7745 70 8 92 255 
-29.6641 -51.0917 10.1941 70 8 92 255 
-13.0178 -22.3856 4.21272 72 41 121 255 
-26.1935 -44.9507 7.97962 69 5 89 255 
-12.8611 -22.1608 3.71964 72 32 113 255 
-10.5293 -18.1277 2.83814 71 42 122 255 
-10.4223 -17.9007 2.60574 72 33 115 255 
-10.7653 -18.4595 2.49141 72 33 115 255 
-9.99986 -17.2307 2.16072 70 48 126 255 
-10.086 -17.3436 1.98488 68 59 132 255 
-10.1996 -17.5112 1.81218 72 40 120 255 
-10.0719 -17.2499 1.60013 72 41 121 255 
-9.92773 -17.0995 1.42772 70 52 128 255 
-10.2774 -17.6657 1.28226 72 36 117 255 
-10.1057 -17.3292 1.06888 72 29 111 255 
-10.8959 -18.6461 0.94669 72 26 108 255 
-10.0289 -17.2599 0.718022 72 32 113 255 
-9.79268 -16.819 0.516433 68 57 131 255 
-9.74473 -16.7034 0.330797 71 19 101 255 
-16.0167 -27.3874 0.249189 72 33 115 255 
-15.9333 -27.4105 -0.00553357 72 31 112 255 
-15.9582 -27.3863 -0.304274 72 32 113 255 
-16.0004 -27.4043 -0.598231 72 29 111 255 
-16.0496 -27.4218 -0.898608 72 26 108 255 
-15.9623 -27.4273 -1.15254 71 19 101 255 
-10.1293 -17.3693 -0.916576 72 22 104 255 
-16.016 -27.4201 -1.74758 71 16 99 255 
-15.9862 -27.3024 -2.04041 71 17 100 255 
-13.0677 -22.4447 -1.88446 70 8 92 255 
-10.3839 -17.7915 -1.6864 71 16 99 255 
-9.43509 -16.1339 -1.70752 72 22 104 255 
-8.34679 -14.2553 -1.66631 72 20 103 255 
-7.38392 -12.6672 -1.598 71 16 99 255 
-6.649 -11.3877 -1.56308 72 20 103 255 
-6.03853 -10.3217 -1.53189 72 27 109 255 
-5.55097 -9.47281 -1.5118 72 24 106 255 
-5.1218 -8.77592 -1.48417 70 48 126 255 
-4.77192 -8.16628 -1.47098 66 65 134 255 
-4.43606 -7.57952 -1.44917 58 83 139 255 
-4.16844 -7.1135 -1.44192 59 82 139 255 
-3.9347 -6.73111 -1.43098 59 82 139 255 
-3.69641 -6.31815 -1.41226 54 93 141 255 
-3.49045 -5.96384 -1.40213 57 86 140 255 
-3.31497 -5.65932 -1.39769 58 84 140 255 
-3.16334 -5.40506 -1.38955 52 97 141 255 
-3.00417 -5.13082 -1.37703 58 83 139 255 
-2.85868 -4.88049 -1.3673 57 86 140 255 
-2.74963 -4.69792 -1.37336 62 73 137 255 
-2.64479 -4.51002 -1.36675 55 91 141 255 
-2.53829 -4.32821 -1.36137 56 88 140 255 
-2.43014 -4.14719 -1.35473 59 81 139 255 
-2.33268 -3.98873 -1.35383 61 77 138 255 
-0 -0 0 68 2 86 255 
-0 -0 0 68 2 86 255 
-0 -0 0 68 2 86 255 
-0 -0 0 68 2 86 255 
-0 -0 0 68 2 86 255 
-0 -0 0 68 2 86 255 
-0 -0 0 68 2 86 255 
-0 -0 0 68 2 86 255 
-29.9242 -50.8612 13.0177 71 13 96 255 
-29.9364 -50.8601 12.4045 70 10 93 255 
-29.9803 -50.8748 11.8318 71 14 97 255 
-29.9664 -50.8086 11.2524 71 13 96 255 
-29.918 -50.8507 10.7645 70 11 94 255 
-26.9144 -45.7077 9.15261 69 4 87 255 
-13.0943 -22.2025 4.19329 70 52 128 255 
-26.504 -44.8487 7.99024 70 8 92 255 
-12.9737 -22.0422 3.71303 69 55 129 255 
-10.6172 -18.0235 2.83197 72 40 120 255 
-10.6934 -18.1098 2.64568 71 46 124 255 
-10.8121 -18.2811 2.47624 72 35 116 255 
-10.4725 -17.7927 2.23922 72 27 109 255 
-10.221 -17.3302 1.99049 67 61 132 255 
-10.2795 -17.402 1.80737 72 40 120 255 
-10.174 -17.1817 1.59957 71 44 122 255 
-10.0537 -17.0744 1.43074 67 62 133 255 
-10.8299 -18.3553 1.33711 72 32 113 255 
-10.3918 -17.5711 1.08772 68 57 131 255 
-10.6795 -18.0211 0.918267 72 40 120 255 
-10.0722 -17.0922 0.713601 72 41 121 255 
-9.9023 -16.7698 0.516777 68 59 132 255 
-9.88165 -16.7019 0.33196 69 53 129 255 
-16.2268 -27.36 0.24984 72 31 112 255 
-16.1484 -27.3923 -0.0055498 72 33 115 255 
-16.1702 -27.3627 -0.305109 72 29 111 255 
-16.1911 -27.3443 -0.599079 72 29 111 255 
-16.2466 -27.3718 -0.90022 72 26 108 255 
-16.1445 -27.3529 -1.15356 72 26 108 255 
-16.1789 -27.3558 -1.44877 72 31 112 255 
-16.1942 -27.3385 -1.74868 72 29 111 255 
-16.2324 -27.3368 -2.05039 72 27 109 255 
-13.2234 -22.395 -1.88706 70 10 93 255 
-11.1061 -18.7636 -1.78496 71 19 101 255 
-9.53695 -16.0808 -1.70806 72 24 106 255 
-8.4402 -14.2141 -1.66751 72 22 104 255 
-7.46758 -12.6319 -1.5993 71 16 99 255 
-6.70862 -11.3296 -1.56073 72 22 104 255 
-6.10326 -10.287 -1.53227 72 29 111 255 
-5.62366 -9.46327 -1.51576 72 35 116 255 
-5.19823 -8.78265 -1.49067 67 61 132 255 
-4.83251 -8.1547 -1.47421 68 58 131 255 
-4.47895 -7.54622 -1.44803 59 81 139 255 
-4.20949 -7.08356 -1.44106 60 80 139 255 
-3.96639 -6.69076 -1.42755 54 92 141 255 
-3.73862 -6.30127 -1.41359 55 91 141 255 
-3.53848 -5.9617 -1.4067 58 83 139 255 
-3.35563 -5.64896 -1.40019 59 82 139 255 
-3.19146 -5.37715 -1.38739 53 94 141 255 
-3.04008 -5.11983 -1.37906 57 86 140 255 
-2.89652 -4.87623 -1.37106 59 81 139 255 
-2.77395 -4.67345 -1.37115 61 77 138 255 
-2.66895 -4.48789 -1.36498 55 91 141 255 
-2.56381 -4.31089 -1.36085 58 84 140 255 
-2.45603 -4.13303 -1.35501 59 81 139 255 
-2.36397 -3.9859 -1.35777 61 78 138 255 
-0 -0 0 68 2 86 255 
-0 -0 0 68 2 86 255 
-0 -0 0 68 2 86 255 
-0 -0 0 68 2 86 255 
-0 -0 0 68 2 86 255 
-0 -0 0 68 2 86 255 
-0 -0 0 68 2 86 255 
-0 -0 0 68 2 86 255 
-30.2548 -50.7085 13.0258 70 7 90 255 
-30.2399 -50.662 12.4012 70 8 92 255 
-30.2733 -50.6587 11.8245 71 14 97 255 
-30.265 -50.6027 11.2478 71 13 96 255 
-0 -0 0 69 4 87 255 
-27.204 -45.5577 9.15584 70 8 92 255 
-13.1755 -22.0302 4.17595 72 36 117 255 
-13.0134 -21.7152 3.88293 70 10 93 255 
-13.0321 -21.8339 3.69134 70 48 126 255 
-14.9527 -25.0309 3.94736 72 40 120 255 
-10.762 -17.9732 2.63532 71 47 125 255 
-10.8255 -18.05 2.45389 70 48 126 255 
-10.5846 -17.7332 2.23987 72 41 121 255 
-10.3609 -17.3236 1.99699 71 42 122 255 
-10.6149 -17.7206 1.84718 72 37 118 255 
-10.5138 -17.5095 1.63607 72 40 120 255 
-10.146 -16.9918 1.42901 67 61 132 255 
-10.599 -17.7147 1.29516 70 48 126 255 
-10.9124 -18.1955 1.1305 72 35 116 255 
-10.6283 -17.6864 0.904516 72 41 121 255 
-10.1267 -16.946 0.710078 70 51 127 255 
-10.175 -16.9926 0.525558 72 41 121 255 
-10.0277 -16.7138 0.333414 70 51 127 255 
-10.0156 -16.6536 0.152633 72 36 117 255 
-16.3516 -27.352 -0.00556184 72 32 113 255 
-16.3732 -27.3222 -0.305772 72 32 113 255 
-16.3874 -27.2924 -0.600134 72 26 108 255 
-16.4297 -27.2972 -0.901068 71 16 99 255 
-16.3403 -27.3005 -1.15556 72 24 106 255 
-16.3881 -27.3254 -1.45246 72 22 104 255 
-16.3997 -27.302 -1.75275 72 22 104 255 
-16.443 -27.3085 -2.05579 71 14 97 255 
-13.3642 -22.3195 -1.88757 70 11 94 255 
-11.2221 -18.6968 -1.78512 71 14 97 255 
-9.62312 -16.0015 -1.70588 72 22 104 255 
-8.54676 -14.1944 -1.67132 71 17 100 255 
-7.5567 -12.6054 -1.60179 71 17 100 255 
-6.77035 -11.2754 -1.55896 72 22 104 255 
-6.19132 -10.291 -1.5385 72 41 121 255 
-5.67088 -9.41077 -1.51289 72 29 111 255 
-5.26067 -8.76501 -1.49313 65 66 135 255 
-4.88806 -8.13421 -1.4759 68 58 131 255 
-4.52416 -7.5169 -1.4477 55 91 141 255 
-4.25237 -7.05675 -1.44089 60 80 139 255 
-4.01396 -6.67726 -1.42989 55 91 141 255 
-3.77873 -6.28073 -1.41416 55 90 140 255 
-3.57196 -5.93483 -1.40551 59 82 139 255 
-3.39225 -5.63161 -1.40102 57 86 140 255 
-3.23195 -5.37001 -1.39064 55 90 140 255 
-3.07746 -5.1111 -1.38177 55 91 141 255 
-2.93541 -4.87335 -1.37529 59 82 139 255 
-2.81357 -4.67462 -1.37654 61 78 138 255 
-2.69494 -4.46894 -1.36422 54 92 141 255 
-2.59221 -4.29838 -1.36189 60 80 139 255 
-2.49525 -4.14096 -1.3626 60 80 139 255 
-2.37453 -3.94829 -1.34989 62 74 137 255 
-0 -0 0 68 2 86 255 
-0 -0 0 68 2 86 255 
-0 -0 0 68 2 86 255 
-0 -0 0 68 2 86 255 
-0 -0 0 68 2 86 255 
-0 -0 0 68 2 86 255 
-0 -0 0 68 2 86 255 
-0 -0 0 68 2 86 255 
-30.5623 -50.5169 13.0245 70 8 92 255 
-30.5664 -50.5023 12.4077 71 13 96 255 
-30.582 -50.4695 11.8239 71 17 100 255 
-30.5587 -50.3892 11.2418 71 16 99 255 
-30.5199 -50.4469 10.7575 70 7 90 255 
-26.2453 -43.3458 8.7435 70 8 92 255 
-13.1513 -21.6865 4.12601 70 10 93 255 
-13.1484 -21.6383 3.88354 72 37 118 255 
-13.0895 -21.6274 3.66993 72 23 105 255 
-15.1543 -25.0184 3.95998 72 23 105 255 
-10.8777 -17.9162 2.63669 71 47 125 255 
-10.9737 -18.0452 2.46234 72 28 110 255 
-10.4831 -17.3209 2.19587 69 56 130 255 
-10.356 -17.0767 1.97582 70 51 127 255 
-10.3418 -17.0268 1.78145 71 44 122 255 
-10.5204 -17.2795 1.62058 72 32 113 255 
-10.2315 -16.8985 1.42642 70 50 126 255 
-10.9674 -18.0777 1.32659 72 35 116 255 
-10.9553 -18.0156 1.12347 72 33 115 255 
-10.7044 -17.5679 0.901801 70 50 126 255 
-10.2357 -16.8921 0.710437 71 46 124 255 
-10.5068 -17.305 0.537202 68 58 131 255 
-10.3254 -16.9731 0.339844 72 24 106 255 
-22.5598 -36.9958 0.340333 71 13 96 255 
-22.5313 -37.1692 -0.00758607 70 10 93 255 
-22.4612 -36.9649 -0.415221 70 11 94 255 
-22.4802 -36.9244 -0.81495 71 14 97 255 
-22.5144 -36.8924 -1.22233 71 13 96 255 
-22.5213 -37.109 -1.57654 70 8 92 255 
-18.684 -30.7246 -1.63921 70 7 90 255 
-18.594 -30.5292 -1.96722 70 11 94 255 
-17.1355 -28.0674 -2.12079 70 7 90 255 
-13.5739 -22.3572 -1.89777 70 10 93 255 
-11.3588 -18.6642 -1.78863 71 17 100 255 
-9.72268 -15.9447 -1.70615 72 23 105 255 
-8.62384 -14.1256 -1.66942 72 24 106 255 
-7.61635 -12.53 -1.59811 72 22 104 255 
-6.80016 -11.1692 -1.55001 72 23 105 255 
-6.26158 -10.2646 -1.54028 72 41 121 255 
-5.73524 -9.38678 -1.51467 72 27 109 255 
-5.30561 -8.7182 -1.49067 70 52 128 255 
-4.93633 -8.10154 -1.47544 68 58 131 255 
-4.57996 -7.505 -1.45079 55 91 141 255 
-4.30688 -7.04902 -1.44468 58 83 139 255 
-4.0569 -6.65586 -1.43061 53 94 141 255 
-3.81208 -6.24904 -1.41226 54 92 141 255 
-3.60678 -5.9103 -1.40491 55 91 141 255 
-3.42827 -5.6132 -1.40165 57 85 140 255 
-3.26738 -5.35425 -1.39172 56 89 140 255 
-3.1042 -5.08464 -1.37973 55 90 140 255 
-2.95411 -4.837 -1.37012 61 78 138 255 
-2.8321 -4.64072 -1.37164 61 78 138 255 
-2.72484 -4.45645 -1.36548 55 90 140 255 
-2.62256 -4.28899 -1.36399 57 85 140 255 
-2.53215 -4.14446 -1.36884 59 82 139 255 
-2.40621 -3.94593 -1.35411 60 80 139 255 
-0 -0 0 68 2 86 255 
-0 -0 0 69 4 87 255 
-0 -0 0 68 2 86 255 
-0 -0 0 68 2 86 255 
-0 -0 0 68 2 86 255 
-0 -0 0 68 2 86 255 
-0 -0 0 68 2 86 255 
-0 -0 0 68 2 86 255 
-30.8696 -50.3251 13.0237 70 10 93 255 
-30.8732 -50.3097 12.4067 70 8 92 255 
-30.8824 -50.2667 11.8206 70 11 94 255 
-30.8966 -50.2484 11.2524 71 13 96 255 
-30.8438 -50.283 10.7627 70 10 93 255 
-27.2325 -44.3597 8.98155 69 5 89 255 
-13.2061 -21.4784 4.10177 72 28 110 255 
-13.185 -21.4015 3.85549 72 40 120 255 
-13.1516 -21.4319 3.65039 72 33 115 255 
-10.8403 -17.6511 2.80433 72 26 108 255 
-13.1917 -21.4299 3.16565 72 36 117 255 
-11.1853 -18.1416 2.48481 72 33 115 255 
-10.9532 -17.8494 2.27135 70 51 127 255 
-10.4861 -17.0544 1.98064 66 64 134 255 
-10.3996 -16.8876 1.77352 67 61 132 255 
-10.6545 -17.2604 1.62489 72 33 115 255 
-10.3553 -16.8686 1.42923 66 64 134 255 
-10.6211 -17.2671 1.27186 72 40 120 255 
-10.8665 -17.625 1.10326 69 53 129 255 
-10.822 -17.5181 0.902633 71 45 123 255 
-10.6969 -17.4114 0.735025 69 55 129 255 
-10.6626 -17.321 0.539722 72 40 120 255 
-16.8739 -27.3581 0.54984 72 28 110 255 
-22.4667 -36.3395 0.335558 71 13 96 255 
-22.4908 -36.594 -0.00749671 70 11 94 255 
-22.4625 -36.4612 -0.411103 70 11 94 255 
-22.4217 -36.3247 -0.804734 71 14 97 255 
-22.4574 -36.2962 -1.20712 70 10 93 255 
-18.8207 -30.5867 -1.30433 71 14 97 255 
-18.544 -30.0771 -1.6107 70 8 92 255 
-18.5523 -30.0441 -1.94326 70 7 90 255 
-17.3032 -27.9549 -2.12028 70 7 90 255 
-13.6407 -22.1597 -1.88808 70 11 94 255 
-11.4836 -18.6111 -1.79026 72 20 103 255 
-9.81562 -15.8771 -1.70533 72 23 105 255 
-8.71192 -14.0749 -1.66972 72 22 104 255 
-7.73012 -12.5431 -1.6058 72 22 104 255 
-6.88004 -11.1459 -1.5526 72 31 112 255 
-6.32132 -10.221 -1.53951 72 36 117 255 
-5.78438 -9.33794 -1.51248 72 31 112 255 
-5.34342 -8.66022 -1.48634 72 29 111 255 
-4.97556 -8.05428 -1.47237 67 61 132 255 
-4.63163 -7.48599 -1.45259 53 94 141 255 
-4.34746 -7.01827 -1.44382 55 91 141 255 
-4.0956 -6.6275 -1.42989 55 90 140 255 
-3.84932 -6.22387 -1.41188 56 89 140 255 
-3.64349 -5.88889 -1.40511 57 86 140 255 
-3.46573 -5.59705 -1.4029 58 83 139 255 
-3.30685 -5.34489 -1.39454 58 83 139 255 
-3.12457 -5.0481 -1.375 57 85 140 255 
-2.98476 -4.82043 -1.37059 57 86 140 255 
-2.85287 -4.61088 -1.36797 58 83 139 255 
-2.75825 -4.44951 -1.36852 56 89 140 255 
-2.63866 -4.25641 -1.35875 61 77 138 255 
-2.54385 -4.10676 -1.36152 61 78 138 255 
-2.43593 -3.94007 -1.3572 61 77 138 255 
-0 -0 0 68 2 86 255 
-0 -0 0 68 2 86 255 
-0 -0 0 68 2 86 255 
-0 -0 0 68 2 86 255 
-0 -0 0 68 2 86 255 
-0 -0 0 68 2 86 255 
-0 -0 0 68 2 86 255 
-0 -0 0 68 2 86 255 
-31.2011 -50.1721 13.0334 70 11 94 255 
-31.1973 -50.145 12.4131 71 13 96 255 
-31.2084 -50.1054 11.8275 71 14 97 255 
-31.2142 -50.0738 11.256 71 13 96 255 
-31.1575 -50.102 10.7647 71 13 96 255 
-0 -0 0 69 4 87 255 
-13.2796 -21.304 4.08394 71 44 122 255 
-13.2852 -21.2708 3.84654 70 48 126 255 
-13.2567 -21.3088 3.64321 72 33 115 255 
-13.231 -21.2503 3.38899 72 27 109 255 
-13.2599 -21.2475 3.15067 69 56 130 255 
-11.3644 -18.1813 2.49974 72 37 118 255 
-10.6566 -17.1294 2.188 72 41 121 255 
-10.6527 -17.0894 1.99226 70 48 126 255 
-10.3722 -16.6139 1.75144 68 57 131 255 
-10.5239 -16.817 1.58919 69 53 129 255 
-10.5388 -16.9334 1.44018 72 38 119 255 
-10.5235 -16.8756 1.24776 70 52 128 255 
-11.1872 -17.8984 1.12464 68 58 131 255 
-11.3021 -18.0466 0.93342 71 46 124 255 
-10.8152 -17.3641 0.735815 69 53 129 255 
-10.7877 -17.2858 0.540677 71 45 123 255 
-17.0557 -27.2769 0.550302 70 11 94 255 
-21.9888 -35.0834 0.325199 71 14 97 255 
-22.267 -35.7365 -0.00734888 70 8 92 255 
-22.0338 -35.2786 -0.399287 70 11 94 255 
-22.0316 -35.2075 -0.782964 71 14 97 255 
-21.9817 -35.045 -1.16998 71 14 97 255 
-19.1498 -30.6979 -1.31406 70 11 94 255 
-18.5064 -29.6078 -1.59162 70 7 90 255 
-18.5 -29.5523 -1.91875 70 8 92 255 
-17.4765 -27.8516 -2.12054 70 7 90 255 
-13.8034 -22.1188 -1.89177 70 10 93 255 
-11.6124 -18.5639 -1.79255 71 17 100 255 
-9.91127 -15.8141 -1.70506 72 23 105 255 
-8.80658 -14.0347 -1.67132 71 14 97 255 
-7.83064 -12.5333 -1.61068 71 17 100 255 
-6.94724 -11.1018 -1.55237 72 31 112 255 
-6.38023 -10.1761 -1.53863 72 31 112 255 
-5.83946 -9.29892 -1.51194 72 35 116 255 
-5.39803 -8.62978 -1.48677 72 33 115 255 
-5.02751 -8.02779 -1.47314 68 58 131 255 
-4.68062 -7.46245 -1.45356 52 96 141 255 
-4.38835 -6.98813 -1.44313 57 86 140 255 
-4.13723 -6.60391 -1.43025 53 95 141 255 
-3.89057 -6.20512 -1.41302 57 86 140 255 
-3.6806 -5.86808 -1.40551 55 90 140 255 
-3.50053 -5.5765 -1.40311 55 90 140 255 
-3.34166 -5.32781 -1.3954 55 91 141 255 
-3.15652 -5.03048 -1.37545 58 83 139 255 
-3.01687 -4.80614 -1.37177 60 80 139 255 
-2.89244 -4.61136 -1.37336 58 83 139 255 
-2.77932 -4.42267 -1.36548 58 83 139 255 
-2.66216 -4.23605 -1.35744 60 79 138 255 
-2.56644 -4.087 -1.36016 62 76 138 255 
-2.45802 -3.9218 -1.35608 62 73 137 255 
-0 -0 0 68 2 86 255 
-0 -0 0 68 2 86 255 
-0 -0 0 68 2 86 255 
-0 -0 0 69 4 87 255 
-0 -0 0 68 2 86 255 
-0 -0 0 68 2 86 255 
-0 -0 0 68 2 86 255 
-0 -0 0 68 2 86 255 
-31.5135 -49.988 13.0355 70 10 93 255 
-31.577 -50.0677 12.4417 70 11 94 255 
-31.5467 -49.9627 11.8392 70 11 94 255 
-31.5167 -49.8746 11.2545 71 13 96 255 
-31.4827 -49.939 10.771 70 11 94 255 
-27.9205 -44.253 9.02865 70 7 90 255 
-13.3026 -21.0519 4.05119 72 32 113 255 
-13.3235 -21.0436 3.82016 72 22 104 255 
-26.9581 -42.7455 7.33641 70 11 94 255 
-26.9396 -42.6818 6.83313 69 4 87 255 
-13.3449 -21.0945 3.14006 72 33 115 255 
-13.3407 -21.0545 2.90599 72 24 106 255 
-10.7875 -17.1049 2.19329 72 29 111 255 
-10.7457 -17.0052 1.9901 71 42 122 255 
-10.662 -16.8471 1.78288 70 50 126 255 
-10.6156 -16.7345 1.58752 72 33 115 255 
-10.6941 -16.9503 1.44716 72 33 115 255 
-10.7063 -16.9364 1.25709 68 59 132 255 
-11.3593 -17.9282 1.13087 71 45 123 255 
-11.4367 -18.0148 0.935391 71 42 122 255 
-10.9258 -17.3042 0.736103 71 46 124 255 
-10.9043 -17.2362 0.541208 68 57 131 255 
-22.1356 -34.9226 0.707277 71 19 101 255 
-22.1967 -34.9368 0.325097 71 17 100 255 
-22.0976 -34.9845 -0.007222 71 19 101 255 
-22.1182 -34.9349 -0.396925 72 20 103 255 
-22.1567 -34.9289 -0.779779 71 19 101 255 
-22.1926 -34.9036 -1.16978 71 19 101 255 
-22.0704 -34.9009 -1.49974 71 13 96 255 
-18.4503 -29.1191 -1.5714 70 11 94 255 
-18.4814 -29.1237 -1.89825 70 10 93 255 
-17.6481 -27.7455 -2.12067 69 5 89 255 
-13.9874 -22.1103 -1.89835 70 8 92 255 
-11.7181 -18.4797 -1.79132 72 24 106 255 
-10.0284 -15.7849 -1.70852 72 24 106 255 
-8.90855 -14.0056 -1.67433 72 22 104 255 
-7.84889 -12.3927 -1.59876 71 19 101 255 
-7.05726 -11.1252 -1.56167 72 36 117 255 
-6.44308 -10.1376 -1.53875 72 26 108 255 
-5.91236 -9.28798 -1.51603 72 31 112 255 
-5.45194 -8.59817 -1.48706 72 36 117 255 
-5.08356 -8.00763 -1.47513 67 62 133 255 
-4.71415 -7.41444 -1.44982 54 93 141 255 
-4.43432 -6.96605 -1.44416 57 86 140 255 
-4.17662 -6.57674 -1.42989 54 92 141 255 
-3.93278 -6.18776 -1.41454 58 83 139 255 
-3.70865 -5.83298 -1.40252 57 86 140 255 
-3.53363 -5.55327 -1.40269 55 91 141 255 
-3.36486 -5.29238 -1.3915 57 85 140 255 
-3.19203 -5.01842 -1.37748 58 83 139 255 
-3.04265 -4.7818 -1.37012 60 79 138 255 
-2.92901 -4.60662 -1.37727 59 81 139 255 
-2.80172 -4.39819 -1.36321 59 82 139 255 
-2.69017 -4.22289 -1.35849 62 76 138 255 
