ply
format ascii 1.0
comment VTK generated PLY File
obj_info vtkPolyData points and polygons: vtk4.0
element vertex 1230
property float x
property float y
property float z
property uchar red
property uchar green
property uchar blue
property uchar alpha
element face 0
property list uchar int vertex_indices
end_header
7.26319 12.2664 -0.268741 69 53 129 255 
6.9307 11.6766 -0.384027 69 56 130 255 
6.38252 10.8136 -0.456045 72 41 121 255 
5.89388 9.96553 -0.527778 62 73 137 255 
5.68981 9.60538 -0.614398 57 86 140 255 
5.62342 9.47037 -0.710321 62 76 138 255 
5.55186 9.40254 -0.792283 59 81 139 255 
5.46142 9.22697 -0.877752 66 64 134 255 
5.08241 8.56975 -0.910257 68 58 131 255 
4.73952 7.9818 -0.936375 65 68 135 255 
4.4423 7.51444 -0.951389 60 80 139 255 
4.17373 7.04863 -0.970996 62 74 137 255 
3.91734 6.60263 -0.98348 61 77 138 255 
3.72077 6.26115 -1.00287 57 85 140 255 
3.52596 5.95728 -1.01112 54 93 141 255 
3.34795 5.64955 -1.02133 58 83 139 255 
3.17817 5.35464 -1.02749 60 80 139 255 
3.02087 5.08339 -1.03415 57 86 140 255 
2.88802 4.8717 -1.03943 59 81 139 255 
2.76614 4.66219 -1.04589 58 84 140 255 
2.6281 4.42787 -1.04478 61 78 138 255 
2.55344 4.29852 -1.06546 61 77 138 255 
2.45152 4.13046 -1.06572 59 82 139 255 
2.35218 3.96134 -1.06701 61 78 138 255 
2.26708 3.81658 -1.07312 61 78 138 255 
2.18848 3.68707 -1.08176 63 71 136 255 
2.12053 3.5657 -1.08449 62 74 137 255 
2.06062 3.46481 -1.09376 62 76 138 255 
1.99039 3.34945 -1.09811 64 69 136 255 
1.91947 3.23642 -1.10246 66 63 133 255 
5.9858 10.0166 3.50527 72 28 110 255 
6.20598 10.4054 3.50384 69 55 129 255 
5.38609 9.03801 2.93163 72 41 121 255 
5.3972 9.05626 2.83079 49 104 142 255 
5.42271 9.08514 2.74614 68 58 131 255 
6.08681 10.2015 2.95746 63 71 136 255 
6.22391 10.4274 2.89973 70 48 126 255 
5.35785 8.97244 2.39346 61 78 138 255 
5.35918 8.98226 2.30733 56 89 140 255 
5.2249 8.75347 2.14269 50 100 142 255 
5.21237 8.72227 2.03591 57 86 140 255 
5.20888 8.70917 1.93584 62 74 137 255 
5.18165 8.68472 1.84515 72 26 108 255 
5.19162 8.69426 1.74731 72 37 118 255 
5.22928 8.74364 1.65741 44 114 142 255 
6.53615 10.9068 1.95026 72 32 113 255 
6.3771 10.6841 1.8063 62 76 138 255 
6.16698 10.3236 1.62802 61 77 138 255 
6.71183 11.2092 1.64355 71 13 96 255 
6.73489 11.2295 1.52664 71 19 101 255 
17.5193 29.3517 3.70738 71 19 101 255 
17.5906 29.4118 3.39047 70 8 92 255 
15.5853 26.0182 2.71212 70 11 94 255 
16.4518 27.3987 2.5601 72 24 106 255 
18.7734 31.4402 2.64413 70 11 94 255 
18.6902 31.238 2.28387 69 5 89 255 
0 0 0 68 2 86 255 
0 0 0 69 4 87 255 
0 0 0 69 4 87 255 
10.4903 17.5192 0.541844 71 13 96 255 
7.68099 12.8024 0.255388 72 22 104 255 
7.80266 12.974 0.118908 72 24 106 255 
7.75171 12.9666 -0.00263667 72 36 117 255 
10.6209 17.7233 -0.198348 72 33 115 255 
7.25082 12.0759 -0.265537 69 55 129 255 
7.02129 11.6655 -0.385073 68 59 132 255 
6.36201 10.6294 -0.449911 67 61 132 255 
6.02171 10.0405 -0.533698 63 72 137 255 
5.78669 9.63363 -0.618464 61 78 138 255 
5.6526 9.38782 -0.706717 61 77 138 255 
5.64429 9.42649 -0.797204 59 82 139 255 
5.52614 9.20696 -0.879057 64 69 136 255 
5.13387 8.53669 -0.910075 64 69 136 255 
4.8038 7.97814 -0.939386 62 73 137 255 
4.47452 7.46402 -0.948464 60 79 138 255 
4.23121 7.04672 -0.974292 60 80 139 255 
3.96187 6.58527 -0.984497 59 82 139 255 
3.75911 6.23821 -1.00287 56 89 140 255 
3.55838 5.92875 -1.00997 53 94 141 255 
3.38103 5.62636 -1.02087 55 91 141 255 
3.21453 5.34096 -1.02863 58 83 139 255 
3.04692 5.05632 -1.03243 57 86 140 255 
2.90418 4.83113 -1.03456 60 80 139 255 
2.79115 4.63924 -1.04456 57 85 140 255 
2.68049 4.45364 -1.05473 59 82 139 255 
2.57169 4.26937 -1.06213 62 73 137 255 
2.47279 4.10865 -1.06399 61 77 138 255 
2.37041 3.93681 -1.0643 62 73 137 255 
2.29296 3.80676 -1.07429 60 80 139 255 
2.20256 3.65945 -1.0776 63 71 136 255 
2.14586 3.55842 -1.08626 62 74 137 255 
2.08433 3.45623 -1.09507 62 73 137 255 
2.00296 3.32398 -1.09377 66 65 134 255 
1.93633 3.21965 -1.10078 67 61 132 255 
6.2556 10.3237 3.62611 69 55 129 255 
5.43107 8.98037 3.03516 66 64 134 255 
5.45439 9.02623 2.93861 59 82 139 255 
5.46865 9.04943 2.83909 50 101 142 255 
5.52646 9.13119 2.77026 57 86 140 255 
7.1494 11.817 3.43845 72 37 118 255 
5.83552 9.64173 2.69116 72 35 116 255 
5.58951 9.23123 2.4716 72 37 118 255 
5.44856 9.00602 2.32198 72 37 118 255 
5.29422 8.7472 2.14907 65 66 135 255 
4.97463 8.20962 1.92334 43 116 142 255 
5.09769 8.40576 1.87531 57 86 140 255 
5.22618 8.63845 1.8421 50 102 142 255 
5.27294 8.70861 1.75666 53 94 141 255 
5.31815 8.76962 1.66849 61 78 138 255 
6.50594 10.7068 1.9216 62 74 137 255 
6.14123 10.147 1.72183 63 72 137 255 
6.28411 10.3745 1.64211 71 46 124 255 
17.3245 28.5344 4.19936 70 8 92 255 
17.5425 28.8471 3.93629 70 8 92 255 
17.5282 28.9612 3.67158 71 13 96 255 
15.7706 26.0052 3.00887 71 13 96 255 
15.8279 26.0591 2.72646 70 10 93 255 
16.6875 27.4088 2.57056 71 17 100 255 
19.3084 31.8901 2.69188 70 11 94 255 
0 0 0 68 2 86 255 
0 0 0 68 2 86 255 
0 0 0 68 2 86 255 
8.88395 14.6613 0.616618 72 35 116 255 
8.57065 14.116 0.438208 71 42 122 255 
8.01403 13.1736 0.263769 72 36 117 255 
7.93105 13.0061 0.119646 72 37 118 255 
7.80469 12.8752 -0.00262777 62 73 137 255 
7.80969 12.8526 -0.144371 70 48 126 255 
7.3305 12.0406 -0.265744 68 59 132 255 
6.97297 11.426 -0.378571 66 64 134 255 
6.4857 10.6867 -0.454013 68 59 132 255 
6.08839 10.0119 -0.534153 60 79 138 255 
5.80778 9.53569 -0.614453 59 82 139 255 
5.74077 9.40321 -0.710514 61 78 138 255 
5.69995 9.38827 -0.796915 53 94 141 255 
5.57424 9.15926 -0.877752 66 64 134 255 
5.18512 8.50333 -0.909893 65 66 135 255 
4.85422 7.95106 -0.939687 63 72 137 255 
4.51662 7.43048 -0.947706 61 78 138 255 
4.2785 7.02742 -0.975233 56 89 140 255 
3.99601 6.55068 -0.982972 58 83 139 255 
3.79732 6.21502 -1.00287 57 86 140 255 
3.59623 5.90934 -1.0104 53 94 141 255 
3.4124 5.60045 -1.01995 57 86 140 255 
3.24005 5.30934 -1.02635 63 72 137 255 
3.07891 5.03922 -1.03278 59 82 139 255 
2.9353 4.81574 -1.0351 57 86 140 255 
2.8078 4.60275 -1.04021 60 80 139 255 
2.69602 4.41787 -1.05015 61 78 138 255 
2.5805 4.22513 -1.05504 64 70 136 255 
2.50202 4.10006 -1.06572 65 68 135 255 
2.40874 3.94548 -1.07062 61 78 138 255 
2.31374 3.78847 -1.07312 63 72 137 255 
2.21891 3.63593 -1.07466 65 68 135 255 
2.15857 3.53033 -1.08171 61 77 138 255 
2.09744 3.4302 -1.09088 63 72 137 255 
2.02281 3.31081 -1.0935 65 68 135 255 
1.95554 3.20689 -1.1005 68 59 132 255 
6.10827 9.94243 3.50527 62 74 137 255 
5.59604 9.12622 3.096 72 41 121 255 
6.08943 9.93884 3.24783 71 44 122 255 
5.56192 9.07746 2.85854 56 88 140 255 
5.58593 9.10288 2.77201 64 69 136 255 
6.70422 10.9292 3.19204 70 52 128 255 
6.46129 10.5293 2.9499 72 38 119 255 
5.90358 9.61627 2.58434 72 24 106 255 
5.50525 8.97492 2.32263 45 112 142 255 
5.227 8.5177 2.10052 68 57 131 255 
4.98488 8.11378 1.90802 49 104 142 255 
5.07045 8.2463 1.84664 50 100 142 255 
5.28321 8.61293 1.84353 72 40 120 255 
5.35412 8.72144 1.76584 60 79 138 255 
8.05443 13.0998 2.50169 72 26 108 255 
6.67676 10.8375 1.95238 63 72 137 255 
6.17439 10.0619 1.71378 57 86 140 255 
6.28179 10.2285 1.62507 71 47 125 255 
18.7413 30.4453 4.49741 70 7 90 255 
16.074 26.0705 3.57082 71 13 96 255 
15.882 25.8815 3.29343 72 27 109 255 
17.7542 28.875 3.35345 71 16 99 255 
16.9495 27.5237 2.89053 72 20 103 255 
19.2419 31.1721 2.93452 70 11 94 255 
19.5037 31.771 2.69188 71 14 97 255 
0 0 0 68 2 86 255 
0 0 0 68 2 86 255 
0 0 0 68 2 86 255 
8.71375 14.1834 0.598753 70 11 94 255 
8.70112 14.1347 0.440436 72 31 112 255 
8.0081 12.9838 0.260946 70 50 126 255 
7.92499 12.8186 0.118366 64 70 136 255 
7.8914 12.8398 -0.00263039 66 65 134 255 
7.87791 12.7874 -0.144179 59 81 139 255 
7.4095 12.0039 -0.265933 69 55 129 255 
7.15129 11.5581 -0.384395 67 62 133 255 
6.4485 10.4798 -0.446899 62 74 137 255 
6.21734 10.0841 -0.540027 58 84 140 255 
5.85044 9.47438 -0.612804 64 69 136 255 
5.84353 9.44078 -0.716049 57 85 140 255 
5.76843 9.37096 -0.798434 59 81 139 255 
5.61463 9.09943 -0.875304 66 65 134 255 
5.24034 8.47644 -0.910439 67 62 133 255 
4.91548 7.94143 -0.942095 62 76 138 255 
4.56943 7.41447 -0.949223 63 71 136 255 
4.31841 6.99596 -0.974527 59 82 139 255 
4.04291 6.537 -0.984624 55 91 141 255 
3.83486 6.19076 -1.00273 55 91 141 255 
3.63138 5.88548 -1.01011 55 91 141 255 
3.44826 5.58193 -1.02041 53 95 141 255 
3.26945 5.28433 -1.02537 60 79 138 255 
3.1077 5.01688 -1.03209 63 72 137 255 
2.96169 4.79262 -1.03401 59 81 139 255 
2.83909 4.59045 -1.04134 61 78 138 255 
2.71844 4.39375 -1.04836 57 85 140 255 
2.60844 4.21254 -1.05588 62 74 137 255 
2.52097 4.07467 -1.06312 63 72 137 255 
2.43392 3.93228 -1.07107 62 73 137 255 
2.32876 3.76098 -1.06936 63 72 137 255 
2.26056 3.65358 -1.08396 64 70 136 255 
2.18631 3.52688 -1.08475 63 71 136 255 
2.11133 3.40578 -1.08721 66 65 134 255 
2.04765 3.3057 -1.09594 66 63 133 255 
1.97771 3.19891 -1.1019 66 65 134 255 
5.42941 8.71707 3.08495 72 37 118 255 
5.49572 8.84043 3.01043 70 52 128 255 
5.53781 8.91525 2.92439 72 35 116 255 
5.49317 8.84299 2.79526 64 69 136 255 
5.63554 9.05857 2.769 63 71 136 255 
5.76827 9.27525 2.71926 70 48 126 255 
6.60336 10.6141 2.98497 72 41 121 255 
7.61689 12.238 3.30142 70 50 126 255 
5.57105 8.95838 2.32715 46 109 142 255 
5.56556 8.9458 2.21448 64 70 136 255 
4.96199 7.96652 1.88051 47 107 142 255 
5.09238 8.16918 1.83634 45 112 142 255 
5.30271 8.52689 1.83204 48 106 142 255 
5.40232 8.68005 1.76414 67 62 133 255 
5.42746 8.70705 1.66913 47 108 142 255 
6.13417 9.82135 1.77606 68 57 131 255 
6.3437 10.1969 1.74338 70 52 128 255 
6.31353 10.1402 1.61715 68 59 132 255 
10.1155 16.209 2.40354 70 10 93 255 
6.41292 10.2597 1.41061 68 57 131 255 
16.0153 25.743 3.28826 71 13 96 255 
18.2837 29.3313 3.41941 70 11 94 255 
17.2721 27.6659 2.91654 72 20 103 255 
19.2774 30.805 2.91105 70 10 93 255 
19.5275 31.3764 2.66855 70 10 93 255 
0 0 0 68 2 86 255 
0 0 0 68 2 86 255 
37.4372 59.7779 3.09188 69 5 89 255 
9.40556 15.1009 0.639911 71 17 100 255 
9.02108 14.455 0.452134 68 58 131 255 
8.31397 13.2964 0.26825 71 44 122 255 
7.98066 12.7333 0.118028 67 62 133 255 
7.951 12.7606 -0.0026241 60 80 139 255 
7.93292 12.7015 -0.143757 65 68 135 255 
7.9142 12.6472 -0.281256 64 70 136 255 
7.25076 11.5597 -0.385922 65 66 135 255 
6.47672 10.3824 -0.444431 55 90 140 255 
6.28704 10.0585 -0.54071 61 77 138 255 
5.94555 9.49755 -0.616651 62 74 137 255 
5.90824 9.41574 -0.716885 61 77 138 255 
5.85539 9.38277 -0.802487 59 82 139 255 
5.6767 9.07495 -0.876283 66 65 134 255 
5.28643 8.43484 -0.909438 66 64 134 255 
4.962 7.90775 -0.941694 61 77 138 255 
4.60589 7.37196 -0.947381 62 73 137 255 
4.34756 6.94744 -0.971467 59 82 139 255 
4.0919 6.52636 -0.986784 57 86 140 255 
3.86962 6.16208 -1.00191 57 85 140 255 
3.66375 5.85721 -1.0091 52 97 141 255 
3.48192 5.55982 -1.02025 55 90 140 255 
3.3081 5.2742 -1.02733 59 81 139 255 
3.13842 4.99772 -1.03209 64 69 136 255 
2.99313 4.77769 -1.03474 55 91 141 255 
2.87659 4.58791 -1.04475 57 86 140 255 
2.75108 4.38612 -1.05055 58 83 139 255 
2.641 4.20723 -1.05858 64 70 136 255 
2.55889 4.0798 -1.06854 58 84 140 255 
2.44817 3.90159 -1.06678 62 76 138 255 
2.36936 3.77461 -1.07735 61 77 138 255 
2.27985 3.63471 -1.08249 66 65 134 255 
2.20945 3.51586 -1.08551 63 72 137 255 
2.14297 3.40992 -1.09271 64 70 136 255 
2.05971 3.28003 -1.0916 64 69 136 255 
1.9973 3.18672 -1.1019 67 61 132 255 
5.5058 8.72003 3.0979 59 82 139 255 
6.10608 9.68915 3.31214 72 35 116 255 
6.16885 9.79652 3.22582 70 52 128 255 
6.22202 9.88053 3.13524 72 40 120 255 
5.46796 8.67014 2.66047 72 40 120 255 
6.65723 10.5596 3.10773 72 35 116 255 
8.27267 13.1172 3.70311 71 44 122 255 
7.57793 12.0105 3.25253 71 45 123 255 
5.71079 9.05868 2.36226 72 38 119 255 
4.97979 7.89585 1.96209 61 78 138 255 
5.2296 8.28248 1.96263 57 86 140 255 
5.1041 8.07716 1.82266 47 107 142 255 
5.34233 8.47422 1.82774 49 103 142 255 
8.14037 12.9022 2.63235 71 47 125 255 
6.4119 10.1471 1.9527 72 40 120 255 
6.27944 9.91798 1.80047 68 58 131 255 
6.50698 10.3176 1.77082 66 65 134 255 
6.36241 10.0803 1.6138 66 63 133 255 
19.3936 30.6557 4.56332 70 11 94 255 
6.48266 10.2311 1.41211 55 90 140 255 
18.4051 29.1836 3.7421 71 14 97 255 
18.5048 29.2842 3.42709 71 16 99 255 
17.5608 27.7479 2.93649 71 17 100 255 
33.3052 52.5021 4.98062 69 5 89 255 
18.7708 29.7519 2.54013 71 19 101 255 
18.8182 29.7685 2.20954 71 16 99 255 
19.0219 30.0217 1.8937 70 7 90 255 
36.4861 57.4722 2.98415 70 7 90 255 
9.9014 15.6817 0.667087 70 10 93 255 
10.3137 16.3027 0.511897 72 20 103 255 
8.2059 12.9462 0.262195 71 19 101 255 
6.75558 10.6331 0.0989434 72 28 110 255 
8.02167 12.6997 -0.00262166 71 47 125 255 
7.99519 12.6281 -0.143479 70 50 126 255 
7.99059 12.5967 -0.281219 71 42 122 255 
7.32852 11.526 -0.386289 72 20 103 255 
6.62095 10.47 -0.449911 68 57 131 255 
6.33741 10.002 -0.539754 60 79 138 255 
6.0203 9.48703 -0.618354 64 69 136 255 
5.96001 9.37004 -0.716177 60 79 138 255 
5.94911 9.40398 -0.807408 54 92 141 255 
5.74295 9.05678 -0.877915 65 68 135 255 
5.33328 8.39468 -0.908619 68 58 131 255 
4.99815 7.85784 -0.939386 64 70 136 255 
4.62444 7.30157 -0.941963 63 72 137 255 
4.38106 6.90638 -0.969465 60 79 138 255 
4.1175 6.47853 -0.983353 61 78 138 255 
3.89937 6.12569 -0.999865 59 82 139 255 
3.70598 5.84465 -1.01084 52 96 141 255 
3.51067 5.53001 -1.01872 56 88 140 255 
3.34517 5.26129 -1.02879 54 93 141 255 
3.1722 4.98335 -1.03312 62 74 137 255 
3.01607 4.74927 -1.03257 57 86 140 255 
2.88941 4.54614 -1.03926 59 81 139 255 
2.76427 4.34765 -1.04538 60 79 138 255 
2.66099 4.18187 -1.05629 65 68 135 255 
2.58021 4.05826 -1.06702 60 79 138 255 
2.48147 3.90129 -1.07085 62 76 138 255 
2.38987 3.7559 -1.07617 64 70 136 255 
2.28858 3.59938 -1.07613 65 66 135 255 
2.21695 3.4802 -1.07868 63 71 136 255 
2.1483 3.37229 -1.08485 66 65 134 255 
2.08393 3.27383 -1.09377 63 72 137 255 
2.02248 3.18331 -1.105 66 65 134 255 
5.5814 8.72077 3.11027 71 42 122 255 
5.5438 8.67842 2.97821 53 95 141 255 
5.54936 8.69397 2.87392 70 48 126 255 
5.56282 8.71467 2.77607 68 59 132 255 
5.51637 8.62909 2.65821 72 32 113 255 
8.01517 12.5423 3.70564 72 27 109 255 
8.56046 13.3907 3.79508 72 36 117 255 
7.7728 12.1535 3.3041 69 55 129 255 
5.98554 9.3666 2.45209 72 38 119 255 
11.2834 17.6498 4.40304 72 26 108 255 
5.04775 7.88686 1.87619 46 111 142 255 
5.19966 8.11766 1.83896 51 99 141 255 
5.11083 7.99778 1.73171 56 89 140 255 
8.19071 12.8072 2.62317 71 16 99 255 
6.27281 9.79343 1.892 58 83 139 255 
6.60071 10.2852 1.87445 72 33 115 255 
6.17892 9.6655 1.66537 56 88 140 255 
6.39637 9.99766 1.60682 70 51 127 255 
16.4187 25.6042 3.82629 71 17 100 255 
6.56625 10.2237 1.41663 72 27 109 255 
6.49002 10.1522 1.30685 62 74 137 255 
18.6391 29.0997 3.41882 71 14 97 255 
17.7566 27.6799 2.94076 71 14 97 255 
19.1752 29.8216 2.84014 71 13 96 255 
18.8939 29.5438 2.53221 71 16 99 255 
18.9617 29.592 2.20503 72 23 105 255 
36.4931 56.8218 3.59826 69 5 89 255 
36.5591 56.8138 2.96155 69 4 87 255 
0 0 0 68 2 86 255 
10.7843 16.8172 0.53012 70 8 92 255 
6.80056 10.5848 0.215212 70 8 92 255 
6.83802 10.6183 0.0991948 56 88 140 255 
6.7703 10.5743 -0.00219144 72 20 103 255 
6.80551 10.6045 -0.120959 71 17 100 255 
6.81647 10.6014 -0.237603 72 22 104 255 
6.79208 10.5389 -0.354598 71 16 99 255 
6.7417 10.5175 -0.453722 71 47 125 255 
6.39974 9.96458 -0.539845 61 77 138 255 
6.09622 9.47762 -0.620168 62 74 137 255 
6.02659 9.34756 -0.717271 60 79 138 255 
6.00509 9.36478 -0.807191 54 92 141 255 
5.79572 9.01718 -0.877507 65 68 135 255 
5.38685 8.36515 -0.908983 67 61 132 255 
5.03171 7.80445 -0.936676 63 72 137 255 
4.6756 7.28309 -0.943264 62 74 137 255 
4.41691 6.86935 -0.968053 57 86 140 255 
4.15825 6.45481 -0.983607 59 81 139 255 
3.94279 6.1108 -1.00137 54 93 141 255 
3.7391 5.81764 -1.01011 51 99 141 255 
3.54828 5.51418 -1.01979 56 88 140 255 
3.3822 5.24813 -1.03026 54 93 141 255 
3.19952 4.95883 -1.03209 62 76 138 255 
3.0526 4.74225 -1.0351 53 95 141 255 
2.92629 4.54236 -1.04248 58 84 140 255 
2.80576 4.35367 -1.05095 59 82 139 255 
2.68607 4.16464 -1.05608 64 69 136 255 
2.59237 4.02265 -1.06182 62 74 137 255 
2.50748 3.88927 -1.07175 62 76 138 255 
2.41392 3.7428 -1.07664 62 76 138 255 
2.31062 3.58527 -1.07613 67 61 132 255 
2.24036 3.46979 -1.07969 65 68 135 255 
2.17995 3.37607 -1.09035 64 69 136 255 
2.10398 3.26098 -1.09377 63 72 137 255 
2.04197 3.17084 -1.105 63 71 136 255 
7.35116 11.3322 4.05765 72 36 117 255 
5.62097 8.68133 2.99099 58 84 140 255 
5.60051 8.65652 2.87285 71 44 122 255 
5.60517 8.66335 2.77063 50 101 142 255 
5.59553 8.63569 2.67077 67 62 133 255 
6.74885 10.4193 3.09057 61 78 138 255 
8.1548 12.5853 3.58094 72 35 116 255 
8.07946 12.4638 3.40189 71 19 101 255 
8.09366 12.4959 3.28425 70 51 127 255 
5.50257 8.49198 2.12685 50 100 142 255 
5.29242 8.15845 1.94849 57 85 140 255 
5.25579 8.09549 1.84121 49 103 142 255 
5.15659 7.96132 1.73063 46 109 142 255 
8.31041 12.8203 2.63626 71 42 122 255 
6.24249 9.61567 1.86502 62 74 137 255 
6.35163 9.76477 1.78668 70 48 126 255 
6.23112 9.61661 1.6635 54 92 141 255 
6.19448 9.55247 1.54135 66 65 134 255 
6.54672 10.0727 1.51124 70 51 127 255 
6.65108 10.2173 1.42138 56 88 140 255 
6.58679 10.1655 1.31375 72 29 111 255 
20.6792 31.8527 3.7571 70 7 90 255 
19.1884 29.5119 3.14785 70 8 92 255 
19.0166 29.1798 2.79007 71 13 96 255 
19.1611 29.5604 2.54366 72 22 104 255 
21.3586 32.8867 2.46026 71 13 96 255 
20.4571 31.4272 1.99804 71 17 100 255 
36.8977 56.5741 2.96081 69 4 87 255 
0 0 0 68 2 86 255 
0 0 0 69 4 87 255 
8.29705 12.7414 0.260091 70 8 92 255 
6.91944 10.6013 0.0994304 71 17 100 255 
6.84213 10.5435 -0.0021937 70 10 93 255 
6.86663 10.5567 -0.120892 70 10 93 255 
10.3308 15.8525 -0.356707 71 13 96 255 
8.8508 13.55 -0.457729 71 16 99 255 
6.67108 10.2681 -0.444721 69 53 129 255 
6.34523 9.74764 -0.530191 61 78 138 255 
6.1668 9.45927 -0.621432 58 83 139 255 
6.12368 9.37138 -0.72197 56 88 140 255 
6.07059 9.3403 -0.808276 54 92 141 255 
5.86835 9.00817 -0.880118 68 59 132 255 
5.4408 8.33611 -0.909438 68 59 132 255 
5.08005 7.77426 -0.936776 64 70 136 255 
4.7408 7.28593 -0.947381 62 74 137 255 
4.46494 6.85127 -0.969348 56 88 140 255 
4.20049 6.43332 -0.984242 57 85 140 255 
3.97859 6.08401 -1.00096 55 91 141 255 
3.77635 5.79707 -1.01055 55 91 141 255 
3.58205 5.49231 -1.01979 57 85 140 255 
3.40948 5.21985 -1.02879 54 92 141 255 
3.21479 4.91602 -1.02726 65 66 135 255 
3.08164 4.72343 -1.0351 54 92 141 255 
2.95894 4.53172 -1.04418 58 83 139 255 
2.82813 4.32981 -1.04936 61 77 138 255 
2.71425 4.15217 -1.05713 66 64 134 255 
2.61807 4.00831 -1.06226 62 74 137 255 
2.52863 3.86973 -1.07062 61 78 138 255 
2.43578 3.72629 -1.07617 62 74 137 255 
2.34371 3.58807 -1.08127 65 68 135 255 
2.2722 3.47217 -1.08475 64 70 136 255 
2.21383 3.38282 -1.0969 60 79 138 255 
2.13185 3.26009 -1.09784 61 77 138 255 
2.05352 3.1462 -1.10078 67 61 132 255 
6.84601 10.413 3.74349 70 51 127 255 
5.68256 8.65953 2.99543 59 82 139 255 
6.74059 10.2798 3.42525 72 40 120 255 
5.63545 8.59406 2.75947 59 81 139 255 
5.64416 8.59473 2.66876 68 59 132 255 
8.39268 12.7845 3.80735 72 32 113 255 
8.12936 12.379 3.53635 72 35 116 255 
5.50588 8.38054 2.29657 71 47 125 255 
5.50144 8.38059 2.21147 64 69 136 255 
5.57445 8.48833 2.13446 55 90 140 255 
5.39194 8.2012 1.96656 56 89 140 255 
5.38851 8.18946 1.87007 49 104 142 255 
5.35273 8.15404 1.77963 49 103 142 255 
5.59153 8.51109 1.75717 56 89 140 255 
6.3182 9.60275 1.87 69 56 130 255 
6.9065 10.4766 1.92464 72 31 112 255 
6.92449 10.5444 1.8313 72 33 115 255 
16.663 25.3538 4.10742 70 8 92 255 
6.6417 10.0829 1.51886 56 88 140 255 
6.70435 10.1622 1.41941 52 97 141 255 
6.74564 10.272 1.33284 59 82 139 255 
20.4864 31.1358 3.6873 70 8 92 255 
19.1044 28.9919 3.10483 71 14 97 255 
19.4408 29.4343 2.82577 71 19 101 255 
19.2561 29.3114 2.53236 71 13 96 255 
21.5513 32.7417 2.45926 72 20 103 255 
21.6229 32.7764 2.09222 70 7 90 255 
37.2998 56.4308 2.96523 69 4 87 255 
30.743 46.761 2.01291 69 4 87 255 
8.71982 13.2375 0.420621 69 5 89 255 
28.2297 42.775 0.876686 69 5 89 255 
8.144 12.3117 0.115939 70 10 93 255 
17.1044 26.0064 -0.00543269 69 5 89 255 
13.6699 20.7365 -0.238424 71 17 100 255 
10.6858 16.1793 -0.365528 72 28 110 255 
7.8545 11.8651 -0.402432 72 26 108 255 
6.86696 10.429 -0.453504 68 57 131 255 
6.51274 9.87195 -0.539117 61 78 138 255 
6.23519 9.43709 -0.622476 64 70 136 255 
6.20476 9.36941 -0.724737 61 77 138 255 
6.13985 9.3212 -0.809869 58 84 140 255 
5.9032 8.94122 -0.877099 69 53 129 255 
5.49514 8.30755 -0.909984 69 56 130 255 
5.14194 7.76451 -0.939386 63 72 137 255 
4.78925 7.26252 -0.948139 61 77 138 255 
4.51128 6.83037 -0.970289 57 86 140 255 
4.25193 6.42563 -0.987038 55 90 140 255 
4.02351 6.07104 -1.00287 56 88 140 255 
3.8113 5.77297 -1.0104 55 90 140 255 
3.61459 5.46858 -1.01948 56 89 140 255 
3.43872 5.19472 -1.02798 53 95 141 255 
3.24653 4.89866 -1.02778 62 73 137 255 
3.11382 4.70936 -1.03618 56 88 140 255 
2.98344 4.50857 -1.04305 59 81 139 255 
2.86708 4.33117 -1.05393 61 78 138 255 
2.73913 4.13462 -1.05692 64 70 136 255 
2.64531 3.99624 -1.06334 61 77 138 255 
2.55394 3.85658 -1.0713 59 82 139 255 
2.46396 3.71938 -1.07852 63 72 137 255 
2.36569 3.57362 -1.08127 65 66 135 255 
2.30149 3.47025 -1.08854 64 69 136 255 
2.24148 3.37963 -1.1003 64 70 136 255 
2.15447 3.25096 -1.0992 62 76 138 255 
2.0839 3.15035 -1.10668 65 66 135 255 
7.1137 10.6769 3.85396 65 66 135 255 
7.48148 11.2498 3.90723 71 46 124 255 
5.71218 8.59596 2.8758 68 57 131 255 
5.68647 8.55691 2.7587 64 69 136 255 
5.77508 8.67758 2.70544 72 35 116 255 
8.47204 12.7344 3.80783 69 55 129 255 
8.17175 12.2787 3.52195 72 35 116 255 
8.19939 12.315 3.38849 72 31 112 255 
5.53491 8.31984 2.20436 72 33 115 255 
5.60312 8.41893 2.12562 46 110 142 255 
5.45901 8.19326 1.97265 55 91 141 255 
5.4512 8.17503 1.87438 49 104 142 255 
5.43535 8.17019 1.7904 49 103 142 255 
5.62344 8.44627 1.75088 55 90 140 255 
6.82382 10.2339 2.00103 64 69 136 255 
5.7385 8.58968 1.58443 72 29 111 255 
6.46435 9.71325 1.69381 66 64 134 255 
17.1336 25.7245 4.18442 72 24 106 255 
17.1797 25.7358 3.89257 71 16 99 255 
18.0269 26.9632 3.78146 72 20 103 255 
6.80523 10.2255 1.33219 72 20 103 255 
21.0094 31.5079 3.74657 71 13 96 255 
19.595 29.343 3.15524 71 16 99 255 
19.7242 29.4686 2.84062 71 16 99 255 
19.4013 29.1412 2.52789 70 8 92 255 
21.8165 32.706 2.46658 72 22 104 255 
35.2467 52.7211 3.3791 70 7 90 255 
37.7149 56.3047 2.97071 69 5 89 255 
0 0 0 68 2 86 255 
0 0 0 68 2 86 255 
28.5773 42.7289 0.87932 70 10 93 255 
8.77396 13.0888 0.123762 70 8 92 255 
17.1233 25.6904 -0.00538853 69 4 87 255 
13.2114 19.7759 -0.228307 72 22 104 255 
11.559 17.27 -0.391765 72 37 118 255 
9.25698 13.799 -0.469942 71 19 101 255 
6.93914 10.3991 -0.454049 62 76 138 255 
6.5582 9.80939 -0.537887 60 79 138 255 
6.33075 9.45507 -0.626212 60 79 138 255 
6.2727 9.34691 -0.72596 58 84 140 255 
6.24954 9.36216 -0.816744 52 97 141 255 
5.95795 8.90483 -0.877099 70 52 128 255 
5.54268 8.26871 -0.909438 68 59 132 255 
5.18782 7.73034 -0.939085 62 73 137 255 
4.82378 7.21811 -0.946189 64 70 136 255 
4.54979 6.79761 -0.969583 59 81 139 255 
4.2863 6.392 -0.985894 56 89 140 255 
4.06676 6.05529 -1.00437 59 81 139 255 
3.84335 5.74454 -1.00953 55 90 140 255 
3.63873 5.43234 -1.01687 53 94 141 255 
3.46778 5.16942 -1.02716 54 93 141 255 
3.28256 4.88765 -1.02968 62 76 138 255 
3.15525 4.70895 -1.04033 58 83 139 255 
3.00667 4.48365 -1.04153 59 82 139 255 
2.8876 4.30455 -1.05174 62 73 137 255 
2.77426 4.13236 -1.06067 62 73 137 255 
2.6774 3.99128 -1.06637 61 78 138 255 
2.57701 3.84003 -1.07107 57 85 140 255 
2.48403 3.70015 -1.07735 62 73 137 255 
2.38919 3.56146 -1.082 66 64 134 255 
2.33083 3.46811 -1.09233 62 76 138 255 
2.25303 3.3522 -1.09585 61 77 138 255 
2.17813 3.24327 -1.10109 63 71 136 255 
2.10106 3.13431 -1.10556 64 70 136 255 
7.33824 10.8687 3.93941 70 50 126 255 
7.82792 11.6155 4.05086 72 41 121 255 
7.98917 11.8639 3.98543 72 41 121 255 
5.74264 8.52746 2.76051 70 50 126 255 
5.82064 8.63074 2.70192 70 48 126 255 
8.43881 12.5173 3.75831 71 42 122 255 
8.09792 12.0073 3.45831 72 22 104 255 
8.30751 12.313 3.40189 72 20 103 255 
9.62255 14.2735 3.79737 71 17 100 255 
5.52498 8.1921 2.07687 57 85 140 255 
8.49888 12.5876 3.04316 69 53 129 255 
5.53315 8.18864 1.88524 72 31 112 255 
5.51068 8.17421 1.79866 51 99 141 255 
5.61894 8.32829 1.73353 46 110 142 255 
5.78239 8.55781 1.68021 51 99 141 255 
5.79442 8.55922 1.58534 58 83 139 255 
6.47181 9.59628 1.68031 72 26 108 255 
17.1957 25.4776 4.16135 71 13 96 255 
18.3435 27.1174 4.11848 71 13 96 255 
18.197 26.8595 3.78251 71 13 96 255 
20.8292 30.8852 4.04034 70 8 92 255 
21.0085 31.0915 3.71231 70 11 94 255 
19.753 29.19 3.15177 71 17 100 255 
20.2292 29.8255 2.88693 70 11 94 255 
19.5586 28.9902 2.52515 70 11 94 255 
22.1409 32.7551 2.48048 71 19 101 255 
22.2257 32.807 2.11143 71 16 99 255 
38.008 55.9961 2.96668 69 5 89 255 
0 0 0 68 2 86 255 
0 0 0 69 5 89 255 
28.8798 42.6132 0.880568 70 8 92 255 
0 0 0 68 2 86 255 
17.1703 25.4216 -0.00535415 70 7 90 255 
13.3735 19.7549 -0.229007 71 19 101 255 
11.3589 16.7478 -0.381492 72 33 115 255 
10.0692 14.8125 -0.506552 72 37 118 255 
6.99498 10.3448 -0.453541 65 66 135 255 
6.59249 9.73092 -0.535792 60 79 138 255 
6.36061 9.37473 -0.623465 62 76 138 255 
6.35574 9.3462 -0.72892 58 84 140 255 
6.31469 9.3352 -0.817757 59 81 139 255 
6.01863 8.87718 -0.877997 69 56 130 255 
5.57597 8.20901 -0.906618 68 59 132 255 
5.23291 7.69507 -0.938683 64 70 136 255 
4.86742 7.18756 -0.946081 60 80 139 255 
4.58807 6.76464 -0.968877 55 90 140 255 
4.32712 6.36804 -0.986275 58 84 140 255 
4.09324 6.01466 -1.00177 58 84 140 255 
3.87686 5.71839 -1.0091 59 81 139 255 
3.67366 5.41236 -1.01733 55 91 141 255 
3.49001 5.13417 -1.0244 54 93 141 255 
3.31027 4.86415 -1.02899 61 77 138 255 
3.16475 4.66103 -1.03401 59 82 139 255 
3.03744 4.46999 -1.04267 62 73 137 255 
2.9101 4.28107 -1.05035 59 81 139 255 
2.80782 4.12739 -1.0638 62 76 138 255 
2.70184 3.97478 -1.06637 59 81 139 255 
2.60819 3.83542 -1.07423 58 83 139 255 
2.50122 3.67681 -1.075 62 76 138 255 
2.40991 3.54513 -1.08151 67 62 133 255 
2.34826 3.44815 -1.09056 60 80 139 255 
2.27572 3.3415 -1.0969 62 76 138 255 
2.19799 3.22985 -1.10109 60 79 138 255 
2.12456 3.12771 -1.10781 62 73 137 255 
7.4832 10.9381 3.98112 71 46 124 255 
6.76086 9.9005 3.46716 71 44 122 255 
8.58359 12.5794 4.24338 72 40 120 255 
7.50473 10.9978 3.57505 71 45 123 255 
5.68508 8.31916 2.61525 61 77 138 255 
5.6341 8.2474 2.48662 65 66 135 255 
5.74635 8.40873 2.43197 55 91 141 255 
9.72577 14.226 3.94684 72 41 121 255 
9.72317 14.2335 3.80254 68 59 132 255 
5.563 8.14027 2.07235 54 93 141 255 
8.60751 12.5814 3.05436 62 76 138 255 
5.61548 8.20154 1.89611 54 93 141 255 
5.55907 8.1378 1.79812 57 86 140 255 
5.55704 8.12851 1.69901 60 80 139 255 
7.01413 10.2447 2.01981 50 102 142 255 
6.5396 9.53341 1.77318 72 35 116 255 
17.2762 25.2808 4.44515 72 20 103 255 
17.4278 25.4828 4.17959 71 17 100 255 
18.375 26.808 4.08852 70 11 94 255 
21.5989 31.4633 4.44942 70 8 92 255 
21.7088 31.7672 4.17308 70 7 90 255 
20.8908 30.512 3.65835 71 14 97 255 
18.4086 26.847 2.91092 70 11 94 255 
21.4551 31.2189 3.0345 70 8 92 255 
22.3192 32.6481 2.85565 70 11 94 255 
22.3838 32.6804 2.48518 72 23 105 255 
22.5921 32.9113 2.12702 70 11 94 255 
36.5727 53.1764 2.82912 69 4 87 255 
38.2683 55.9364 2.43779 69 4 87 255 
0 0 0 69 4 87 255 
29.1578 42.4599 0.881081 70 11 94 255 
0 0 0 68 2 86 255 
17.2582 25.2167 -0.0053332 70 7 90 255 
13.5018 19.6832 -0.229132 71 17 100 255 
11.3436 16.5064 -0.377572 72 29 111 255 
10.1066 14.673 -0.503895 72 33 115 255 
7.33905 10.7114 -0.471579 66 63 133 255 
6.6843 9.73723 -0.538388 55 91 141 255 
6.47911 9.42439 -0.629399 62 73 137 255 
6.43902 9.34483 -0.731881 56 88 140 255 
6.3944 9.32919 -0.820651 54 92 141 255 
6.0758 8.84419 -0.878404 69 56 130 255 
5.64204 8.19761 -0.909165 68 58 131 255 
5.27269 7.65216 -0.937378 63 72 137 255 
4.92099 7.17149 -0.947922 58 84 140 255 
4.63061 6.73799 -0.969112 56 89 140 255 
4.36048 6.3332 -0.985005 58 84 140 255 
4.12501 5.98209 -1.00055 59 81 139 255 
3.90795 5.68879 -1.00809 62 74 137 255 
3.71128 5.39623 -1.01856 57 86 140 255 
3.51641 5.10535 -1.02293 53 94 141 255 
3.34453 4.85024 -1.03036 61 78 138 255 
3.18827 4.63423 -1.03239 59 82 139 255 
3.06759 4.45531 -1.04361 58 84 140 255 
2.94577 4.27686 -1.05373 58 83 139 255 
2.82476 4.098 -1.06067 60 79 138 255 
2.73448 3.97019 -1.06962 62 73 137 255 
2.63223 3.82015 -1.07446 61 78 138 255 
2.52208 3.65899 -1.07429 62 74 137 255 
2.43711 3.53826 -1.08396 63 71 136 255 
2.37322 3.43925 -1.09233 60 79 138 255 
2.30002 3.33303 -1.09873 59 82 139 255 
2.22487 3.2266 -1.10462 61 78 138 255 
2.14154 3.11146 -1.10668 60 79 138 255 
7.56054 10.907 3.98659 67 62 133 255 
7.84798 11.3424 3.98891 66 65 134 255 
5.70782 8.25562 2.79662 54 93 141 255 
9.19349 13.2966 4.34058 72 40 120 255 
5.79939 8.37564 2.64414 53 95 141 255 
9.30533 13.4436 4.07044 71 44 122 255 
5.72752 8.27176 2.40247 63 72 137 255 
5.7171 8.25331 2.29948 64 69 136 255 
8.8005 12.7147 3.41113 72 24 106 255 
10.0402 14.4999 3.70698 71 42 122 255 
6.27643 9.05436 2.20742 48 105 142 255 
10.4255 15.028 3.48904 72 20 103 255 
5.61337 8.11001 1.79956 47 108 142 255 
5.60962 8.09831 1.69986 69 53 129 255 
7.1303 10.2785 2.03507 72 22 104 255 
6.75028 9.71225 1.81412 68 59 132 255 
17.3414 25.045 4.42231 70 10 93 255 
17.629 25.4406 4.19033 72 28 110 255 
18.6461 26.8487 4.11211 69 5 89 255 
18.9268 27.2115 3.86449 70 10 93 255 
18.4663 26.6696 3.51825 71 13 96 255 
18.6691 26.9115 3.24033 71 16 99 255 
18.8463 27.127 2.95377 71 13 96 255 
19.156 27.5103 2.68539 71 19 101 255 
21.4729 31.0003 2.72299 70 7 90 255 
22.7381 32.7646 2.50215 71 16 99 255 
22.9168 32.9491 2.13851 71 13 96 255 
0 0 0 69 4 87 255 
38.5481 55.6102 2.43383 69 4 87 255 
29.9796 43.1672 1.3946 69 5 89 255 
29.8329 42.8769 0.893515 70 8 92 255 
0 0 0 68 2 86 255 
17.5898 25.3659 -0.00538748 69 5 89 255 
13.6154 19.5901 -0.229017 70 11 94 255 
11.4018 16.3749 -0.376158 72 32 113 255 
9.7142 13.9197 -0.480062 72 41 121 255 
7.33454 10.5652 -0.467115 66 65 134 255 
6.82207 9.80838 -0.544627 62 74 137 255 
6.56991 9.43198 -0.632586 60 79 138 255 
6.51394 9.33051 -0.733876 59 82 139 255 
6.48225 9.33401 -0.824559 58 83 139 255 
6.12654 8.80184 -0.877915 68 59 132 255 
5.70591 8.18244 -0.911349 66 63 133 255 
5.32695 7.63027 -0.938683 59 82 139 255 
4.95639 7.12892 -0.946297 58 84 140 255 
4.67414 6.71271 -0.969583 57 85 140 255 
4.39529 6.30063 -0.984115 59 82 139 255 
4.16448 5.96073 -1.00123 58 83 139 255 
3.92752 5.64277 -1.00419 60 79 138 255 
3.74375 5.37255 -1.01841 54 93 141 255 
3.54879 5.0853 -1.02326 53 94 141 255 
3.37254 4.8272 -1.02985 62 76 138 255 
3.21496 4.61216 -1.03185 60 80 139 255 
3.0988 4.44205 -1.04494 57 85 140 255 
2.9798 4.26995 -1.05652 61 77 138 255 
2.84202 4.06937 -1.05775 63 72 137 255 
2.76214 3.95814 -1.07092 64 70 136 255 
2.65283 3.79993 -1.07333 62 76 138 255 
2.54782 3.64823 -1.0757 61 78 138 255 
2.46766 3.53596 -1.08787 59 82 139 255 
2.38762 3.4151 -1.0893 59 82 139 255 
2.31766 3.3149 -1.09742 61 78 138 255 
2.22589 3.18606 -1.0954 63 72 137 255 
2.15894 3.0959 -1.10584 58 83 139 255 
5.79934 8.25754 3.03115 54 93 141 255 
7.90971 11.283 3.98502 71 45 123 255 
5.75727 8.21886 2.79608 62 73 137 255 
5.75955 8.22177 2.69542 67 62 133 255 
5.81898 8.29473 2.62982 55 91 141 255 
9.58153 13.6628 4.15451 71 42 122 255 
9.79786 13.9663 4.07379 72 38 119 255 
5.77156 8.22366 2.30104 53 94 141 255 
5.58212 7.96004 2.14469 72 41 121 255 
6.22563 8.87413 2.27845 71 46 124 255 
10.3718 14.768 3.61584 72 23 105 255 
6.30823 8.97503 2.09267 56 88 140 255 
5.99176 8.54419 1.90402 54 92 141 255 
5.68638 8.10246 1.70803 42 120 142 255 
7.05248 10.0343 1.99525 72 35 116 255 
6.80747 9.66742 1.81351 65 66 135 255 
7.03553 10.0289 1.77843 62 73 137 255 
17.7472 25.2784 4.18147 70 10 93 255 
21.2855 30.2514 4.65318 70 11 94 255 
19.134 27.1525 3.87272 71 14 97 255 
18.7033 26.6608 3.53216 71 19 101 255 
19.0502 27.1042 3.27754 71 17 100 255 
19.3186 27.4458 3.00133 70 11 94 255 
19.7473 27.9917 2.74416 70 8 92 255 
19.3429 27.5623 2.43138 70 7 90 255 
20.4772 29.1237 2.23365 71 16 99 255 
23.0041 32.6454 2.12792 72 20 103 255 
23.0407 32.6359 1.75122 70 7 90 255 
0 0 0 68 2 86 255 
30.027 42.6742 1.3846 69 5 89 255 
30.0401 42.6146 0.891874 71 13 96 255 
0 0 0 69 4 87 255 
17.5934 25.0415 -0.00534141 70 7 90 255 
13.6214 19.3443 -0.227116 70 11 94 255 
11.4393 16.2156 -0.374104 72 23 105 255 
9.75788 13.8011 -0.478027 72 29 111 255 
7.4343 10.5698 -0.469329 60 79 138 255 
7.13934 10.1314 -0.564982 63 72 137 255 
6.72726 9.53262 -0.642093 62 74 137 255 
6.65809 9.41339 -0.743594 57 86 140 255 
6.56178 9.32588 -0.827382 63 71 136 255 
6.1879 8.77467 -0.878976 68 59 132 255 
5.74911 8.13752 -0.910257 65 68 135 255 
5.37309 7.59663 -0.938583 61 78 138 255 
4.98401 7.07562 -0.943264 60 80 139 255 
4.72955 6.70419 -0.972526 58 83 139 255 
4.43272 6.27193 -0.983861 60 79 138 255 
4.1941 5.92536 -0.999592 57 86 140 255 
3.95181 5.60401 -1.00159 60 79 138 255 
3.77152 5.34221 -1.01703 56 89 140 255 
3.57708 5.0594 -1.02244 59 81 139 255 
3.39811 4.80079 -1.02864 61 78 138 255 
3.24377 4.59315 -1.03203 59 81 139 255 
3.1277 4.42535 -1.04551 57 85 140 255 
2.9935 4.23398 -1.05214 62 76 138 255 
2.86298 4.04626 -1.05629 62 73 137 255 
2.78807 3.9435 -1.07157 61 78 138 255 
2.68004 3.78915 -1.07491 61 78 138 255 
2.58139 3.64839 -1.0804 62 76 138 255 
2.49043 3.52234 -1.08836 61 77 138 255 
2.40853 3.40039 -1.0893 60 80 139 255 
2.33406 3.29511 -1.09559 61 78 138 255 
2.25151 3.18098 -1.09838 62 76 138 255 
2.17291 3.07554 -1.10331 61 77 138 255 
5.8449 8.21478 3.02856 58 83 139 255 
7.8592 11.0659 3.92529 70 52 128 255 
8.09004 11.3995 3.89498 71 47 125 255 
5.81492 8.19337 2.69776 44 114 142 255 
5.91238 8.31883 2.64891 53 95 141 255 
6.00526 8.45239 2.58132 55 91 141 255 
5.86466 8.25159 2.41733 61 78 138 255 
5.71346 8.03556 2.25817 52 97 141 255 
5.69986 8.02276 2.17097 50 101 142 255 
5.68014 7.99183 2.06083 49 104 142 255 
6.33647 8.90556 2.18993 68 58 131 255 
6.3723 8.94896 2.09567 71 44 122 255 
7.00812 9.86419 2.20772 62 73 137 255 
5.70972 8.03047 1.70021 61 78 138 255 
6.67939 9.38057 1.87337 62 76 138 255 
6.42752 9.00989 1.69753 59 81 139 255 
6.38661 8.98607 1.60043 47 107 142 255 
22.3993 31.492 5.23194 70 8 92 255 
22.0236 30.8958 4.773 70 11 94 255 
21.1835 29.6724 4.25059 70 8 92 255 
19.0122 26.7505 3.55944 71 16 99 255 
19.0447 26.746 3.2483 71 14 97 255 
20.5917 28.8765 3.17154 70 10 93 255 
20.2531 28.3379 2.79023 70 8 92 255 
20.8282 29.2948 2.59545 70 10 93 255 
23.1523 32.5026 2.50365 70 11 94 255 
23.2115 32.5142 2.12862 71 13 96 255 
23.3242 32.6109 1.75753 70 8 92 255 
39.084 54.931 2.42492 69 4 87 255 
24.0604 33.7525 1.0999 70 10 93 255 
23.7674 33.2806 0.699563 71 13 96 255 
23.8037 33.2567 0.321217 71 16 99 255 
17.7363 24.9184 -0.00533826 70 7 90 255 
13.8072 19.3548 -0.22823 71 16 99 255 
11.4932 16.0817 -0.372634 72 27 109 255 
9.85984 13.7653 -0.478875 72 35 116 255 
8.8311 12.3935 -0.552698 72 28 110 255 
7.32906 10.2662 -0.575 69 56 130 255 
6.86344 9.60001 -0.649456 63 71 136 255 
6.75118 9.42184 -0.74752 62 73 137 255 
6.63625 9.3098 -0.829553 57 86 140 255 
6.248 8.74546 -0.879873 67 62 133 255 
5.7885 8.08751 -0.908619 69 56 130 255 
5.41729 7.56029 -0.938181 63 71 136 255 
5.03368 7.0538 -0.944455 61 77 138 255 
4.77002 6.67424 -0.972408 54 92 141 255 
4.47747 6.25348 -0.985259 62 76 138 255 
4.23269 5.90273 -1.00014 56 88 140 255 
3.99187 5.58771 -1.00303 62 76 138 255 
3.8117 5.32942 -1.01902 55 91 141 255 
3.60691 5.03575 -1.02212 59 81 139 255 
3.42176 4.77185 -1.02692 62 73 137 255 
3.28562 4.59235 -1.03636 54 93 141 255 
3.15308 4.40368 -1.04494 58 83 139 255 
3.01315 4.20677 -1.04995 60 80 139 255 
2.89345 4.03657 -1.05838 59 81 139 255 
2.79857 3.90727 -1.06637 60 79 138 255 
2.70778 3.77897 -1.07671 61 77 138 255 
2.59806 3.62458 -1.07805 60 79 138 255 
2.5199 3.51802 -1.09179 61 77 138 255 
2.43386 3.39184 -1.09132 60 80 139 255 
2.34298 3.26504 -1.09035 59 82 139 255 
2.27491 3.17258 -1.10028 61 78 138 255 
2.18839 3.05746 -1.10162 64 70 136 255 
5.88848 8.16944 3.02511 53 95 141 255 
5.83819 8.11435 2.89097 72 33 115 255 
5.83688 8.11865 2.78615 68 58 131 255 
5.85437 8.14263 2.69283 56 89 140 255 
5.48372 7.61628 2.43588 64 69 136 255 
5.934 8.24447 2.52889 60 80 139 255 
5.77708 8.02364 2.36089 72 41 121 255 
5.73417 7.96081 2.24701 62 73 137 255 
5.69535 7.91313 2.15072 54 92 141 255 
5.68962 7.90203 2.04663 51 99 141 255 
5.82397 8.07984 1.99564 55 91 141 255 
7.19829 9.97879 2.34714 66 65 134 255 
5.30139 7.36575 1.65579 66 65 134 255 
5.28776 7.3412 1.56111 68 59 132 255 
6.67619 9.25536 1.85651 59 81 139 255 
5.2987 7.33197 1.3875 56 88 140 255 
6.43411 8.93627 1.59856 55 91 141 255 
17.6384 24.479 4.08474 70 10 93 255 
17.7099 24.5246 3.80545 70 8 92 255 
17.6841 24.452 3.51824 71 14 97 255 
17.6692 24.5405 3.27974 70 8 92 255 
17.7472 24.6029 3.00119 72 20 103 255 
19.472 26.9548 2.97354 71 19 101 255 
19.3452 26.7194 2.64251 71 13 96 255 
20.6619 28.6865 2.55274 71 19 101 255 
20.972 29.0628 2.24855 71 17 100 255 
23.379 32.3275 2.12574 71 16 99 255 
23.579 32.5432 1.76165 69 5 89 255 
32.8493 45.5738 2.02071 69 5 89 255 
23.9422 33.1545 1.08517 72 22 104 255 
23.9699 33.1325 0.699529 70 10 93 255 
23.9826 33.0761 0.320887 69 5 89 255 
17.7438 24.608 -0.00529498 69 5 89 255 
13.8507 19.166 -0.227001 70 11 94 255 
11.5835 15.9995 -0.37237 72 22 104 255 
9.94882 13.711 -0.479101 72 28 110 255 
8.91049 12.3439 -0.552916 72 35 116 255 
8.3151 11.4976 -0.646812 71 42 122 255 
7.16879 9.89816 -0.67259 66 63 133 255 
7.39859 10.1927 -0.812264 66 64 134 255 
6.89995 9.55515 -0.855171 57 85 140 255 
6.29336 8.69565 -0.878731 69 55 129 255 
5.83626 8.04942 -0.908346 68 58 131 255 
5.45948 7.52127 -0.937479 63 72 137 255 
5.08095 7.02842 -0.945214 62 74 137 255 
4.80564 6.63761 -0.971349 55 90 140 255 
4.51459 6.22428 -0.985005 57 85 140 255 
4.26767 5.87505 -0.999865 57 85 140 255 
4.04581 5.59037 -1.00794 57 85 140 255 
3.85244 5.31713 -1.02118 55 91 141 255 
3.63311 5.00713 -1.02081 62 74 137 255 
3.46024 4.76351 -1.02968 62 73 137 255 
3.30624 4.56175 -1.03401 58 84 140 255 
3.17428 4.37631 -1.04305 57 86 140 255 
3.0412 4.19138 -1.05075 62 73 137 255 
2.92908 4.03377 -1.06234 62 73 137 255 
2.8202 3.88687 -1.0655 61 78 138 255 
2.72691 3.75677 -1.07513 59 82 139 255 
2.6214 3.61015 -1.07852 60 79 138 255 
2.51923 3.47189 -1.08225 61 77 138 255 
2.43927 3.35571 -1.08449 59 82 139 255 
2.37261 3.26387 -1.0948 60 80 139 255 
2.28642 3.14766 -1.09648 63 71 136 255 
2.21162 3.05019 -1.10387 66 65 134 255 
10.6091 14.5298 5.40435 72 24 106 255 
5.88844 8.07915 2.89125 70 48 126 255 
5.88829 8.08502 2.78696 57 85 140 255 
5.91446 8.12061 2.6975 62 73 137 255 
5.53206 7.58484 2.43663 54 92 141 255 
5.76781 7.91074 2.43733 59 81 139 255 
5.64623 7.74129 2.28797 56 89 140 255 
5.76797 7.905 2.24121 61 77 138 255 
5.74725 7.88277 2.15202 54 92 141 255 
5.73742 7.86618 2.04643 46 111 142 255 
5.85146 8.01386 1.98817 50 102 142 255 
5.84413 7.99767 1.88955 55 90 140 255 
6.4946 8.90781 2.01135 72 40 120 255 
5.41751 7.42485 1.58594 53 94 141 255 
6.66705 9.12417 1.83837 60 80 139 255 
5.36811 7.33282 1.39386 56 88 140 255 
5.35108 7.3367 1.31827 48 105 142 255 
20.5756 28.1891 4.72482 71 14 97 255 
17.8683 24.4267 3.80719 72 22 104 255 
17.8813 24.4079 3.52762 71 13 96 255 
17.7708 24.365 3.27079 71 14 97 255 
17.8256 24.3947 2.98908 71 17 100 255 
17.8665 24.4153 2.70544 72 22 104 255 
19.5654 26.6774 2.65017 71 16 99 255 
21.0621 28.867 2.58025 71 14 97 255 
21.1276 28.9029 2.24617 72 24 106 255 
37.6332 51.3709 3.39309 70 7 90 255 
37.0588 50.4928 2.74556 70 7 90 255 
0 0 0 69 4 87 255 
0 0 0 68 2 86 255 
0 0 0 68 1 84 255 
0 0 0 68 2 86 255 
18.013 24.6609 -0.00533006 70 7 90 255 
14.046 19.1871 -0.228268 71 13 96 255 
11.6873 15.9362 -0.372558 72 23 105 255 
10.0369 13.6554 -0.479299 72 33 115 255 
8.99255 12.2979 -0.553315 72 38 119 255 
8.38963 11.452 -0.647131 71 42 122 255 
7.43021 10.1277 -0.691273 70 51 127 255 
7.47991 10.1728 -0.814324 66 64 134 255 
6.99613 9.56415 -0.859802 58 83 139 255 
6.37547 8.69626 -0.882729 70 50 126 255 
5.88495 8.01266 -0.908255 69 55 129 255 
5.50376 7.48522 -0.937178 62 73 137 255 
5.14101 7.02037 -0.948356 60 79 138 255 
4.84628 6.60799 -0.971349 54 93 141 255 
4.54037 6.17968 -0.982336 57 86 140 255 
4.29835 5.84157 -0.998637 60 80 139 255 
4.08471 5.57182 -1.0091 58 83 139 255 
3.88149 5.28861 -1.02025 57 85 140 255 
3.64681 4.96169 -1.01609 62 73 137 255 
3.50166 4.75885 -1.03329 62 73 137 255 
3.33766 4.54614 -1.0351 58 83 139 255 
3.19526 4.34883 -1.04115 58 83 139 255 
3.06861 4.17501 -1.05135 60 79 138 255 
2.95609 4.01888 -1.06317 62 73 137 255 
2.84862 3.87578 -1.06724 60 79 138 255 
2.74356 3.73133 -1.07265 58 84 140 255 
2.65041 3.60339 -1.08134 58 84 140 255 
2.53646 3.4509 -1.08053 63 72 137 255 
2.46383 3.34613 -1.08626 57 85 140 255 
2.3926 3.24925 -1.0948 62 76 138 255 
2.30341 3.13047 -1.0954 64 69 136 255 
2.22461 3.02883 -1.10106 65 66 135 255 
10.8535 14.6747 5.48289 72 40 120 255 
5.94361 8.05059 2.89403 68 59 132 255 
5.93093 8.03944 2.78374 72 23 105 255 
10.1905 13.8127 4.60898 72 38 119 255 
5.69985 7.71502 2.48964 72 28 110 255 
5.80759 7.86349 2.43371 46 109 142 255 
5.76009 7.79646 2.31468 62 73 137 255 
5.83896 7.90003 2.24991 59 82 139 255 
5.9243 8.02174 2.19984 62 74 137 255 
6.39792 8.65964 2.26302 65 66 135 255 
5.81948 7.86823 1.96086 53 94 141 255 
7.31377 9.88102 2.34508 71 42 122 255 
5.70872 7.72984 1.75325 72 40 120 255 
6.51784 8.81872 1.89218 57 86 140 255 
6.79749 9.18384 1.85876 67 61 132 255 
5.42595 7.31721 1.3972 44 113 142 255 
6.54035 8.85266 1.59785 54 93 141 255 
6.65724 9.00405 1.516 49 103 142 255 
18.0261 24.3278 3.80894 71 13 96 255 
18.058 24.3345 3.53295 70 8 92 255 
17.8538 24.1659 3.25871 72 20 103 255 
17.9412 24.2393 2.98347 70 11 94 255 
17.5966 23.7395 2.64247 71 17 100 255 
23.5241 31.6659 3.16002 70 7 90 255 
22.5134 30.4618 2.73509 71 14 97 255 
23.0191 31.0884 2.42695 70 10 93 255 
21.3597 28.7848 1.90988 69 5 89 255 
0 0 0 69 4 87 255 
0 0 0 68 2 86 255 
32.5906 43.983 1.45258 69 5 89 255 
20.6661 27.8398 0.593094 70 7 90 255 
20.6819 27.7994 0.272138 69 4 87 255 
18.1973 24.595 -0.00533983 70 7 90 255 
14.204 19.1552 -0.228921 71 14 97 255 
11.6615 15.698 -0.368657 72 23 105 255 
10.133 13.6104 -0.479893 72 32 113 255 
9.0952 12.2794 -0.554985 72 38 119 255 
8.47224 11.4171 -0.648087 72 41 121 255 
7.92578 10.6654 -0.731277 71 47 125 255 
7.40628 9.94425 -0.79965 71 46 124 255 
7.04162 9.50341 -0.85821 60 80 139 255 
6.42633 8.65378 -0.882402 70 50 126 255 
5.92212 7.96042 -0.906436 68 58 131 255 
5.54662 7.44732 -0.936676 64 70 136 255 
5.18517 6.99029 -0.948573 60 79 138 255 
4.88496 6.57574 -0.970996 56 88 140 255 
4.57938 6.1533 -0.982591 55 91 141 255 
4.32286 5.79999 -0.996045 57 85 140 255 
4.12118 5.54983 -1.00968 58 83 139 255 
3.91505 5.26628 -1.02056 60 80 139 255 
3.67955 4.94239 -1.01674 57 85 140 255 
3.51961 4.72227 -1.03002 62 76 138 255 
3.37429 4.53741 -1.0378 57 85 140 255 
3.22188 4.32915 -1.04115 61 78 138 255 
3.093 4.15453 -1.05095 62 76 138 255 
2.98245 4.00302 -1.0638 66 65 134 255 
2.87701 3.8645 -1.06897 61 77 138 255 
2.76582 3.71364 -1.07243 59 82 139 255 
2.66376 3.57537 -1.07782 61 78 138 255 
2.56164 3.44071 -1.08225 63 71 136 255 
2.49588 3.34646 -1.09132 60 80 139 255 
2.41595 3.23915 -1.09638 57 85 140 255 
2.32084 3.11397 -1.09458 63 71 136 255 
2.24258 3.01436 -1.10078 65 68 135 255 
8.8848 11.8599 4.4515 70 51 127 255 
10.6758 14.2762 5.15546 72 40 120 255 
5.94209 7.95197 2.76602 72 40 120 255 
11.1474 14.9174 5.0003 72 31 112 255 
10.3343 13.8099 4.47683 72 27 109 255 
5.75284 7.69017 2.39095 49 104 142 255 
6.00945 8.03042 2.39504 48 106 142 255 
5.81313 7.76496 2.22156 51 99 141 255 
5.78506 7.73345 2.13048 65 68 135 255 
6.01353 8.03572 2.10958 71 46 124 255 
5.78828 7.72644 1.93434 50 101 142 255 
5.99369 7.99451 1.90604 72 38 119 255 
6.68121 8.93142 2.03505 68 59 132 255 
6.91435 9.23611 1.9908 69 55 129 255 
5.45822 7.28056 1.4803 56 89 140 255 
6.47515 8.62103 1.65372 72 35 116 255 
6.51805 8.71015 1.57931 49 103 142 255 
5.40256 7.21405 1.22018 42 119 142 255 
17.8308 23.758 3.7368 71 17 100 255 
17.8357 23.7293 3.46092 70 8 92 255 
17.795 23.7797 3.2213 72 23 105 255 
17.8646 23.8286 2.94635 71 16 99 255 
20.4677 27.2617 3.04845 70 7 90 255 
20.3545 27.051 2.7119 70 7 90 255 
20.3382 27.1684 2.45054 70 8 92 255 
23.3795 31.1733 2.44473 71 19 101 255 
38.0778 50.6618 3.37686 69 4 87 255 
38.1059 50.6056 2.77692 70 7 90 255 
37.8822 50.5673 2.27265 69 5 89 255 
0 0 0 68 2 86 255 
0 0 0 68 1 84 255 
0 0 0 68 2 86 255 
18.3179 24.4428 -0.00533111 70 10 93 255 
14.3171 19.0621 -0.228854 70 11 94 255 
11.7702 15.643 -0.369052 71 19 101 255 
10.1935 13.5176 -0.478819 72 24 106 255 
9.17817 12.2338 -0.555457 72 41 121 255 
8.52473 11.3418 -0.646767 72 38 119 255 
7.99107 10.6165 -0.731277 71 45 123 255 
7.45634 9.88428 -0.798491 71 46 124 255 
7.05251 9.39701 -0.852493 62 73 137 255 
6.45595 8.58312 -0.87922 69 56 130 255 
5.97684 7.93189 -0.907346 66 63 133 255 
5.58681 7.406 -0.935773 60 79 138 255 
5.21901 6.94643 -0.946947 61 77 138 255 
4.90431 6.51787 -0.966876 54 92 141 255 
4.64034 6.15597 -0.987546 56 89 140 255 
4.36016 5.77573 -0.996455 58 84 140 255 
4.16111 5.53235 -1.01112 52 97 141 255 
3.94669 5.24137 -1.02041 59 82 139 255 
3.7205 4.9339 -1.01968 56 88 140 255 
3.54496 4.69587 -1.02899 61 77 138 255 
3.39911 4.51269 -1.0369 58 83 139 255 
3.25843 4.32262 -1.04437 60 80 139 255 
3.11312 4.12843 -1.04916 63 71 136 255 
3.01403 3.99401 -1.0663 62 73 137 255 
2.91066 3.86002 -1.07265 58 84 140 255 
2.79266 3.70205 -1.074 60 79 138 255 
2.68038 3.55197 -1.0757 62 73 137 255 
2.60664 3.45667 -1.09228 62 76 138 255 
2.5082 3.32028 -1.08778 59 82 139 255 
2.43287 3.22042 -1.09507 60 80 139 255 
2.33817 3.09736 -1.09377 63 71 136 255 
2.26797 3.00974 -1.10415 64 69 136 255 
8.87057 11.6908 4.40835 71 46 124 255 
10.7679 14.2166 5.15769 71 42 122 255 
10.8694 14.3613 5.01856 72 35 116 255 
10.3767 13.7097 4.61676 72 20 103 255 
10.3382 13.6397 4.44216 72 41 121 255 
6.04137 7.97339 2.49048 68 59 132 255 
6.05332 7.98642 2.39295 57 85 140 255 
5.83417 7.69419 2.21152 53 95 141 255 
5.80468 7.66123 2.12035 49 103 142 255 
5.88833 7.7686 2.0489 53 95 141 255 
5.79706 7.64 1.92157 50 102 142 255 
5.80382 7.6431 1.83072 61 77 138 255 
6.93491 9.15294 2.09518 59 81 139 255 
6.92564 9.13383 1.97788 66 63 133 255 
6.93415 9.13196 1.86535 57 86 140 255 
7.05516 9.27421 1.78728 59 82 139 255 
5.47146 7.21882 1.31497 46 109 142 255 
5.47128 7.21314 1.22568 42 119 142 255 
5.62361 7.398 1.16901 47 107 142 255 
17.8432 23.4385 3.4344 72 20 103 255 
17.6824 23.3294 3.17493 72 20 103 255 
17.7023 23.3127 2.89595 70 11 94 255 
25.8696 34.0197 3.82182 70 10 93 255 
20.2845 26.6164 2.68076 70 10 93 255 
20.1382 26.5598 2.40675 71 14 97 255 
20.3768 26.8251 2.11349 71 13 96 255 
20.2186 26.5596 1.77856 70 8 92 255 
20.2956 26.6117 1.46709 69 5 89 255 
38.1676 50.302 2.27121 69 5 89 255 
33.9954 44.721 1.49062 69 4 87 255 
18.7042 24.5614 0.528101 71 13 96 255 
17.6635 23.1437 0.228666 69 4 87 255 
17.9409 23.6362 -0.00517909 69 4 87 255 
14.4477 18.9922 -0.229074 70 11 94 255 
11.9247 15.6476 -0.370881 72 22 104 255 
10.2544 13.4262 -0.477801 72 29 111 255 
9.23432 12.1526 -0.554332 72 37 118 255 
8.59476 11.2901 -0.646812 71 45 123 255 
8.05425 10.5649 -0.731112 71 45 123 255 
7.52412 9.84786 -0.799264 71 46 124 255 
7.05692 9.28369 -0.846125 62 74 137 255 
6.49399 8.52432 -0.877262 70 52 128 255 
5.99096 7.84994 -0.90216 69 56 130 255 
5.63578 7.37632 -0.936375 59 82 139 255 
5.27117 6.92693 -0.948681 56 88 140 255 
4.94662 6.49082 -0.967347 57 85 140 255 
4.65455 6.09664 -0.982591 59 82 139 255 
4.40033 5.75517 -0.997546 56 89 140 255 
