ply
format ascii 1.0
comment VTK generated PLY File
obj_info vtkPolyData points and polygons: vtk4.0
element vertex 1175
property float x
property float y
property float z
property uchar red
property uchar green
property uchar blue
property uchar alpha
element face 0
property list uchar int vertex_indices
end_header
-4.64831 0.497687 -1.31757 70 51 127 255 
-4.43269 0.470753 -1.30603 70 52 128 255 
-17.8124 1.95158 5.38277 59 82 139 255 
-17.8405 1.93917 5.18991 58 84 140 255 
-17.8295 1.93152 4.99709 59 82 139 255 
-17.8131 1.9301 4.81099 56 88 140 255 
-17.7964 1.94041 4.6464 62 73 137 255 
-17.8254 1.94067 4.46397 58 84 140 255 
-17.8088 1.94185 4.27771 60 80 139 255 
-17.8005 1.94442 4.1011 62 74 137 255 
-17.7829 1.9358 3.94601 60 80 139 255 
-17.8109 1.94224 3.76581 55 90 140 255 
-17.7898 1.94921 3.58578 52 96 141 255 
-17.7647 1.95304 3.40922 57 86 140 255 
-17.7817 1.93567 3.26347 54 93 141 255 
-17.7692 1.94083 3.08431 53 94 141 255 
-17.7719 1.95352 2.90857 52 96 141 255 
-17.7672 1.96899 2.74179 55 91 141 255 
-17.7526 1.93564 2.59244 51 98 141 255 
-17.763 1.94329 2.41916 51 98 141 255 
-17.7681 1.96251 2.24877 52 96 141 255 
-17.7497 1.97331 2.08216 60 79 138 255 
-17.757 1.93612 1.93731 58 84 140 255 
-17.738 1.94996 1.76543 57 85 140 255 
-17.7396 1.9625 1.59601 59 81 139 255 
-17.7157 1.97891 1.42798 61 78 138 255 
-17.744 1.93783 1.28886 57 86 140 255 
-17.7407 1.95338 1.11977 63 72 137 255 
-17.7394 1.97189 0.951029 66 63 133 255 
-17.7517 1.9892 0.783032 65 66 135 255 
-17.7274 1.94227 0.641457 67 62 133 255 
-17.7339 1.9589 0.473434 67 61 132 255 
-17.6901 1.96953 0.304475 66 63 133 255 
-17.699 1.98953 0.139886 66 64 134 255 
-17.6719 1.93931 -0.00310285 68 59 132 255 
-17.676 1.95875 -0.170721 68 57 131 255 
-17.6879 1.97553 -0.335521 69 55 129 255 
-17.6739 1.99295 -0.503018 70 52 128 255 
-17.6871 1.95033 -0.646267 68 57 131 255 
-17.6627 1.96352 -0.810109 69 56 130 255 
-17.6669 1.97631 -0.978333 70 52 128 255 
-17.6648 1.99504 -1.14648 69 55 129 255 
-17.6569 1.95012 -1.28894 68 57 131 255 
-17.6472 1.96803 -1.45362 71 45 123 255 
-16.8661 1.89567 -1.55058 72 22 104 255 
-14.8596 1.67823 -1.50844 72 29 111 255 
-13.3653 1.48321 -1.4656 72 37 118 255 
-12.1429 1.35634 -1.44831 72 40 120 255 
-11.1075 1.25039 -1.43189 72 41 121 255 
-10.2206 1.15791 -1.41632 69 56 130 255 
-9.54002 1.06375 -1.40207 70 48 126 255 
-8.94089 1.00183 -1.39922 66 64 134 255 
-8.3132 0.937302 -1.38046 65 68 135 255 
-7.78724 0.882232 -1.3706 68 57 131 255 
-7.36694 0.826639 -1.36057 66 63 133 255 
-6.95792 0.783329 -1.35088 66 65 134 255 
-6.58426 0.742366 -1.34446 62 74 137 255 
-6.20909 0.702345 -1.33162 69 53 129 255 
-5.91284 0.666605 -1.32024 63 72 137 255 
-5.64669 0.637705 -1.31611 66 63 133 255 
-5.42032 0.613049 -1.31867 68 57 131 255 
-5.17694 0.583765 -1.3144 69 56 130 255 
-5.02185 0.570588 -1.32122 67 62 133 255 
-4.81482 0.547162 -1.31476 68 57 131 255 
-4.61839 0.523166 -1.30997 69 53 129 255 
-4.42781 0.497728 -1.30547 70 51 127 255 
-17.802 2.06106 5.38335 56 89 140 255 
-17.8283 2.0486 5.18991 55 91 141 255 
-17.8125 2.04033 4.99575 58 83 139 255 
-17.7961 2.03881 4.8097 59 82 139 255 
-17.7832 2.04946 4.64615 62 74 137 255 
-17.8044 2.04901 4.4618 61 78 138 255 
-17.8052 2.05209 4.2798 60 79 138 255 
-17.7882 2.05361 4.1011 64 70 136 255 
-17.7872 2.04678 3.94967 57 85 140 255 
-17.7851 2.04993 3.76293 57 85 140 255 
-17.7785 2.05844 3.58598 52 97 141 255 
-17.7524 2.06201 3.40922 58 84 140 255 
-17.7656 2.04429 3.26275 55 91 141 255 
-17.753 2.04937 3.08363 54 93 141 255 
-17.7567 2.06219 2.90809 55 91 141 255 
-17.7597 2.07854 2.74255 55 91 141 255 
-17.7581 2.04657 2.59503 52 97 141 255 
-17.7389 2.05088 2.41755 50 100 142 255 
-17.7389 2.06955 2.24665 54 92 141 255 
-17.7313 2.08149 2.08146 60 79 138 255 
-17.7458 2.04515 1.93741 57 85 140 255 
-17.7307 2.05933 1.76592 59 82 139 255 
-17.7232 2.07085 1.59566 59 81 139 255 
-17.7003 2.08722 1.42774 62 73 137 255 
-17.7179 2.04507 1.28786 62 74 137 255 
-17.7313 2.06255 1.11996 61 77 138 255 
-17.7111 2.07883 0.950178 66 64 134 255 
-17.7273 2.09668 0.782507 67 61 132 255 
-17.7241 2.05204 0.641781 65 68 135 255 
-17.7036 2.06559 0.472957 66 65 134 255 
-17.6727 2.07745 0.304389 66 64 134 255 
-17.6596 2.09492 0.139674 68 58 131 255 
-17.6646 2.04828 -0.00310372 66 63 133 255 
-17.6775 2.0688 -0.170856 66 64 134 255 
-17.6694 2.08332 -0.335408 68 58 131 255 
-17.6593 2.10112 -0.502962 70 51 127 255 
-17.6648 2.05766 -0.645904 68 59 132 255 
-17.6424 2.07093 -0.809745 67 61 132 255 
-17.6584 2.08514 -0.978553 68 57 131 255 
-17.6215 2.09973 -1.14448 70 52 128 255 
-17.6377 2.05762 -1.28844 69 53 129 255 
-17.6348 2.07627 -1.45362 70 51 127 255 
-16.781 1.99044 -1.54384 72 20 103 255 
-14.8491 1.76938 -1.50844 72 28 110 255 
-13.3431 1.56368 -1.46419 72 36 117 255 
-12.0999 1.42675 -1.44419 72 37 118 255 
-11.0986 1.31841 -1.43176 72 40 120 255 
-10.1946 1.21837 -1.41372 70 52 128 255 
-9.49106 1.11729 -1.39586 70 48 126 255 
-8.89925 1.0525 -1.39368 66 63 133 255 
-8.30729 0.988293 -1.38046 66 64 134 255 
-7.7895 0.930932 -1.37198 69 56 130 255 
-7.35587 0.871133 -1.35949 63 71 136 255 
-6.94518 0.82508 -1.34937 66 64 134 255 
-6.57861 0.782637 -1.34426 68 59 132 255 
-6.19107 0.738808 -1.3287 69 53 129 255 
-5.90379 0.702296 -1.31915 64 70 136 255 
-5.6388 0.671879 -1.3152 69 55 129 255 
-5.38943 0.643072 -1.31209 66 64 134 255 
-5.18289 0.616665 -1.31685 70 48 126 255 
-5.01441 0.60093 -1.32021 68 59 132 255 
-4.80179 0.575546 -1.31214 69 56 130 255 
-4.61222 0.551151 -1.30916 70 50 126 255 
-4.42562 0.525 -1.30575 71 45 123 255 
-17.7776 2.16886 5.37989 58 83 139 255 
-17.7887 2.15472 5.18213 57 86 140 255 
-17.792 2.14867 4.9936 59 82 139 255 
-17.7976 2.1497 4.81359 57 86 140 255 
-17.7808 2.15982 4.64891 62 73 137 255 
-17.8118 2.16067 4.46687 59 81 139 255 
-17.7952 2.16166 4.2805 61 78 138 255 
-17.7762 2.16283 4.10133 62 73 137 255 
-17.7752 2.156 3.94989 59 82 139 255 
-17.7673 2.15842 3.7619 56 89 140 255 
-17.7471 2.16524 3.58224 53 95 141 255 
-17.7394 2.1709 3.40922 55 91 141 255 
-17.7517 2.15314 3.26257 49 103 142 255 
-17.7587 2.16052 3.08686 52 97 141 255 
-17.7466 2.17147 2.90857 52 96 141 255 
-17.7387 2.18651 2.74134 53 94 141 255 
-17.7599 2.15728 2.59718 49 103 142 255 
-17.7319 2.16041 2.41835 50 100 142 255 
-17.717 2.17726 2.24552 53 95 141 255 
-17.7074 2.18891 2.08019 62 73 137 255 
-17.724 2.15292 1.93644 61 77 138 255 
-17.7266 2.16918 1.76681 57 86 140 255 
-17.7043 2.17883 1.59512 63 72 137 255 
-17.7049 2.198 1.42917 60 80 139 255 
-17.7229 2.15591 1.28915 56 88 140 255 
-17.7144 2.17082 1.11971 61 77 138 255 
-17.6931 2.18686 0.949912 68 59 132 255 
-17.6863 2.20195 0.781281 68 59 132 255 
-17.7062 2.16015 0.641601 64 70 136 255 
-17.6896 2.17405 0.47293 69 56 130 255 
-17.6864 2.18917 0.304851 69 56 130 255 
-17.6693 2.20608 0.139854 68 57 131 255 
-17.6577 2.15736 -0.00310477 67 61 132 255 
-17.6546 2.176 -0.17076 67 62 133 255 
-16.7038 2.07346 -0.317313 69 56 130 255 
-17.6322 2.2077 -0.502566 68 58 131 255 
-17.6539 2.16626 -0.645976 68 59 132 255 
-17.6433 2.18086 -0.810382 66 64 134 255 
-17.6473 2.1937 -0.978663 70 52 128 255 
-17.6201 2.20931 -1.14525 69 53 129 255 
-17.6366 2.16726 -1.28931 70 50 126 255 
-17.6385 2.18652 -1.45501 69 53 129 255 
-16.7299 2.08856 -1.54029 72 22 104 255 
-14.829 1.85934 -1.50753 72 28 110 255 
-13.2948 1.64078 -1.45997 72 40 120 255 
-12.0534 1.49632 -1.43972 72 36 117 255 
-11.0953 1.3871 -1.4324 72 36 117 255 
-10.1732 1.27917 -1.41181 69 53 129 255 
-9.44671 1.17088 -1.39037 71 46 124 255 
-8.86517 1.10366 -1.38938 66 64 134 255 
-8.27757 1.03631 -1.37655 67 62 133 255 
-7.78462 0.978833 -1.37215 66 64 134 255 
-7.36601 0.918198 -1.36238 64 70 136 255 
-6.9283 0.866218 -1.3471 66 65 134 255 
-6.53381 0.817996 -1.33611 70 52 128 255 
-6.19612 0.778 -1.33079 69 56 130 255 
-5.89937 0.738508 -1.31915 66 65 134 255 
-5.62587 0.705374 -1.31317 69 55 129 255 
-5.39503 0.677339 -1.31444 67 61 132 255 
-5.17035 0.64737 -1.31464 68 57 131 255 
-4.97319 0.626967 -1.31035 68 58 131 255 
-4.79912 0.605119 -1.3124 66 63 133 255 
-4.60112 0.57848 -1.30699 69 55 129 255 
-4.43374 0.553572 -1.30912 69 55 129 255 
-17.7554 2.2768 5.3773 58 84 140 255 
-17.7932 2.26614 5.18741 56 89 140 255 
-17.79 2.25925 4.99682 57 86 140 255 
-17.7985 2.26069 4.81748 57 85 140 255 
-17.8037 2.27354 4.65846 63 72 137 255 
-17.7982 2.26992 4.46687 58 83 139 255 
-17.7642 2.26859 4.27632 59 81 139 255 
-17.7713 2.27298 4.10334 63 71 136 255 
-17.7694 2.26601 3.95161 58 84 140 255 
-17.7401 2.26567 3.75902 58 83 139 255 
-17.7383 2.27471 3.58323 54 92 141 255 
-17.7306 2.28033 3.41015 57 86 140 255 
-17.7333 2.2614 3.26168 53 95 141 255 
-17.7392 2.2687 3.08584 52 97 141 255 
-17.7388 2.28107 2.90953 52 97 141 255 
-17.7103 2.2934 2.73906 55 91 141 255 
-17.7454 2.26609 2.59704 49 104 142 255 
-17.735 2.27131 2.42063 51 98 141 255 
-17.7102 2.28682 2.2464 52 96 141 255 
-17.7005 2.29841 2.081 60 80 139 255 
-17.7075 2.26125 1.93612 59 82 139 255 
-17.708 2.27727 1.76632 57 86 140 255 
-17.7054 2.28933 1.59646 59 82 139 255 
-17.7158 2.30982 1.43117 62 76 138 255 
-17.7103 2.26475 1.28922 58 83 139 255 
-17.7047 2.27998 1.11996 63 72 137 255 
-17.6863 2.29628 0.950284 65 68 135 255 
-17.6695 2.31005 0.781149 66 64 134 255 
-17.6946 2.269 0.641673 65 66 135 255 
-17.6849 2.28371 0.473169 66 63 133 255 
-17.6796 2.29855 0.304971 66 63 133 255 
-17.6356 2.31186 0.139697 67 62 133 255 
-17.6352 2.26451 -0.0031032 69 56 130 255 
-17.6459 2.28493 -0.170808 66 65 134 255 
-16.6234 2.16713 -0.316032 72 41 121 255 
-17.6144 2.31533 -0.502453 70 52 128 255 
-16.6432 2.14597 -0.609464 70 52 128 255 
-16.5002 2.14244 -0.75847 70 48 126 255 
-17.6384 2.30259 -0.978937 69 55 129 255 
-17.6082 2.31764 -1.14538 69 53 129 255 
-17.6151 2.27441 -1.28873 70 48 126 255 
-17.608 2.29252 -1.45362 70 52 128 255 
-16.6882 2.18742 -1.53766 72 24 106 255 
-14.7957 1.94744 -1.50533 72 27 109 255 
-13.2697 1.7204 -1.45834 72 36 117 255 
-12.0785 1.57474 -1.44384 72 35 116 255 
-10.9646 1.43914 -1.41664 72 32 113 255 
-10.1671 1.34182 -1.41209 70 48 126 255 
-9.46878 1.23265 -1.3947 70 50 126 255 
-8.85333 1.1574 -1.38861 68 58 131 255 
-8.26225 1.08592 -1.37509 68 58 131 255 
-7.76479 1.02478 -1.36974 66 63 133 255 
-7.31927 0.958016 -1.3548 64 69 136 255 
-6.90728 0.906668 -1.34406 65 66 135 255 
-6.52381 0.857433 -1.33511 70 48 126 255 
-6.17669 0.814087 -1.32766 71 47 125 255 
-5.85891 0.769985 -1.31114 65 68 135 255 
-5.61661 0.739245 -1.31205 68 57 131 255 
-5.37535 0.708398 -1.31068 67 61 132 255 
-5.15282 0.677314 -1.31122 70 52 128 255 
-4.94815 0.654678 -1.30478 68 59 132 255 
-4.79245 0.634175 -1.31162 69 56 130 255 
-4.58985 0.605694 -1.30482 70 52 128 255 
-4.44739 0.583012 -1.31418 68 59 132 255 
-17.7439 2.38609 5.37817 56 88 140 255 
-17.7799 2.3754 5.18769 55 90 140 255 
-17.7624 2.36659 4.99306 58 83 139 255 
-17.7785 2.36909 4.81592 56 88 140 255 
-17.7971 2.38377 4.66047 58 84 140 255 
-17.7752 2.37793 4.4647 61 78 138 255 
-17.7471 2.37716 4.27562 60 79 138 255 
-17.7629 2.38276 4.10468 62 76 138 255 
-17.7668 2.37655 3.9542 60 79 138 255 
-17.7366 2.3759 3.76128 56 89 140 255 
-17.7415 2.38586 3.58676 52 96 141 255 
-17.7396 2.39223 3.41465 57 86 140 255 
-17.7239 2.37082 3.26257 53 94 141 255 
-17.7191 2.37671 3.08482 54 92 141 255 
-17.7245 2.38987 2.90953 52 97 141 255 
-17.7253 2.40602 2.74361 53 94 141 255 
-17.7311 2.37493 2.59704 47 107 142 255 
-17.71 2.37863 2.41916 52 97 141 255 
-17.687 2.39425 2.24527 54 92 141 255 
-17.7038 2.40939 2.08308 59 81 139 255 
-17.6953 2.37013 1.93634 60 80 139 255 
-17.6967 2.38628 1.76661 56 89 140 255 
-17.692 2.39806 1.59655 56 88 140 255 
-17.6944 2.41753 1.43061 61 78 138 255 
-17.6872 2.37218 1.28858 57 86 140 255 
-17.6805 2.38724 1.11933 62 74 137 255 
-17.6738 2.40502 0.950391 65 68 135 255 
-17.6511 2.41788 0.780974 68 59 132 255 
-17.6863 2.37833 0.641888 68 57 131 255 
-17.6795 2.39338 0.473408 67 61 132 255 
-17.6364 2.40307 0.304475 68 59 132 255 
-17.5656 2.41241 0.139258 71 46 124 255 
-17.1938 2.31516 -0.00302797 72 32 113 255 
-17.6464 2.39518 -0.170952 66 64 134 255 
-16.6137 2.26963 -0.316107 72 41 121 255 
-17.4959 2.40905 -0.499484 72 29 111 255 
-16.5396 2.23587 -0.606161 71 45 123 255 
-17.5419 2.38723 -0.807013 70 51 127 255 
-17.5973 2.40712 -0.977454 68 57 131 255 
-17.5907 2.42523 -1.14519 70 51 127 255 
-17.5929 2.38138 -1.28815 70 48 126 255 
-17.5887 2.39985 -1.45321 71 42 122 255 
-16.702 2.29357 -1.5402 72 24 106 255 
-14.7726 2.0367 -1.50422 72 28 110 255 
-13.2422 1.79952 -1.4565 72 33 115 255 
-12.0539 1.64681 -1.44207 72 36 117 255 
-10.9683 1.50815 -1.4183 72 31 112 255 
-10.1439 1.40215 -1.41004 69 53 129 255 
-9.44339 1.28832 -1.3921 70 50 126 255 
-8.82746 1.20915 -1.38569 67 62 133 255 
-8.25934 1.13713 -1.37574 68 58 131 255 
-7.73104 1.06862 -1.36492 68 59 132 255 
-7.33664 1.00612 -1.35913 61 77 138 255 
-6.89672 0.948364 -1.34312 67 62 133 255 
-6.49318 0.893971 -1.32994 72 38 119 255 
-6.13379 0.846755 -1.31953 71 46 124 255 
-5.87825 0.809249 -1.31656 65 68 135 255 
-5.62355 0.775291 -1.31475 66 64 134 255 
-5.34394 0.737646 -1.3041 70 52 128 255 
-5.15241 0.709447 -1.3122 68 58 131 255 
-4.94404 0.685027 -1.30478 68 59 132 255 
-4.78942 0.663701 -1.31188 69 56 130 255 
-4.58795 0.634109 -1.30536 70 48 126 255 
-4.41045 0.605719 -1.30434 69 53 129 255 
-17.7432 2.49692 5.38248 57 86 140 255 
-17.7498 2.48232 5.18324 58 83 139 255 
-17.7456 2.47526 4.99253 55 90 140 255 
-17.7665 2.47854 4.8167 55 91 141 255 
-17.7812 2.49279 4.66022 61 78 138 255 
-17.7526 2.48587 4.46277 60 79 138 255 
-17.738 2.48682 4.27702 61 77 138 255 
-17.744 2.49116 4.10378 62 74 137 255 
-17.7412 2.48403 3.95183 57 85 140 255 
-17.7313 2.48605 3.76334 59 82 139 255 
-17.7333 2.49563 3.58814 53 95 141 255 
-17.711 2.49911 3.41203 56 88 140 255 
-17.7305 2.48253 3.26652 54 93 141 255 
-17.6974 2.48443 3.08363 53 94 141 255 
-17.7036 2.49775 2.90857 55 91 141 255 
-17.7141 2.51529 2.74422 52 97 141 255 
-17.7162 2.48368 2.59704 50 102 142 255 
-17.699 2.48781 2.41969 50 101 142 255 
-17.6838 2.5044 2.24677 52 97 141 255 
-17.6877 2.51783 2.08297 60 79 138 255 
-17.6853 2.47935 1.93688 59 81 139 255 
-17.6846 2.49524 1.76691 57 86 140 255 
-17.6809 2.50713 1.5969 57 86 140 255 
-17.6852 2.5269 1.43109 60 79 138 255 
-17.6713 2.48052 1.2885 59 81 139 255 
-17.6606 2.49498 1.11902 62 76 138 255 
-17.6469 2.51173 0.949752 66 65 134 255 
-17.6547 2.52883 0.781806 67 62 133 255 
-17.6565 2.48472 0.641349 64 69 136 255 
-17.6535 2.50027 0.473116 65 66 135 255 
-17.4323 2.4843 0.301208 72 35 116 255 
-16.9645 2.436 0.134608 72 41 121 255 
-16.6743 2.34946 -0.00293896 71 44 122 255 
-16.0928 2.28496 -0.156034 69 55 129 255 
-16.6391 2.37718 -0.316861 70 48 126 255 
-16.4706 2.37094 -0.47062 72 26 108 255 
-16.384 2.3173 -0.600971 70 50 126 255 
-17.5477 2.49778 -0.807969 68 58 131 255 
-17.5031 2.50374 -0.973058 71 46 124 255 
-17.5854 2.53454 -1.14583 70 50 126 255 
-17.5621 2.48705 -1.28699 71 47 125 255 
-17.5381 2.50265 -1.45027 71 44 122 255 
-16.6256 2.38709 -1.53447 71 19 101 255 
-14.6948 2.11793 -1.4976 72 29 111 255 
-13.2348 1.88129 -1.45693 72 35 116 255 
-11.9609 1.70894 -1.43219 72 40 120 255 
-10.9618 1.57585 -1.41868 72 33 115 255 
-10.1302 1.46365 -1.40936 71 46 124 255 
-9.43237 1.34582 -1.39167 70 50 126 255 
-8.79151 1.25923 -1.38124 67 62 133 255 
-8.23073 1.1847 -1.37216 68 58 131 255 
-7.73116 1.11703 -1.36612 69 56 130 255 
-7.34299 1.05293 -1.36148 61 77 138 255 
-6.88397 0.989686 -1.34179 63 71 136 255 
-6.50989 0.937007 -1.33451 71 46 124 255 
-6.143 0.88647 -1.32266 70 51 127 255 
-5.86158 0.843633 -1.31396 65 66 135 255 
-5.61676 0.809504 -1.3143 65 66 135 255 
-5.38068 0.776391 -1.3142 66 63 133 255 
-5.14988 0.741325 -1.31269 67 61 132 255 
-4.9656 0.719094 -1.31161 69 53 129 255 
-4.79099 0.693906 -1.31345 67 61 132 255 
-4.57254 0.660597 -1.30211 69 53 129 255 
-4.4418 0.637817 -1.31475 68 57 131 255 
-17.7256 2.60547 5.38191 57 85 140 255 
-17.7399 2.59202 5.18491 57 85 140 255 
-17.7254 2.58341 4.99119 56 88 140 255 
-17.7539 2.58792 4.81748 57 85 140 255 
-17.7378 2.59778 4.65293 62 76 138 255 
-17.739 2.59504 4.46325 61 78 138 255 
-17.7281 2.59645 4.27841 59 81 139 255 
-17.7246 2.59942 4.10289 62 73 137 255 
-17.717 2.59157 3.94989 60 80 139 255 
-17.7216 2.59565 3.76457 58 84 140 255 
-17.707 2.60283 3.58598 54 92 141 255 
-17.7041 2.60903 3.41371 57 85 140 255 
-17.7091 2.59042 3.26544 53 95 141 255 
-17.7003 2.59569 3.08686 53 94 141 255 
-17.6889 2.60648 2.90873 55 90 140 255 
-17.6944 2.62335 2.74361 53 95 141 255 
-17.6987 2.59205 2.59675 50 101 142 255 
-17.6736 2.59492 2.41835 52 96 141 255 
-17.6681 2.61286 2.24677 50 102 142 255 
-17.668 2.62573 2.0825 61 78 138 255 
-17.6835 2.58983 1.93839 56 88 140 255 
-17.6552 2.60167 1.76553 58 84 140 255 
-17.6661 2.61572 1.59699 59 81 139 255 
-17.6723 2.63581 1.43133 61 77 138 255 
-17.6607 2.58963 1.28886 59 82 139 255 
-17.6647 2.60621 1.12027 61 78 138 255 
-17.641 2.62143 0.950284 66 64 134 255 
-17.6418 2.63755 0.781937 67 61 132 255 
-17.6508 2.59446 0.641709 66 65 134 255 
-17.6468 2.60986 0.473355 65 68 135 255 
-17.4691 2.59901 0.302114 72 40 120 255 
-16.3588 2.45157 0.129919 65 66 135 255 
-16.4805 2.42538 -0.00290737 71 47 125 255 
-16.1023 2.38718 -0.156265 67 61 132 255 
-16.2375 2.42157 -0.309491 69 56 130 255 
-17.4521 2.62164 -0.499117 72 36 117 255 
-16.936 2.50146 -0.621768 71 45 123 255 
-17.5301 2.60511 -0.807878 70 48 126 255 
-17.5328 2.61787 -0.975586 70 51 127 255 
-17.5655 2.6418 -1.14557 69 53 129 255 
-17.5377 2.59345 -1.28634 71 42 122 255 
-17.5273 2.61095 -1.45068 71 44 122 255 
-16.5958 2.48685 -1.53311 72 22 104 255 
-14.6806 2.20791 -1.4975 72 31 112 255 
-13.165 1.95386 -1.45054 72 36 117 255 
-11.9267 1.77878 -1.42936 72 37 118 255 
-10.949 1.64264 -1.4183 72 33 115 255 
-10.1073 1.52372 -1.40745 70 48 126 255 
-9.41024 1.40163 -1.38965 71 46 124 255 
-8.76798 1.31081 -1.37878 67 61 132 255 
-8.20281 1.2321 -1.36874 66 63 133 255 
-7.72708 1.16488 -1.36664 68 57 131 255 
-7.30624 1.09345 -1.35588 61 77 138 255 
-6.86126 1.02943 -1.33857 66 64 134 255 
-6.49626 0.975768 -1.33292 72 41 121 255 
-6.14325 0.92502 -1.32391 69 56 130 255 
-5.85919 0.880018 -1.31461 67 61 132 255 
-5.58663 0.840185 -1.30844 67 61 132 255 
-5.37582 0.809391 -1.3142 66 64 134 255 
-5.14619 0.773054 -1.31293 67 61 132 255 
-4.96779 0.750561 -1.31338 69 56 130 255 
-4.7542 0.718387 -1.30455 69 55 129 255 
-4.54556 0.685198 -1.2956 71 46 124 255 
-4.43021 0.663922 -1.3125 68 58 131 255 
-17.7197 2.71577 5.38507 59 82 139 255 
-17.7465 2.70429 5.19158 57 86 140 255 
-17.7292 2.69516 4.99682 56 89 140 255 
-17.7329 2.69608 4.81618 58 84 140 255 
-17.734 2.70846 4.6562 61 78 138 255 
-17.7217 2.70368 4.46301 62 74 137 255 
-17.7225 2.7068 4.28096 62 76 138 255 
-17.6996 2.7068 4.10088 64 70 136 255 
-17.6998 2.70009 3.94967 62 74 137 255 
-17.7198 2.70655 3.76766 57 86 140 255 
-17.6878 2.71098 3.58539 54 93 141 255 
-17.6819 2.71671 3.41259 56 88 140 255 
-17.6861 2.69799 3.26419 54 92 141 255 
-17.7006 2.70678 3.08975 54 92 141 255 
-17.6863 2.71707 2.91098 54 92 141 255 
-17.679 2.73203 2.74376 53 94 141 255 
-17.6805 2.7003 2.59646 53 95 141 255 
-17.6544 2.70286 2.41795 51 98 141 255 
-17.6566 2.72197 2.2474 53 94 141 255 
-17.6535 2.73439 2.08273 60 80 139 255 
-17.6654 2.69799 1.93817 57 86 140 255 
-17.6635 2.71373 1.76799 56 89 140 255 
-17.6566 2.72513 1.59762 61 78 138 255 
-17.6558 2.7442 1.43133 62 73 137 255 
-17.6583 2.70005 1.28987 57 86 140 255 
-17.6582 2.71607 1.12089 58 83 139 255 
-17.6305 2.73054 0.950603 67 62 133 255 
-17.6273 2.74606 0.782025 66 65 134 255 
-17.6355 2.70287 0.641745 66 63 133 255 
-17.6196 2.71642 0.473063 66 64 134 255 
-17.608 2.7302 0.3048 69 56 130 255 
-16.6823 2.60481 0.132613 72 35 116 255 
-16.1332 2.47549 -0.00284873 71 45 123 255 
-16.4836 2.54717 -0.160114 71 47 125 255 
-16.248 2.52514 -0.309981 70 51 127 255 
-16.8916 2.64351 -0.48354 72 26 108 255 
-16.2714 2.50541 -0.597922 72 35 116 255 
-17.3489 2.68709 -0.800273 71 47 125 255 
-17.5223 2.72632 -0.975915 71 42 122 255 
-17.5421 2.74845 -1.14512 72 36 117 255 
-17.5185 2.70055 -1.28612 71 45 123 255 
-17.5041 2.71738 -1.45011 72 35 116 255 
-16.5832 2.58909 -1.53338 71 19 101 255 
-14.6569 2.29641 -1.49649 72 31 112 255 
-13.138 2.03232 -1.44892 72 36 117 255 
-11.9155 1.85193 -1.42936 72 29 111 255 
-10.9416 1.71025 -1.41868 72 40 120 255 
-10.091 1.58463 -1.40649 70 48 126 255 
-9.36039 1.45297 -1.38358 71 45 123 255 
-8.75685 1.36413 -1.37832 66 64 134 255 
-8.18438 1.28073 -1.36695 68 59 132 255 
-7.7013 1.20937 -1.36337 68 59 132 255 
-7.27801 1.13493 -1.35191 64 69 136 255 
-6.85287 1.07121 -1.33819 67 61 132 255 
-6.49306 1.01606 -1.33352 70 50 126 255 
-6.11427 0.95906 -1.31891 68 57 131 255 
-5.86333 0.917462 -1.31677 65 66 135 255 
-5.57271 0.873091 -1.3064 66 64 134 255 
-5.36307 0.841157 -1.31232 67 61 132 255 
-5.12602 0.802217 -1.30902 68 57 131 255 
-4.93346 0.776366 -1.30554 68 58 131 255 
-4.75733 0.748745 -1.30664 69 56 130 255 
-4.54602 0.713822 -1.29695 70 51 127 255 
-4.41752 0.68976 -1.30997 67 62 133 255 
-17.7094 2.82551 5.38709 57 85 140 255 
-17.7372 2.81434 5.1938 55 90 140 255 
-17.7285 2.80645 5.00139 56 88 140 255 
-17.7274 2.80665 4.81929 56 88 140 255 
-17.7237 2.81829 4.65796 61 77 138 255 
-17.7096 2.81313 4.46422 61 77 138 255 
-17.7007 2.81473 4.2798 60 80 139 255 
-17.6807 2.81505 4.10043 63 71 136 255 
-17.6877 2.80941 3.95075 59 82 139 255 
-17.7 2.81477 3.76704 57 86 140 255 
-17.6786 2.8207 3.58696 53 94 141 255 
-17.6737 2.82655 3.41427 55 91 141 255 
-17.6701 2.80662 3.26437 51 98 141 255 
-17.6837 2.81534 3.08975 52 96 141 255 
-17.7014 2.83068 2.91628 52 96 141 255 
-17.656 2.83951 2.74285 53 94 141 255 
-17.6792 2.81122 2.59876 50 101 142 255 
-17.6463 2.81254 2.41916 51 98 141 255 
-17.6464 2.83136 2.24827 54 92 141 255 
-17.6354 2.8425 2.08262 59 81 139 255 
-17.6514 2.8068 1.93849 59 82 139 255 
-17.6495 2.82253 1.76828 58 84 140 255 
-17.6583 2.83642 1.59931 60 79 138 255 
-17.6484 2.85407 1.43213 59 81 139 255 
-17.6502 2.80976 1.29052 59 81 139 255 
-17.6392 2.82405 1.12077 60 79 138 255 
-17.6075 2.83772 0.950284 66 64 134 255 
-17.6071 2.85369 0.781894 68 58 131 255 
-17.6226 2.81166 0.641888 64 70 136 255 
-17.6095 2.82559 0.473248 67 62 133 255 
-17.6067 2.84074 0.305073 67 61 132 255 
-16.3324 2.65293 0.129958 70 48 126 255 
-16.1108 2.57333 -0.0028475 70 52 128 255 
-16.2791 2.61794 -0.158281 71 47 125 255 
-16.3063 2.63676 -0.311395 68 59 132 255 
-14.2783 2.32438 -0.409132 68 59 132 255 
-14.2763 2.28797 -0.525114 49 103 142 255 
-14.255 2.29755 -0.658197 57 86 140 255 
-14.2428 2.30564 -0.79403 67 62 133 255 
-14.254 2.32297 -0.931391 70 52 128 255 
-14.2823 2.29149 -1.04955 57 85 140 255 
-14.2835 2.30724 -1.18445 60 79 138 255 
-14.2845 2.32008 -1.32212 62 73 137 255 
-14.3312 2.33557 -1.46468 65 68 135 255 
-13.1577 2.11811 -1.45249 72 40 120 255 
-11.9118 1.92627 -1.4303 72 41 121 255 
-10.8986 1.7721 -1.41448 72 33 115 255 
-10.085 1.64716 -1.40704 71 45 123 255 
-9.38647 1.51606 -1.38878 70 52 128 255 
-8.76489 1.42052 -1.38093 66 63 133 255 
-8.16078 1.32839 -1.36434 69 56 130 255 
-7.70637 1.25867 -1.36561 68 57 131 255 
-7.26217 1.17814 -1.35028 65 66 135 255 
-6.82679 1.11008 -1.3344 69 55 129 255 
-6.48283 1.05526 -1.33273 69 55 129 255 
-6.09572 0.994511 -1.3162 68 58 131 255 
-5.85566 0.953108 -1.31634 66 63 133 255 
-5.58167 0.909619 -1.30979 69 56 130 255 
-5.35876 0.874204 -1.31256 67 61 132 255 
-5.12579 0.834434 -1.31024 69 53 129 255 
-4.92288 0.805685 -1.30402 68 58 131 255 
-4.75931 0.779013 -1.30848 68 57 131 255 
-4.55201 0.743409 -1.29994 69 53 129 255 
-4.41321 0.716852 -1.30997 68 59 132 255 
-17.704 2.93615 5.39083 59 82 139 255 
-17.7234 2.92374 5.19491 55 91 141 255 
-17.7071 2.91456 5.00031 57 85 140 255 
-17.7166 2.91647 4.82111 56 89 140 255 
-17.7137 2.92825 4.65997 64 69 136 255 
-17.6978 2.92269 4.46567 59 82 139 255 
-17.6831 2.92328 4.2798 62 74 137 255 
-17.6804 2.92635 4.10445 62 74 137 255 
-17.6981 2.9225 3.957 58 84 140 255 
-17.6911 2.92476 3.76889 57 85 140 255 
-17.6938 2.93457 3.59364 54 92 141 255 
-17.654 2.93462 3.4139 56 88 140 255 
-17.6623 2.91659 3.26616 56 89 140 255 
-17.6641 2.92347 3.08941 55 91 141 255 
-17.6623 2.93568 2.91275 55 91 141 255 
-17.6431 2.94861 2.74361 56 89 140 255 
-17.6665 2.92045 2.59948 52 97 141 255 
-17.66 2.92595 2.42345 49 103 142 255 
-17.6493 2.94301 2.25089 52 97 141 255 
-17.6206 2.95115 2.08297 60 79 138 255 
-17.6211 2.91294 1.93709 58 83 139 255 
-17.6308 2.93061 1.76819 55 91 141 255 
-17.6366 2.94406 1.59895 58 84 140 255 
-17.6335 2.9628 1.43237 61 78 138 255 
-17.6533 2.92143 1.29203 56 89 140 255 
-17.6216 2.93223 1.12077 61 77 138 255 
-17.5986 2.94719 0.950763 67 61 132 255 
-17.6109 2.96532 0.782857 67 61 132 255 
-17.6119 2.92088 0.64214 65 68 135 255 
-17.6155 2.93753 0.473885 67 62 133 255 
-17.582 2.94756 0.304953 70 52 128 255 
-17.2181 2.90533 0.137145 72 36 117 255 
-16.1608 2.68311 -0.0028592 71 45 123 255 
-16.1818 2.70426 -0.157493 72 40 120 255 
-15.9871 2.68591 -0.305609 72 37 118 255 
-14.2815 2.41494 -0.409641 57 86 140 255 
-16.3942 2.73067 -0.60362 68 57 131 255 
-16.5107 2.76514 -0.763115 70 48 126 255 
-17.3576 2.91928 -0.968662 71 45 123 255 
-16.5891 2.80812 -1.08508 72 24 106 255 
-16.7245 2.78869 -1.23025 72 33 115 255 
-16.8207 2.8231 -1.39626 71 19 101 255 
-16.3057 2.75114 -1.51073 72 26 108 255 
-14.5276 2.45916 -1.48626 72 35 116 255 
-13.065 2.18552 -1.44372 72 27 109 255 
-11.8831 1.99653 -1.4283 72 36 117 255 
-10.8846 1.83844 -1.4141 72 38 119 255 
-10.0522 1.70519 -1.4039 72 41 121 255 
-9.37504 1.57329 -1.38849 70 48 126 255 
-8.75016 1.47329 -1.38001 68 58 131 255 
-8.16026 1.37975 -1.36565 66 63 133 255 
-7.67714 1.3023 -1.36182 69 55 129 255 
-7.24898 1.2217 -1.3492 66 65 134 255 
-6.82953 1.15359 -1.3363 69 53 129 255 
-6.47817 1.09534 -1.33312 69 55 129 255 
-6.11265 1.03582 -1.3212 66 64 134 255 
-5.83238 0.98609 -1.31244 68 59 132 255 
-5.58655 0.945639 -1.31227 68 57 131 255 
-5.36767 0.909504 -1.31608 69 56 130 255 
-5.11675 0.865223 -1.30926 70 52 128 255 
-4.92738 0.837497 -1.30655 68 57 131 255 
-4.76586 0.810142 -1.31162 70 52 128 255 
-4.5521 0.772131 -1.30129 69 53 129 255 
-4.39737 0.742002 -1.30659 67 62 133 255 
-17.7102 3.04895 5.39831 57 86 140 255 
-17.7022 3.03195 5.19408 53 95 141 255 
-17.7069 3.02623 5.00541 56 88 140 255 
-17.6869 3.02317 4.818 55 90 140 255 
-17.6983 3.03738 4.66072 62 74 137 255 
-17.69 3.03303 4.46832 61 77 138 255 
-17.6936 3.03666 4.28677 59 81 139 255 
-17.666 3.03544 4.10535 64 69 136 255 
-17.6827 3.03153 3.95764 57 86 140 255 
-17.6805 3.03458 3.77054 58 84 140 255 
-17.6687 3.04192 3.59226 53 95 141 255 
-17.6367 3.04306 3.41409 57 86 140 255 
-17.646 3.02524 3.26652 53 95 141 255 
-17.6468 3.03197 3.08958 54 92 141 255 
-17.6362 3.04266 2.91146 53 94 141 255 
-17.6344 3.0585 2.74513 54 93 141 255 
-17.6551 3.02997 2.60049 49 103 142 255 
-17.6319 3.03257 2.42211 51 98 141 255 
-17.6368 3.05226 2.25164 51 99 141 255 
-17.6041 3.05955 2.0832 60 80 139 255 
-17.6049 3.02135 1.93731 56 88 140 255 
-17.6214 3.04026 1.76907 55 90 140 255 
-17.6084 3.05052 1.59806 59 82 139 255 
-17.6219 3.07214 1.43293 61 77 138 255 
-17.6282 3.02851 1.29153 57 85 140 255 
-17.6062 3.04081 1.12096 61 77 138 255 
-17.5802 3.05511 0.950763 66 64 134 255 
-17.5983 3.07435 0.78312 69 56 130 255 
-17.5995 3.02991 0.642356 67 62 133 255 
-17.6099 3.04778 0.47423 66 63 133 255 
-17.4444 3.03465 0.302884 70 50 126 255 
-16.2612 2.8466 0.12966 70 52 128 255 
-16.2179 2.79496 -0.00287229 72 36 117 255 
-15.9551 2.76711 -0.155449 70 50 126 255 
-15.9683 2.78361 -0.305571 71 45 123 255 
-16.2089 2.84328 -0.465418 72 32 113 255 
-16.2757 2.81368 -0.599882 68 58 131 255 
-16.3605 2.84331 -0.756967 68 59 132 255 
-16.4757 2.87503 -0.920416 71 47 125 255 
-16.2088 2.84617 -1.06133 72 40 120 255 
-16.1509 2.795 -1.18929 70 52 128 255 
-16.1157 2.80656 -1.33915 72 37 118 255 
-14.7464 2.58122 -1.36771 72 27 109 255 
-14.3936 2.52743 -1.47411 72 29 111 255 
-13.0161 2.25952 -1.43981 72 31 112 255 
-11.8403 2.06412 -1.42465 72 33 115 255 
-10.8731 1.90519 -1.4141 72 35 116 255 
-10.022 1.76341 -1.40117 71 45 123 255 
-9.35448 1.62892 -1.3869 69 55 129 255 
-8.72052 1.52338 -1.37678 69 56 130 255 
-8.13415 1.42673 -1.36271 68 58 131 255 
-7.66512 1.3487 -1.36113 69 55 129 255 
-7.26461 1.27022 -1.35353 66 64 134 255 
-6.8349 1.19767 -1.33876 69 55 129 255 
-6.45684 1.13253 -1.33014 70 50 126 255 
-6.10136 1.07246 -1.32016 64 69 136 255 
-5.81948 1.02068 -1.31092 70 51 127 255 
-5.57969 0.979731 -1.31205 68 59 132 255 
-5.36008 0.942086 -1.31561 68 57 131 255 
-5.13045 0.899953 -1.31416 71 46 124 255 
-4.93263 0.869563 -1.30933 68 57 131 255 
-4.74559 0.836688 -1.30743 70 50 126 255 
-4.53022 0.797045 -1.29641 70 51 127 255 
-4.39273 0.768969 -1.30659 68 57 131 255 
-17.7071 3.16042 5.4032 57 86 140 255 
-17.7003 3.14353 5.19908 57 85 140 255 
-17.6956 3.13617 5.00756 54 92 141 255 
-17.6623 3.13062 4.81644 59 81 139 255 
-17.6831 3.14659 4.66173 62 73 137 255 
-17.6692 3.14118 4.46784 62 73 137 255 
-17.6852 3.14705 4.28933 60 80 139 255 
-17.6576 3.14566 4.1078 62 74 137 255 
-17.6522 3.13792 3.95506 60 79 138 255 
-17.6635 3.14335 3.77095 57 86 140 255 
-17.641 3.14872 3.5905 54 93 141 255 
-17.6244 3.15243 3.4154 56 88 140 255 
-17.6358 3.13501 3.26814 56 89 140 255 
-17.6357 3.14157 3.09094 51 99 141 255 
-17.6318 3.15342 2.91387 55 90 140 255 
-17.6231 3.16804 2.74634 54 93 141 255 
-17.6313 3.13738 2.59977 51 99 141 255 
-17.613 3.1407 2.42211 53 95 141 255 
-17.6372 3.16393 2.25414 53 94 141 255 
-17.5918 3.16874 2.08401 61 78 138 255 
-17.6105 3.13367 1.94 58 83 139 255 
-17.622 3.15183 1.77104 57 86 140 255 
-17.5992 3.16027 1.59895 62 76 138 255 
-17.6037 3.18039 1.43301 62 76 138 255 
-17.6122 3.13714 1.29175 59 82 139 255 
-17.5961 3.15036 1.12152 64 69 136 255 
-17.566 3.16381 0.951029 68 59 132 255 
-17.5791 3.18227 0.78312 70 52 128 255 
-17.5914 3.13977 0.642751 63 71 136 255 
-17.5712 3.15224 0.473699 66 64 134 255 
-17.4107 3.13897 0.302627 69 55 129 255 
-16.6616 3.02218 0.132998 72 28 110 255 
-16.1827 2.89125 -0.00286915 72 40 120 255 
-16.2892 2.92811 -0.158876 70 52 128 255 
-14.3137 2.58578 -0.274207 58 83 139 255 
-16.3908 2.97896 -0.471157 69 55 129 255 
-16.3958 2.93817 -0.604963 68 59 132 255 
-16.39 2.95214 -0.759153 69 53 129 255 
-16.3477 2.95617 -0.914261 69 53 129 255 
-16.1852 2.9445 -1.06094 72 40 120 255 
-16.1403 2.89528 -1.1898 70 48 126 255 
-16.0452 2.89583 -1.33474 72 37 118 255 
-13.8485 2.51171 -1.28582 72 29 111 255 
-13.1914 2.39986 -1.35247 72 31 112 255 
-12.9834 2.336 -1.43776 72 37 118 255 
-11.8264 2.13655 -1.42454 72 41 121 255 
-10.8564 1.97099 -1.41347 72 38 119 255 
-10.0266 1.82771 -1.40336 71 42 122 255 
-9.34821 1.68699 -1.38748 69 55 129 255 
-8.68767 1.57264 -1.37309 69 56 130 255 
-8.11262 1.47432 -1.3606 68 58 131 255 
-7.65961 1.39624 -1.36165 70 50 126 255 
-7.20441 1.30531 -1.34378 69 56 130 255 
-6.81872 1.23801 -1.33705 69 53 129 255 
-6.44495 1.17125 -1.32915 70 51 127 255 
-6.07349 1.10602 -1.31557 67 61 132 255 
-5.82944 1.05933 -1.31461 69 56 130 255 
-5.55919 1.01133 -1.30866 68 57 131 255 
-5.33507 0.971475 -1.31091 68 57 131 255 
-5.10098 0.927081 -1.30804 71 46 124 255 
-4.93196 0.900682 -1.3106 70 52 128 255 
-4.72423 0.862843 -1.30298 71 46 124 255 
-4.50441 0.82103 -1.29044 72 41 121 255 
-4.39926 0.797964 -1.30997 67 62 133 255 
-17.6959 3.27058 5.40579 58 84 140 255 
-17.6817 3.25226 5.19936 54 92 141 255 
-17.659 3.24156 5.00273 59 82 139 255 
-17.6561 3.24138 4.82007 59 81 139 255 
-17.6597 3.25433 4.66072 63 72 137 255 
-17.6648 3.25235 4.4717 61 77 138 255 
-17.6636 3.25515 4.28886 59 82 139 255 
-17.6447 3.25518 4.10936 62 73 137 255 
-17.6317 3.246 3.95484 59 82 139 255 
-17.6487 3.25256 3.77198 59 82 139 255 
-17.6252 3.25762 3.59128 54 93 141 255 
-17.6115 3.26176 3.41671 58 84 140 255 
-17.6182 3.24352 3.2685 57 86 140 255 
-17.6228 3.25098 3.09213 53 94 141 255 
-17.6257 3.26406 2.91612 53 95 141 255 
-17.6063 3.27666 2.74679 54 93 141 255 
-17.6127 3.24568 2.59991 50 101 142 255 
-17.607 3.25123 2.42399 54 92 141 255 
-17.6107 3.27082 2.25326 52 97 141 255 
-17.5867 3.27935 2.08575 60 79 138 255 
-17.5987 3.2431 1.94087 58 83 139 255 
-17.614 3.26207 1.77222 58 83 139 255 
-17.6137 3.27456 1.60207 57 85 140 255 
-17.5868 3.28889 1.43325 62 73 137 255 
-17.5848 3.2437 1.29117 58 84 140 255 
-17.5685 3.25682 1.12102 62 73 137 255 
-17.5541 3.273 0.951455 66 65 134 255 
-17.5701 3.2921 0.783602 69 55 129 255 
-17.5601 3.24547 0.64232 66 64 134 255 
-16.3829 3.04294 0.44216 72 36 117 255 
-16.2569 3.03406 0.28289 69 55 129 255 
-16.2821 3.05664 0.130116 71 45 123 255 
-16.2139 2.99959 -0.00287787 72 38 119 255 
-16.1765 3.01044 -0.157954 68 57 131 255 
-14.2799 2.67025 -0.273868 61 77 138 255 
-11.5016 2.16336 -0.330992 72 28 110 255 
-11.5442 2.14194 -0.426428 72 37 118 255 
-11.5723 2.15778 -0.536612 69 55 129 255 
-16.3214 3.05495 -0.913822 72 37 118 255 
-16.1599 3.04246 -1.06049 72 32 113 255 
-16.1202 2.99389 -1.18966 70 50 126 255 
-15.9449 2.97885 -1.32789 72 28 110 255 
-12.0231 2.25692 -1.1176 72 24 106 255 
-12.0178 2.26262 -1.23355 72 33 115 255 
-12.3629 2.30276 -1.37058 72 35 116 255 
-11.7975 2.20616 -1.42265 72 40 120 255 
-10.8411 2.03701 -1.41309 72 41 121 255 
-9.99672 1.88571 -1.40077 72 41 121 255 
-9.32795 1.7425 -1.38603 70 50 126 255 
-8.65358 1.62137 -1.36925 68 58 131 255 
-8.09663 1.52279 -1.35946 69 56 130 255 
-7.6025 1.43408 -1.35303 71 45 123 255 
-7.1779 1.34604 -1.34035 70 51 127 255 
-6.81003 1.27964 -1.33687 70 50 126 255 
-6.42609 1.2086 -1.32676 69 53 129 255 
-6.07332 1.14453 -1.31703 68 59 132 255 
-5.83722 1.09779 -1.31786 68 58 131 255 
-5.55001 1.04488 -1.30798 69 56 130 255 
-5.32519 1.00347 -1.30997 69 53 129 255 
-5.09138 0.957645 -1.30706 68 59 132 255 
-4.92729 0.931106 -1.31085 68 57 131 255 
-4.72169 0.892352 -1.30376 70 51 127 255 
-4.52104 0.852756 -1.29668 71 45 123 255 
-4.39146 0.824411 -1.30912 64 69 136 255 
-17.6595 3.37604 5.4009 59 81 139 255 
-17.6519 3.35889 5.19658 56 88 140 255 
-17.6463 3.35129 5.00487 57 85 140 255 
-17.6529 3.3529 4.82474 58 83 139 255 
-17.6365 3.36209 4.65997 62 73 137 255 
-17.6474 3.36122 4.47243 62 76 138 255 
-17.6433 3.36347 4.28886 62 73 137 255 
-17.6378 3.36594 4.11249 65 68 135 255 
-17.6488 3.36125 3.96324 58 83 139 255 
-17.6284 3.36079 3.77198 57 85 140 255 
-17.6328 3.37105 3.59698 54 93 141 255 
-17.6134 3.37401 3.42102 55 90 140 255 
-17.6076 3.3534 3.27029 54 92 141 255 
-17.6151 3.36145 3.09434 54 93 141 255 
-17.5976 3.37066 2.91483 56 89 140 255 
-17.5878 3.385 2.7471 56 88 140 255 
-17.5905 3.35332 2.59962 51 99 141 255 
-17.5984 3.36144 2.4256 53 94 141 255 
-17.5981 3.38031 2.25426 53 95 141 255 
-17.576 3.38908 2.0869 60 79 138 255 
-17.5941 3.35401 1.94259 57 86 140 255 
-17.5937 3.37008 1.77222 56 89 140 255 
-17.5884 3.38164 1.60162 59 82 139 255 
-17.5682 3.39712 1.4334 62 76 138 255 
-17.5792 3.35434 1.29225 57 86 140 255 
-17.5522 3.3653 1.12127 62 73 137 255 
-17.5592 3.38556 0.952838 66 65 134 255 
-17.5594 3.40175 0.78404 68 58 131 255 
-17.5585 3.35672 0.643003 68 58 131 255 
-17.5597 3.3731 0.474469 67 62 133 255 
-16.882 3.25804 0.29411 70 50 126 255 
-16.1491 3.13439 0.129205 70 52 128 255 
-16.1559 3.0915 -0.00287089 68 58 131 255 
-16.1361 3.10549 -0.157743 69 55 129 255 
-16.2933 3.15033 -0.312846 69 56 130 255 
-16.2117 3.15241 -0.467086 72 24 106 255 
-11.5093 2.20859 -0.42563 64 69 136 255 
-11.501 2.21759 -0.533925 60 79 138 255 
-11.5156 2.22864 -0.6455 60 79 138 255 
-11.5508 2.24817 -0.758911 63 72 137 255 
-11.6175 2.23147 -0.858355 72 23 105 255 
-11.2918 2.18134 -0.941474 72 31 112 255 
-11.1291 2.15989 -1.03572 72 28 110 255 
-11.0583 2.15231 -1.1364 72 37 118 255 
-11.4641 2.20822 -1.27242 72 40 120 255 
-11.3713 2.19876 -1.37286 72 36 117 255 
-10.8031 2.09858 -1.40978 72 37 118 255 
-9.96551 1.94322 -1.39804 71 45 123 255 
-9.31028 1.79839 -1.38502 69 53 129 255 
-8.62213 1.6703 -1.36587 70 50 126 255 
-8.07745 1.57056 -1.35783 68 58 131 255 
-7.60226 1.4824 -1.35458 70 48 126 255 
-7.16854 1.38987 -1.34017 70 48 126 255 
-6.80494 1.32197 -1.33743 70 50 126 255 
-6.41085 1.24651 -1.32517 67 62 133 255 
-6.09882 1.18813 -1.32412 68 59 132 255 
-5.81409 1.13042 -1.31417 71 47 125 255 
-5.55114 1.08041 -1.30979 68 59 132 255 
-5.30939 1.03427 -1.30762 70 50 126 255 
-5.09493 0.990718 -1.30951 69 55 129 255 
-4.90154 0.957427 -1.30554 68 59 132 255 
-4.71991 0.922047 -1.30481 70 48 126 255 
-4.50344 0.878086 -1.29316 71 47 125 255 
-4.38066 0.850244 -1.30744 67 61 132 255 
-17.6676 3.49009 5.40981 54 93 141 255 
-17.6442 3.46973 5.20047 55 90 140 255 
-17.6481 3.46395 5.01132 53 94 141 255 
-17.6368 3.46208 4.82603 58 84 140 255 
-17.6298 3.47304 4.66374 63 72 137 255 
-17.6245 3.46907 4.47195 62 76 138 255 
-17.6328 3.47373 4.29142 61 77 138 255 
-17.634 3.4775 4.11651 63 71 136 255 
-17.648 3.47343 3.96777 58 83 139 255 
-17.6132 3.47002 3.77321 61 78 138 255 
-17.6176 3.48031 3.59816 56 89 140 255 
-17.5991 3.48336 3.42233 57 85 140 255 
-17.5993 3.46384 3.27262 54 93 141 255 
-17.599 3.47042 3.09519 52 97 141 255 
-17.5794 3.47915 2.91531 54 92 141 255 
-17.5773 3.49497 2.74877 56 88 140 255 
-17.5764 3.46253 2.60063 50 101 142 255 
-17.5881 3.47147 2.42707 52 97 141 255 
-17.5818 3.48919 2.25489 52 96 141 255 
-17.5792 3.50172 2.0898 61 77 138 255 
-17.5947 3.46613 1.94496 60 80 139 255 
-17.5639 3.47623 1.77134 58 84 140 255 
-17.5624 3.48853 1.60118 60 79 138 255 
-17.5588 3.50719 1.43436 61 77 138 255 
-17.5554 3.46157 1.29203 55 90 140 255 
-17.5459 3.47585 1.12221 61 77 138 255 
-17.5695 3.49948 0.954541 64 69 136 255 
-17.5362 3.50903 0.783952 67 62 133 255 
-17.5307 3.46304 0.642751 66 63 133 255 
-17.371 3.4475 0.469933 66 63 133 255 
-16.5459 3.29862 0.288603 72 37 118 255 
-16.1561 3.23872 0.129417 70 51 127 255 
-11.6004 2.29367 -0.00206385 67 61 132 255 
-14.2269 2.82867 -0.139245 70 51 127 255 
-16.0276 3.20109 -0.308115 71 46 124 255 
-16.1558 3.24454 -0.46604 72 26 108 255 
-11.4289 2.26595 -0.423162 63 71 136 255 
-11.4588 2.28246 -0.532605 57 86 140 255 
-11.44 2.28692 -0.642038 59 81 139 255 
-11.4644 2.30444 -0.754149 61 78 138 255 
-11.4618 2.27456 -0.847862 68 57 131 255 
-10.5383 2.10293 -0.87971 71 42 122 255 
-10.3638 2.07743 -0.965664 72 31 112 255 
-10.2597 2.06229 -1.0556 72 32 113 255 
-10.5514 2.09963 -1.17252 72 38 119 255 
-10.487 2.0946 -1.26763 72 40 120 255 
-10.3631 2.07917 -1.354 72 33 115 255 
-9.94757 2.00316 -1.39722 71 42 122 255 
-9.28549 1.85277 -1.383 71 47 125 255 
-8.62237 1.72531 -1.36756 70 51 127 255 
-8.0696 1.62048 -1.35816 66 65 134 255 
-7.6133 1.5331 -1.3582 69 55 129 255 
-7.19363 1.44059 -1.34649 69 56 130 255 
-6.79093 1.36254 -1.3363 70 50 126 255 
-6.39636 1.28447 -1.32378 70 48 126 255 
-6.09238 1.22573 -1.32432 67 62 133 255 
-5.78311 1.16127 -1.30876 67 62 133 255 
-5.5425 1.11406 -1.30934 69 55 129 255 
-5.30485 1.06721 -1.30809 70 50 126 255 
-5.09826 1.02387 -1.31195 68 57 131 255 
-4.89178 0.986719 -1.30453 69 53 129 255 
-4.71322 0.950799 -1.30455 70 48 126 255 
-4.48287 0.902662 -1.28882 70 50 126 255 
-4.35843 0.873712 -1.30238 68 57 131 255 
-17.6496 3.59919 5.41096 57 86 140 255 
-17.6357 3.58061 5.20436 53 94 141 255 
-17.6379 3.57447 5.01454 56 88 140 255 
-17.618 3.57081 4.82681 60 79 138 255 
-17.6252 3.58463 4.66826 63 71 136 255 
-17.6086 3.5783 4.4734 61 78 138 255 
-17.6207 3.5838 4.29374 59 81 139 255 
-17.6257 3.58836 4.11963 62 73 137 255 
-17.5996 3.57621 3.96174 60 79 138 255 
-17.6222 3.58427 3.77979 59 82 139 255 
-17.6094 3.59109 3.60091 55 90 140 255 
-17.5812 3.59206 3.42308 59 82 139 255 
-17.5767 3.57157 3.27244 55 91 141 255 
-17.5812 3.57913 3.09587 55 91 141 255 
-17.5781 3.5911 2.91869 52 97 141 255 
-17.572 3.60614 2.75134 55 90 140 255 
-17.5897 3.57741 2.6058 51 99 141 255 
-17.582 3.58248 2.42922 52 96 141 255 
-17.5834 3.60179 2.25788 53 94 141 255 
-17.571 3.61231 2.09142 61 78 138 255 
-17.5789 3.57521 1.94561 58 84 140 255 
-17.5452 3.58454 1.77163 60 80 139 255 
-17.5417 3.59642 1.60127 59 81 139 255 
-17.5487 3.61728 1.43532 63 72 137 255 
-17.5368 3.56982 1.29225 58 84 140 255 
-17.5281 3.58424 1.12246 60 79 138 255 
-17.5535 3.60843 0.95486 66 64 134 255 
-17.5398 3.62182 0.785091 68 59 132 255 
-17.4973 3.56814 0.64232 68 57 131 255 
-16.8148 3.44449 0.45545 69 55 129 255 
-17.1228 3.52299 0.299036 70 51 127 255 
-16.6049 3.43482 0.133179 72 36 117 255 
-11.5959 2.3668 -0.0020656 60 80 139 255 
-11.5576 2.37177 -0.113261 59 82 139 255 
-15.9919 3.29614 -0.307814 72 26 108 255 
-16.0681 3.32961 -0.46409 71 19 101 255 
-11.3932 2.33163 -0.422363 62 76 138 255 
-11.3956 2.34267 -0.530328 58 84 140 255 
-11.4023 2.35223 -0.640719 60 80 139 255 
-11.4422 2.37312 -0.753634 59 81 139 255 
-11.4085 2.33684 -0.844967 68 58 131 255 
-10.204 2.10142 -0.852867 69 56 130 255 
-9.62337 1.9905 -0.897793 72 35 116 255 
-9.54637 1.97992 -0.983444 72 37 118 255 
-9.77683 2.00794 -1.0878 72 41 121 255 
-9.68711 1.99673 -1.1724 72 38 119 255 
-9.6887 2.00578 -1.26747 72 38 119 255 
-9.67224 2.00955 -1.36025 72 37 118 255 
-9.24099 1.90293 -1.37808 71 45 123 255 
-8.6184 1.77958 -1.36864 70 52 128 255 
-8.03825 1.66556 -1.35457 68 59 132 255 
-7.60086 1.57919 -1.35768 70 51 127 255 
-7.21259 1.49048 -1.35173 68 58 131 255 
-6.7709 1.40179 -1.33402 71 46 124 255 
-6.40851 1.32787 -1.32795 68 57 131 255 
-6.06463 1.25891 -1.31995 70 51 127 255 
-5.78161 1.19792 -1.31006 69 56 130 255 
-5.52697 1.14627 -1.30731 70 52 128 255 
-5.26109 1.09204 -1.29893 71 44 122 255 
-5.09093 1.05494 -1.31171 70 51 127 255 
-4.86291 1.01199 -1.29846 69 55 129 255 
-4.66478 0.970852 -1.29276 71 47 125 255 
-4.48667 0.93211 -1.29153 71 47 125 255 
-4.33983 0.897716 -1.29844 69 56 130 255 
-17.6281 3.70762 5.41125 60 80 139 255 
-17.6238 3.69092 5.20741 56 88 140 255 
-17.6382 3.68736 5.02098 58 84 140 255 
-17.6043 3.68062 4.82915 59 81 139 255 
-17.6124 3.69469 4.67077 62 74 137 255 
-17.5949 3.68807 4.47557 62 73 137 255 
-17.5917 3.69045 4.29211 61 78 138 255 
-17.6158 3.69904 4.12254 62 73 137 255 
-17.5973 3.68834 3.96626 62 76 138 255 
-17.5951 3.69133 3.77876 57 86 140 255 
-17.5716 3.69584 3.59776 56 88 140 255 
-17.5742 3.70311 3.42608 56 88 140 255 
-17.5545 3.67935 3.27244 57 86 140 255 
-17.5686 3.68896 3.09757 53 95 141 255 
-17.5644 3.70072 2.92013 54 92 141 255 
-17.5486 3.71368 2.75119 56 89 140 255 
-17.5723 3.68629 2.60652 53 95 141 255 
-17.5743 3.69336 2.43123 49 104 142 255 
-17.5736 3.71227 2.2595 54 93 141 255 
-17.5544 3.7213 2.09211 62 73 137 255 
-17.5732 3.68647 1.94744 58 83 139 255 
-17.5326 3.69418 1.77262 57 86 140 255 
-17.5417 3.70873 1.60332 57 85 140 255 
-17.5408 3.728 1.43652 60 79 138 255 
-17.535 3.68166 1.29376 56 88 140 255 
-17.5165 3.69399 1.12315 59 82 139 255 
-17.5408 3.71814 0.955392 65 66 135 255 
-17.5241 3.73083 0.785397 66 65 134 255 
-17.4966 3.67996 0.643111 65 68 135 255 
-16.6055 3.50793 0.450357 69 55 129 255 
-16.7018 3.54333 0.292058 71 47 125 255 
-11.6291 2.48005 0.0933907 59 81 139 255 
-11.4912 2.41896 -0.00204954 54 93 141 255 
-11.5115 2.43601 -0.112953 58 84 140 255 
-11.635 2.47265 -0.22424 66 63 133 255 
-11.6191 2.48214 -0.336024 71 46 124 255 
-11.3552 2.39654 -0.421492 59 82 139 255 
-11.3791 2.41213 -0.530237 57 86 140 255 
-11.4121 2.42734 -0.642093 58 84 140 255 
-11.4362 2.44517 -0.754213 58 84 140 255 
-11.392 2.40638 -0.844822 63 72 137 255 
-10.1675 2.15902 -0.850909 70 48 126 255 
-9.01492 1.92241 -0.842113 70 48 126 255 
-8.86464 1.89534 -0.914396 72 35 116 255 
-9.14871 1.93752 -1.01921 72 37 118 255 
-9.09575 1.93309 -1.10224 72 40 120 255 
-9.0127 1.92358 -1.18056 72 35 116 255 
-9.04074 1.93628 -1.27309 71 42 122 255 
-9.17204 1.94747 -1.36956 70 52 128 255 
-8.53676 1.81741 -1.35742 71 44 122 255 
-8.00761 1.71052 -1.35115 70 52 128 255 
-7.59006 1.62559 -1.35751 71 44 122 255 
-7.16772 1.52712 -1.34505 67 61 132 255 
-6.75257 1.44126 -1.33213 69 53 129 255 
-6.3897 1.36492 -1.32577 68 57 131 255 
-6.07688 1.3004 -1.32432 70 51 127 255 
-5.7942 1.23765 -1.31461 67 62 133 255 
-5.5227 1.18077 -1.30798 70 51 127 255 
-5.24858 1.12308 -1.29752 71 47 125 255 
-5.06635 1.08231 -1.30706 69 56 130 255 
-4.84904 1.04018 -1.29644 69 53 129 255 
-4.66912 1.00168 -1.29565 70 48 126 255 
-4.5044 0.964661 -1.29831 72 41 121 255 
-4.32485 0.922327 -1.29563 68 57 131 255 
-17.6013 3.8149 5.4101 59 82 139 255 
-17.6092 3.80081 5.20991 58 84 140 255 
-17.62 3.79653 5.02232 56 89 140 255 
-17.6314 3.79936 4.84289 55 90 140 255 
-17.6092 3.80698 4.67605 63 72 137 255 
-17.6099 3.80416 4.48523 61 77 138 255 
-17.5897 3.80284 4.29722 62 74 137 255 
-17.5946 3.80747 4.12298 66 65 134 255 
-17.5877 3.79913 3.96928 60 80 139 255 
-17.5712 3.79901 3.77856 59 81 139 255 
-17.5688 3.80795 3.60189 55 91 141 255 
-17.5627 3.81338 3.42833 59 81 139 255 
-17.5402 3.78886 3.27406 54 92 141 255 
-17.5601 3.79982 3.10012 53 95 141 255 
-17.55 3.81031 2.92158 53 94 141 255 
-17.5293 3.82213 2.7518 57 86 140 255 
-17.5416 3.79237 2.60537 54 93 141 255 
-17.5513 3.80112 2.43123 53 95 141 255 
-17.534 3.81645 2.25738 52 96 141 255 
-17.536 3.83 2.09269 61 77 138 255 
-17.5512 3.79444 1.94755 61 78 138 255 
-17.529 3.80591 1.77459 59 81 139 255 
-17.5215 3.81693 1.60358 59 81 139 255 
-17.5322 3.83875 1.43772 60 80 139 255 
-17.5404 3.7953 1.29585 57 85 140 255 
-17.5218 3.80755 1.12496 59 81 139 255 
-17.5138 3.82484 0.955179 65 68 135 255 
-17.4696 3.83144 0.783996 67 61 132 255 
-16.8027 3.64182 0.618416 68 59 132 255 
-16.57 3.60678 0.449985 66 63 133 255 
-16.5068 3.60795 0.28903 70 48 126 255 
-11.5766 2.54321 0.0930923 54 92 141 255 
-11.4458 2.48285 -0.00204413 66 64 134 255 
-7.49262 1.63365 -0.073616 51 98 141 255 
-7.50585 1.64332 -0.14485 66 64 134 255 
-16.0992 3.54265 -0.46621 72 40 120 255 
-11.2876 2.4547 -0.419532 70 48 126 255 
-11.366 2.48233 -0.530328 56 89 140 255 
-11.394 2.49668 -0.641928 63 72 137 255 
-11.4161 2.51422 -0.753891 61 77 138 255 
-11.3829 2.47751 -0.845256 60 79 138 255 
-10.1356 2.21732 -0.849358 71 47 125 255 
-8.75784 1.92384 -0.819186 68 57 131 255 
-8.36313 1.84184 -0.863813 70 48 126 255 
-8.57429 1.87091 -0.956482 69 55 129 255 
-8.48034 1.85676 -1.02903 70 48 126 255 
-8.42723 1.85276 -1.10533 71 45 123 255 
-8.42697 1.85898 -1.18824 71 45 123 255 
-8.56253 1.87303 -1.28024 70 50 126 255 
-8.50615 1.86552 -1.35434 71 42 122 255 
-7.98637 1.75729 -1.34936 71 42 122 255 
-7.52511 1.66003 -1.34769 71 44 122 255 
-7.13611 1.56622 -1.3409 67 61 132 255 
-6.73305 1.48035 -1.33005 70 50 126 255 
-6.36685 1.40094 -1.32278 67 62 133 255 
-6.03822 1.33092 -1.31766 71 47 125 255 
-5.79794 1.2757 -1.31721 69 56 130 255 
-5.50583 1.21254 -1.30573 69 55 129 255 
-5.24634 1.15631 -1.29869 69 55 129 255 
-5.0473 1.11066 -1.30388 70 51 127 255 
-4.85673 1.07305 -1.30023 70 48 126 255 
-4.66005 1.02969 -1.29486 71 46 124 255 
-4.489 0.990208 -1.2956 72 38 119 255 
-4.32473 0.950081 -1.29731 68 57 131 255 
-17.6047 3.92888 5.41844 58 83 139 255 
-17.5931 3.91045 5.21214 58 83 139 255 
-17.5954 3.90436 5.02205 57 86 140 255 
-17.6191 3.90998 4.846 59 82 139 255 
-17.5818 3.91412 4.67504 64 69 136 255 
-17.5919 3.9134 4.48668 61 78 138 255 
-17.5717 3.91197 4.29862 61 78 138 255 
-17.5757 3.91642 4.1241 63 71 136 255 
-17.5736 3.9091 3.97143 59 82 139 255 
-17.5781 3.91356 3.78514 59 82 139 255 
-17.5518 3.91718 3.60326 55 91 141 255 
-17.5447 3.92235 3.42945 59 81 139 255 
-17.5474 3.90325 3.2798 53 95 141 255 
-17.5461 3.90964 3.10182 55 90 140 255 
-17.5369 3.92029 2.92334 52 97 141 255 
-17.5287 3.93481 2.75544 53 94 141 255 
-17.5228 3.901 2.60609 53 95 141 255 
-17.5363 3.91068 2.43244 52 97 141 255 
-17.5054 3.92288 2.25676 56 88 140 255 
-17.5142 3.93796 2.09293 63 72 137 255 
-17.5266 3.90185 1.94744 57 86 140 255 
