ply
format ascii 1.0
comment VTK generated PLY File
obj_info vtkPolyData points and polygons: vtk4.0
element vertex 1162
property float x
property float y
property float z
property uchar red
property uchar green
property uchar blue
property uchar alpha
element face 0
property list uchar int vertex_indices
end_header
9.60616 -3.78221 0.827017 40 124 142 255 
9.637 -3.76696 0.747132 32 147 140 255 
9.62584 -3.77244 0.648643 32 146 140 255 
9.62347 -3.78304 0.550963 38 130 142 255 
9.6338 -3.79697 0.453922 40 124 142 255 
9.64894 -3.7755 0.372689 34 140 141 255 
9.62796 -3.77714 0.274437 44 115 142 255 
9.64621 -3.79392 0.177311 51 98 141 255 
9.6619 -3.81193 0.0815785 41 123 142 255 
9.66663 -3.78437 -0.00181183 39 127 142 255 
6.43244 -2.5261 -0.0663398 62 73 137 255 
9.6818 -3.81182 -0.196156 42 118 142 255 
6.26446 -2.47406 -0.190487 44 113 142 255 
6.25867 -2.45397 -0.244156 41 122 142 255 
6.26435 -2.46261 -0.306831 41 121 142 255 
6.2699 -2.46978 -0.370859 41 122 142 255 
6.2786 -2.48091 -0.435383 39 128 142 255 
6.28959 -2.46736 -0.49022 35 136 142 255 
6.25372 -2.46096 -0.550165 41 122 142 255 
6.26132 -2.47019 -0.614935 39 128 142 255 
6.28671 -2.48411 -0.681857 41 123 142 255 
6.3038 -2.47673 -0.738164 36 134 142 255 
6.29158 -2.47712 -0.801492 35 138 141 255 
6.28213 -2.47967 -0.865183 37 132 142 255 
6.28172 -2.48467 -0.930161 38 129 142 255 
6.26866 -2.46671 -0.983953 58 83 139 255 
6.28065 -2.47535 -1.04991 50 101 142 255 
6.22284 -2.45752 -1.10401 63 72 137 255 
5.96681 -2.36011 -1.12219 56 89 140 255 
5.71057 -2.2517 -1.12662 52 96 141 255 
5.4598 -2.15514 -1.13246 56 88 140 255 
5.21664 -2.06015 -1.13805 57 86 140 255 
5.00975 -1.98055 -1.148 58 84 140 255 
4.81341 -1.90085 -1.14825 54 93 141 255 
4.63352 -1.83085 -1.15388 55 90 140 255 
4.44102 -1.75564 -1.15442 65 66 135 255 
4.27018 -1.68644 -1.15833 64 69 136 255 
4.11905 -1.6308 -1.15809 60 80 139 255 
3.99582 -1.5821 -1.16603 62 73 137 255 
3.85044 -1.52295 -1.16701 64 70 136 255 
3.7136 -1.46514 -1.16966 65 68 135 255 
8.28862 -3.30202 2.68017 71 45 123 255 
12.7392 -5.06239 3.96446 68 57 131 255 
12.7075 -5.04452 3.80962 57 86 140 255 
14.4484 -5.73594 4.17409 72 27 109 255 
16.4021 -6.52434 4.58159 72 36 117 255 
14.6999 -5.84449 3.93829 72 38 119 255 
14.8518 -5.90773 3.81668 72 29 111 255 
14.5568 -5.79363 3.5883 72 22 104 255 
9.61882 -3.82417 2.28342 48 106 142 255 
9.63964 -3.83455 2.18054 47 107 142 255 
9.60259 -3.82553 2.07108 48 106 142 255 
9.61674 -3.83526 1.975 49 104 142 255 
9.59138 -3.81326 1.8832 58 84 140 255 
9.61185 -3.82544 1.78505 39 128 142 255 
9.62193 -3.83713 1.68519 37 133 142 255 
9.63508 -3.8523 1.59156 36 134 142 255 
9.62216 -3.82744 1.50331 38 130 142 255 
9.62085 -3.83096 1.40196 38 130 142 255 
9.637 -3.84899 1.30543 37 133 142 255 
9.65408 -3.8638 1.21235 34 139 141 255 
9.63955 -3.83436 1.12516 39 126 142 255 
9.64095 -3.84481 1.02685 36 134 142 255 
9.64316 -3.8534 0.928624 33 143 141 255 
9.62904 -3.85962 0.831009 35 136 142 255 
9.65818 -3.84372 0.750589 34 140 141 255 
9.66277 -3.85547 0.652713 31 150 139 255 
9.64921 -3.86168 0.553783 33 144 141 255 
9.66781 -3.87908 0.456637 35 138 141 255 
9.67201 -3.85313 0.374486 32 146 140 255 
9.65195 -3.85506 0.27579 35 138 141 255 
9.65709 -3.86679 0.177944 34 141 141 255 
9.66245 -3.88084 0.0817827 38 129 142 255 
9.69153 -3.86286 -0.0018209 32 146 140 255 
9.68884 -3.87371 -0.100167 35 137 142 255 
9.6972 -3.88678 -0.196947 34 139 141 255 
6.25843 -2.51618 -0.19077 46 111 142 255 
6.26484 -2.50085 -0.24499 41 123 142 255 
6.25468 -2.50323 -0.307104 42 119 142 255 
6.26482 -2.5123 -0.371463 38 129 142 255 
6.26326 -2.51938 -0.435383 39 128 142 255 
6.27896 -2.50775 -0.490582 38 130 142 255 
6.25608 -2.50632 -0.551716 44 115 142 255 
6.24327 -2.50745 -0.614662 49 104 142 255 
6.26304 -2.5193 -0.680954 53 95 141 255 
6.28387 -2.51352 -0.737622 42 120 142 255 
6.27534 -2.51531 -0.801375 46 109 142 255 
6.26772 -2.51854 -0.86531 47 107 142 255 
6.27003 -2.52465 -0.930706 41 123 142 255 
6.27728 -2.51469 -0.987711 54 92 141 255 
6.2791 -2.51936 -1.05222 52 97 141 255 
6.22687 -2.50339 -1.10743 64 69 136 255 
5.9513 -2.39631 -1.12201 56 88 140 255 
5.71217 -2.29293 -1.12969 53 95 141 255 
5.44738 -2.18896 -1.13265 55 91 141 255 
5.19845 -2.08993 -1.13685 54 92 141 255 
5.01293 -2.01746 -1.15154 59 82 139 255 
4.82158 -1.93836 -1.15302 53 95 141 255 
4.63576 -1.8647 -1.15726 55 90 140 255 
4.44278 -1.78793 -1.15771 63 71 136 255 
4.26605 -1.71515 -1.16004 62 74 137 255 
4.12871 -1.664 -1.16366 59 82 139 255 
3.9923 -1.60911 -1.16786 62 76 138 255 
3.83299 -1.54331 -1.16457 64 69 136 255 
3.71434 -1.49183 -1.17276 64 69 136 255 
8.21584 -3.33158 2.66319 60 80 139 255 
12.8495 -5.19773 4.00863 63 71 136 255 
12.7085 -5.13539 3.81928 68 57 131 255 
14.5598 -5.88383 4.21662 68 58 131 255 
16.0227 -6.48754 4.48662 71 42 122 255 
16.2271 -6.56728 4.35816 67 61 132 255 
14.8161 -5.99911 3.81692 72 36 117 255 
14.4378 -5.84917 3.56776 71 47 125 255 
9.58612 -3.87946 2.28127 48 105 142 255 
9.62682 -3.89803 2.18301 46 109 142 255 
9.60892 -3.89654 2.07756 50 101 142 255 
9.61852 -3.90454 1.98025 48 106 142 255 
9.69274 -3.9226 1.90779 51 98 141 255 
9.62473 -3.89914 1.79186 31 150 139 255 
9.63296 -3.91021 1.69129 31 150 139 255 
9.6314 -3.91955 1.59489 32 146 140 255 
9.65629 -3.90981 1.51237 31 156 137 255 
9.62747 -3.90221 1.40639 33 145 140 255 
9.64721 -3.92188 1.31005 31 150 139 255 
9.65686 -3.93383 1.21571 31 150 139 255 
9.65178 -3.90799 1.12937 38 130 142 255 
9.64668 -3.91588 1.03 30 155 138 255 
9.6424 -3.92188 0.930851 31 154 138 255 
9.64209 -3.9337 0.834203 32 146 140 255 
9.66585 -3.91564 0.753038 30 155 138 255 
9.65557 -3.92145 0.65384 31 162 135 255 
9.65123 -3.93136 0.555272 31 154 138 255 
9.66695 -3.94777 0.457732 31 148 140 255 
9.67783 -3.92442 0.375636 31 152 139 255 
9.66886 -3.93077 0.276957 31 152 139 255 
9.673 -3.9422 0.178679 31 150 139 255 
9.67178 -3.95367 0.0820654 31 162 135 255 
9.68711 -3.93015 -0.00182457 31 153 138 255 
9.68433 -3.94101 -0.100369 31 150 139 255 
9.67595 -3.94734 -0.197004 33 143 141 255 
6.24935 -2.55718 -0.190968 45 113 142 255 
6.24568 -2.53773 -0.244845 39 128 142 255 
6.24383 -2.54345 -0.307332 37 132 142 255 
6.25391 -2.55258 -0.371738 39 126 142 255 
6.25507 -2.56079 -0.435898 41 123 142 255 
6.25606 -2.54323 -0.490003 42 118 142 255 
6.24982 -2.54843 -0.552532 38 129 142 255 
6.24805 -2.554 -0.616664 41 122 142 255 
6.25851 -2.5622 -0.682159 44 114 142 255 
6.26096 -2.54903 -0.736755 39 127 142 255 
6.27266 -2.55902 -0.803023 37 132 142 255 
6.27326 -2.56559 -0.868232 41 123 142 255 
6.25259 -2.56232 -0.930434 45 112 142 255 
6.27273 -2.55765 -0.989445 51 99 141 255 
6.29005 -2.56867 -1.05667 50 101 142 255 
6.20956 -2.5408 -1.1071 62 74 137 255 
5.93648 -2.43278 -1.12201 57 85 140 255 
5.70163 -2.32942 -1.13041 54 93 141 255 
5.44657 -2.22755 -1.1353 53 94 141 255 
5.2082 -2.13107 -1.14182 53 94 141 255 
4.99864 -2.04744 -1.15112 58 83 139 255 
4.82134 -1.97272 -1.15583 53 94 141 255 
4.61972 -1.89127 -1.15613 55 90 140 255 
4.42993 -1.81442 -1.15724 64 69 136 255 
4.2689 -1.7468 -1.16371 61 78 138 255 
4.13095 -1.69444 -1.1672 61 78 138 255 
3.97699 -1.63138 -1.16629 63 72 137 255 
3.82256 -1.56643 -1.1643 61 78 138 255 
3.70245 -1.5135 -1.17191 64 70 136 255 
14.5358 -5.99847 4.72366 72 22 104 255 
12.7001 -5.22821 3.97196 69 53 129 255 
12.6847 -5.21656 3.8217 66 64 134 255 
16.6117 -6.83191 4.82292 72 40 120 255 
14.4236 -5.94335 4.04899 71 47 125 255 
16.2 -6.67227 4.36178 70 52 128 255 
14.556 -5.99801 3.75932 68 59 132 255 
16.8006 -6.9267 4.16205 72 31 112 255 
9.63257 -3.96721 2.29807 49 103 142 255 
9.64072 -3.97269 2.19165 46 110 142 255 
9.64012 -3.97824 2.08954 50 101 142 255 
9.63705 -3.98111 1.98905 50 101 142 255 
9.64938 -3.97414 1.90402 59 82 139 255 
9.62704 -3.96902 1.79679 31 148 140 255 
9.62794 -3.97715 1.69466 31 151 139 255 
9.61721 -3.98273 1.59656 32 146 140 255 
9.64584 -3.97464 1.51452 31 158 137 255 
9.61525 -3.96612 1.40813 30 155 138 255 
9.62938 -3.98365 1.31092 31 149 139 255 
9.6353 -3.99415 1.21606 31 149 139 255 
9.64049 -3.97244 1.13088 32 146 140 255 
9.63535 -3.98031 1.03138 31 154 138 255 
9.63011 -3.98592 0.932009 31 150 139 255 
9.6325 -3.9989 0.835481 32 147 140 255 
9.66285 -3.98362 0.754694 31 156 137 255 
9.63963 -3.98405 0.654403 31 149 139 255 
9.64998 -4.00006 0.556603 32 146 140 255 
9.65546 -4.01238 0.458345 35 137 142 255 
9.66465 -3.9883 0.376067 31 150 139 255 
9.66673 -3.9992 0.277593 33 143 141 255 
9.67172 -4.01105 0.179107 37 133 142 255 
9.66119 -4.0187 0.0821832 43 116 142 255 
9.66835 -3.99181 -0.00182561 33 142 141 255 
9.65997 -4.00035 -0.100369 35 136 142 255 
9.67463 -4.01622 -0.197475 38 129 142 255 
9.6433 -4.01521 -0.295427 60 79 138 255 
6.22537 -2.5741 -0.244664 47 108 142 255 
6.20781 -2.57329 -0.30633 59 81 139 255 
9.64351 -4.00527 -0.574669 66 64 134 255 
9.70384 -4.0424 -0.677949 58 83 139 255 
6.2044 -2.56669 -0.48718 58 83 139 255 
9.76719 -4.05274 -0.865676 62 76 138 255 
9.77319 -4.06513 -0.967029 46 111 142 255 
9.77042 -4.07014 -1.06765 70 50 126 255 
6.20938 -2.57256 -0.73253 70 50 126 255 
8.30577 -3.44805 -1.06599 71 45 123 255 
7.87555 -3.27743 -1.09276 66 65 134 255 
7.38425 -3.07913 -1.10162 67 62 133 255 
6.86378 -2.84788 -1.08541 63 71 136 255 
6.55339 -2.72325 -1.1037 63 72 137 255 
6.19568 -2.57961 -1.10743 66 64 134 255 
5.94054 -2.47712 -1.12563 53 94 141 255 
5.67179 -2.35794 -1.12734 57 86 140 255 
5.44187 -2.2647 -1.1372 51 98 141 255 
5.19503 -2.16298 -1.14182 56 89 140 255 
4.98057 -2.07581 -1.14987 59 81 139 255 
4.7785 -1.98951 -1.14847 55 91 141 255 
4.60084 -1.91658 -1.15433 55 91 141 255 
4.39718 -1.8326 -1.1516 66 64 134 255 
4.25721 -1.77259 -1.16346 62 76 138 255 
4.12405 -1.72124 -1.16821 61 77 138 255 
3.96691 -1.65575 -1.16629 64 69 136 255 
3.81998 -1.59282 -1.16647 64 70 136 255 
3.67626 -1.52919 -1.16657 63 72 137 255 
14.1314 -5.93331 4.60398 71 19 101 255 
12.5916 -5.27412 3.94807 68 59 132 255 
12.7698 -5.34338 3.85713 68 59 132 255 
12.7822 -5.34885 3.72053 65 68 135 255 
12.8104 -5.37082 3.60533 70 52 128 255 
16.2598 -6.81393 4.38908 70 48 126 255 
14.7818 -6.1974 3.82737 71 42 122 255 
14.7874 -6.20312 3.67269 72 41 121 255 
9.60804 -4.02624 2.29807 48 106 142 255 
9.63151 -4.0382 2.19514 47 108 142 255 
9.62276 -4.04036 2.09112 48 106 142 255 
9.63236 -4.04854 1.99318 52 97 141 255 
9.62028 -4.03137 1.90312 59 82 139 255 
9.63977 -4.04364 1.80376 36 135 142 255 
9.64249 -4.0526 1.70156 32 146 140 255 
9.62265 -4.05433 1.60156 38 130 142 255 
9.64317 -4.04294 1.51797 32 147 140 255 
9.61815 -4.03655 1.41216 34 141 141 255 
9.62579 -4.05151 1.31379 37 133 142 255 
9.64264 -4.06671 1.22011 38 130 142 255 
9.65077 -4.04612 1.13497 32 146 140 255 
9.64194 -4.05247 1.03472 34 140 141 255 
9.64219 -4.0604 0.935572 39 127 142 255 
9.64452 -4.07344 0.838675 40 125 142 255 
9.6603 -4.05209 0.756423 32 147 140 255 
9.66193 -4.06285 0.657597 34 140 141 255 
9.64366 -4.06696 0.557667 42 120 142 255 
9.66471 -4.08594 0.459966 42 119 142 255 
9.65658 -4.05449 0.376714 39 128 142 255 
9.66227 -4.06697 0.278177 43 116 142 255 
9.66719 -4.07887 0.179483 44 114 142 255 
9.6695 -4.09194 0.082466 44 114 142 255 
9.67226 -4.06306 -0.00183102 44 114 142 255 
9.685 -4.08052 -0.100887 44 114 142 255 
9.71152 -4.10157 -0.198738 41 122 142 255 
9.71513 -4.11524 -0.298396 43 117 142 255 
9.73285 -4.0945 -0.383492 44 114 142 255 
9.71724 -4.09809 -0.480738 42 119 142 255 
9.71717 -4.10595 -0.580549 42 120 142 255 
9.76798 -4.13964 -0.684191 38 129 142 255 
9.77001 -4.11214 -0.769126 39 127 142 255 
9.80825 -4.14051 -0.871551 42 118 142 255 
9.7985 -4.14637 -0.972032 38 130 142 255 
9.75168 -4.13273 -1.06835 70 52 128 255 
9.16152 -3.86167 -1.08357 67 62 133 255 
8.3366 -3.52097 -1.0727 70 48 126 255 
7.86352 -3.32917 -1.0939 67 62 133 255 
7.37616 -3.12903 -1.10326 66 64 134 255 
6.95922 -2.93766 -1.10333 62 73 137 255 
6.56659 -2.77611 -1.10877 61 77 138 255 
6.20426 -2.62797 -1.11183 60 80 139 255 
5.93067 -2.51584 -1.12667 57 86 140 255 
5.66537 -2.39615 -1.12897 57 85 140 255 
5.44324 -2.30456 -1.14042 52 97 141 255 
5.20151 -2.20323 -1.1462 57 85 140 255 
4.95784 -2.10213 -1.14758 57 86 140 255 
4.77699 -2.02336 -1.15107 52 96 141 255 
4.5854 -1.94325 -1.15343 54 92 141 255 
4.4136 -1.87131 -1.15888 62 73 137 255 
4.24804 -1.79943 -1.16395 62 73 137 255 
4.09738 -1.73971 -1.16366 62 76 138 255 
3.96023 -1.68157 -1.16734 63 72 137 255 
3.81457 -1.61811 -1.16783 62 74 137 255 
3.67476 -1.55509 -1.1691 62 73 137 255 
14.3369 -6.12336 4.6831 72 33 115 255 
12.5166 -5.33321 3.93473 70 48 126 255 
12.6038 -5.36504 3.81687 67 62 133 255 
12.734 -5.42075 3.71612 63 71 136 255 
16.3973 -6.99325 4.62681 72 37 118 255 
16.2588 -6.93107 4.4002 69 56 130 255 
16.0587 -6.8489 4.16878 71 44 122 255 
16.7278 -7.13808 4.1654 72 28 110 255 
9.60921 -4.09622 2.30432 50 101 142 255 
9.67226 -4.12525 2.21016 48 106 142 255 
9.63746 -4.11627 2.09976 46 109 142 255 
9.66695 -4.13305 2.00554 55 90 140 255 
9.63247 -4.10614 1.91048 50 100 142 255 
9.66734 -4.12514 1.81362 41 121 142 255 
9.65646 -4.12837 1.70847 34 140 141 255 
9.66301 -4.14133 1.61248 32 147 140 255 
9.66461 -4.12183 1.5253 33 143 141 255 
9.68252 -4.13362 1.42531 34 141 141 255 
9.68375 -4.14604 1.32515 31 148 140 255 
9.67775 -4.15164 1.22775 34 141 141 255 
9.66417 -4.12164 1.1395 34 141 141 255 
9.67362 -4.13581 1.04083 32 146 140 255 
9.66562 -4.14027 0.940292 33 143 141 255 
9.66605 -4.15261 0.842747 33 142 141 255 
9.69305 -4.13595 0.76096 32 147 140 255 
9.67077 -4.13658 0.659913 31 154 138 255 
9.68644 -4.15519 0.561604 31 151 139 255 
9.69085 -4.16726 0.462418 35 138 141 255 
9.70872 -4.14664 0.379734 31 152 139 255 
9.69963 -4.15293 0.279981 34 140 141 255 
9.70354 -4.16453 0.180629 34 139 141 255 
9.67177 -4.16305 0.0827016 40 124 142 255 
9.69588 -4.14316 -0.00184028 39 126 142 255 
9.71861 -4.16507 -0.101502 35 137 142 255 
9.72475 -4.17765 -0.19953 36 135 142 255 
9.73101 -4.19257 -0.299668 35 137 142 255 
9.73878 -4.16751 -0.384726 33 143 141 255 
9.73873 -4.17772 -0.48306 33 142 141 255 
9.74041 -4.18639 -0.583461 34 139 141 255 
9.75156 -4.20344 -0.684835 36 135 142 255 
9.7611 -4.17907 -0.770428 33 145 140 255 
9.80922 -4.21201 -0.873917 43 116 142 255 
9.82044 -4.22688 -0.976763 39 128 142 255 
9.72979 -4.19406 -1.06875 70 52 128 255 
9.1212 -3.91076 -1.08162 68 58 131 255 
8.32031 -3.57441 -1.0734 68 58 131 255 
7.86936 -3.38873 -1.09758 68 59 132 255 
7.37956 -3.18404 -1.10667 67 62 133 255 
6.94834 -2.98343 -1.10449 62 76 138 255 
6.56759 -2.82415 -1.11184 61 77 138 255 
6.21339 -2.67692 -1.11638 57 85 140 255 
5.91512 -2.55218 -1.12667 56 88 140 255 
5.6867 -2.44641 -1.13619 56 89 140 255 
5.43621 -2.34102 -1.14193 53 94 141 255 
5.19509 -2.23821 -1.14779 57 86 140 255 
4.95023 -2.13484 -1.14883 59 82 139 255 
4.78242 -2.06036 -1.1554 56 89 140 255 
4.57966 -1.97405 -1.15501 58 84 140 255 
4.39489 -1.89527 -1.157 61 78 138 255 
4.25116 -1.8316 -1.16787 61 78 138 255 
4.09284 -1.7675 -1.16543 62 76 138 255 
3.94186 -1.70239 -1.16498 60 79 138 255 
3.80722 -1.64263 -1.16864 61 78 138 255 
3.6722 -1.58064 -1.17135 64 69 136 255 
14.1805 -6.1597 4.64426 70 8 92 255 
11.0416 -4.785 3.48022 72 27 109 255 
12.3187 -5.3332 3.74037 62 74 137 255 
12.6305 -5.46847 3.69564 72 20 103 255 
16.656 -7.22469 4.71222 70 52 128 255 
16.2347 -7.03881 4.40527 68 57 131 255 
16.6463 -7.22057 4.33276 72 38 119 255 
16.8902 -7.33023 4.21697 70 48 126 255 
9.59733 -4.16093 2.30755 57 86 140 255 
9.64138 -4.18218 2.20892 48 106 142 255 
9.639 -4.18705 2.10565 50 102 142 255 
9.64231 -4.19268 2.00573 51 98 141 255 
9.62244 -4.17182 1.91353 51 99 141 255 
9.65541 -4.19027 1.81617 44 113 142 255 
9.67078 -4.20486 1.71553 30 157 137 255 
9.67276 -4.21595 1.61839 31 151 139 255 
9.68272 -4.19995 1.53219 31 161 135 255 
9.66061 -4.19453 1.42584 31 154 138 255 
9.66905 -4.21013 1.32665 31 153 138 255 
9.67941 -4.22286 1.23123 31 151 139 255 
9.67518 -4.19669 1.14382 39 128 142 255 
9.65354 -4.19747 1.04142 39 128 142 255 
9.6583 -4.20746 0.942074 45 112 142 255 
9.65592 -4.21863 0.844105 46 109 142 255 
9.67755 -4.19972 0.761752 40 125 142 255 
9.6571 -4.20102 0.660728 41 122 142 255 
9.66259 -4.21534 0.561711 46 109 142 255 
9.67974 -4.23305 0.463119 50 100 142 255 
9.69409 -4.21091 0.380165 43 116 142 255 
9.68771 -4.21836 0.280379 46 109 142 255 
9.67689 -4.22359 0.180612 50 101 142 255 
9.64146 -4.22031 0.0826623 60 79 138 255 
9.67487 -4.20457 -0.00184115 52 96 141 255 
9.71395 -4.23382 -0.101722 38 130 142 255 
9.70626 -4.24045 -0.19968 42 118 142 255 
9.71517 -4.25662 -0.299979 48 106 142 255 
9.72677 -4.23317 -0.38527 31 149 139 255 
9.73306 -4.24619 -0.484062 34 140 141 255 
9.72003 -4.24848 -0.583791 37 132 142 255 
9.73381 -4.26681 -0.685414 37 132 142 255 
9.73619 -4.23929 -0.7705 35 138 141 255 
9.80968 -4.28369 -0.876283 42 118 142 255 
9.81713 -4.29704 -0.979038 39 126 142 255 
9.7385 -4.26886 -1.07257 68 57 131 255 
9.0943 -3.96546 -1.0813 68 57 131 255 
8.30914 -3.63016 -1.07482 70 50 126 255 
7.81934 -3.42422 -1.09352 68 58 131 255 
7.36805 -3.23284 -1.1079 67 61 132 255 
6.93897 -3.02997 -1.10594 62 76 138 255 
6.57367 -2.87469 -1.11584 61 78 138 255 
6.22758 -2.72846 -1.12192 53 95 141 255 
5.90205 -2.58961 -1.12718 58 83 139 255 
5.66167 -2.47692 -1.1342 53 94 141 255 
5.41905 -2.37315 -1.14137 48 105 142 255 
5.1687 -2.26453 -1.14501 57 86 140 255 
4.92987 -2.16203 -1.14716 59 82 139 255 
4.77326 -2.09123 -1.15626 51 99 141 255 
4.59155 -2.01267 -1.1611 53 95 141 255 
4.38496 -1.92298 -1.15747 59 82 139 255 
4.24695 -1.86076 -1.16982 63 71 136 255 
4.08104 -1.79219 -1.16517 62 76 138 255 
3.94636 -1.73315 -1.16943 61 78 138 255 
3.79002 -1.66287 -1.16647 63 72 137 255 
3.67211 -1.60738 -1.17444 64 70 136 255 
10.7704 -4.75721 3.53692 72 36 117 255 
10.9602 -4.8298 3.46383 67 62 133 255 
12.4233 -5.46924 3.78224 60 79 138 255 
12.6011 -5.54781 3.69693 69 4 87 255 
16.6619 -7.34902 4.72654 72 41 121 255 
14.1827 -6.25281 3.85881 71 46 124 255 
13.0891 -5.77327 3.41604 67 62 133 255 
16.6148 -7.3322 4.15937 71 44 122 255 
16.5573 -7.29946 3.99168 70 52 128 255 
9.65583 -4.25903 2.21818 52 96 141 255 
9.6804 -4.27583 2.12039 47 108 142 255 
9.65054 -4.26686 2.01285 50 102 142 255 
15.1984 -6.70035 3.03049 72 37 118 255 
9.64484 -4.2562 1.81906 38 130 142 255 
9.65473 -4.26851 1.7173 31 150 139 255 
9.66749 -4.28443 1.62188 31 152 139 255 
9.67397 -4.26688 1.53492 31 160 136 255 
9.651 -4.26093 1.42826 32 147 140 255 
9.65029 -4.27259 1.32764 31 149 139 255 
9.66058 -4.2854 1.23215 33 142 141 255 
9.67472 -4.26721 1.14684 41 123 142 255 
9.64671 -4.26507 1.04349 37 132 142 255 
9.65598 -4.27713 0.944389 36 134 142 255 
9.66447 -4.29317 0.847139 36 135 142 255 
9.66438 -4.26466 0.762761 37 132 142 255 
9.65852 -4.27231 0.662606 33 144 141 255 
9.66484 -4.2871 0.56336 34 140 141 255 
9.66819 -4.29886 0.46382 51 99 141 255 
9.70738 -4.28768 0.381711 33 144 141 255 
9.69364 -4.29189 0.281307 34 140 141 255 
9.70014 -4.30479 0.181535 35 136 142 255 
9.61447 -4.27899 0.0826545 70 52 128 255 
9.69645 -4.28487 -0.00185022 45 112 142 255 
9.70242 -4.29982 -0.101876 35 137 142 255 
9.70016 -4.30885 -0.200095 39 126 142 255 
9.72905 -4.33404 -0.301223 43 117 142 255 
9.71432 -4.29884 -0.385815 49 104 142 255 
9.72235 -4.31272 -0.484836 40 125 142 255 
9.72571 -4.32223 -0.585714 46 111 142 255 
9.75211 -4.34636 -0.688568 47 107 142 255 
9.75195 -4.31752 -0.773829 40 124 142 255 
9.84151 -4.36968 -0.881505 39 126 142 255 
9.83698 -4.37785 -0.983678 41 123 142 255 
9.75029 -4.34555 -1.07678 70 52 128 255 
9.05799 -4.01595 -1.07989 70 51 127 255 
8.31303 -3.69277 -1.07823 69 56 130 255 
7.81269 -3.47859 -1.09555 66 65 134 255 
7.35079 -3.2792 -1.10831 67 61 132 255 
6.95461 -3.08775 -1.11143 62 76 138 255 
6.56855 -2.92059 -1.11799 63 71 136 255 
6.21613 -2.76902 -1.1229 57 85 140 255 
5.89775 -2.63099 -1.12942 57 86 140 255 
5.63199 -2.50522 -1.13131 54 93 141 255 
5.40438 -2.40635 -1.14137 50 101 142 255 
5.14844 -2.29341 -1.14361 59 81 139 255 
4.90222 -2.18586 -1.14383 63 72 137 255 
4.76302 -2.12167 -1.15691 52 96 141 255 
4.56043 -2.03248 -1.15636 53 94 141 255 
4.4006 -1.96212 -1.16476 59 82 139 255 
4.24343 -1.89034 -1.17202 65 66 135 255 
4.0735 -1.81878 -1.16619 62 76 138 255 
3.95416 -1.76559 -1.17493 62 76 138 255 
3.79468 -1.69276 -1.17108 62 76 138 255 
3.65867 -1.62832 -1.17332 64 70 136 255 
8.64593 -3.88242 2.84703 67 62 133 255 
8.68695 -3.89188 2.7529 67 62 133 255 
12.3368 -5.52175 3.76614 67 62 133 255 
13.0473 -5.84007 3.83827 72 29 111 255 
13.134 -5.88953 3.73596 69 56 130 255 
13.6128 -6.10157 3.71386 72 41 121 255 
13.0854 -5.8678 3.4244 67 62 133 255 
16.5117 -7.40807 4.14486 72 36 117 255 
16.7466 -7.50596 4.04833 68 58 131 255 
9.66076 -4.33221 2.22538 50 100 142 255 
9.66471 -4.33996 2.12275 48 106 142 255 
9.66449 -4.34412 2.02128 49 103 142 255 
9.71954 -4.35638 1.94333 59 82 139 255 
9.65721 -4.33264 1.82637 34 139 141 255 
9.64096 -4.33334 1.71955 39 127 142 255 
9.65904 -4.35179 1.62491 39 127 142 255 
9.66657 -4.33466 1.53794 33 142 141 255 
9.65722 -4.33468 1.43309 38 129 142 255 
9.66008 -4.34801 1.33264 39 126 142 255 
9.65583 -4.35439 1.23493 41 122 142 255 
9.70823 -4.35334 1.15395 41 123 142 255 
9.68027 -4.35111 1.04998 38 129 142 255 
9.68223 -4.36001 0.949555 42 119 142 255 
9.6979 -4.37947 0.852409 41 123 142 255 
9.69445 -4.34919 0.767226 40 124 142 255 
9.69311 -4.35892 0.666801 39 126 142 255 
9.6866 -4.36808 0.56618 40 125 142 255 
9.7181 -4.39267 0.467498 56 88 140 255 
9.71553 -4.36272 0.383077 42 120 142 255 
9.72728 -4.37836 0.283058 41 122 142 255 
9.73643 -4.3926 0.182716 39 126 142 255 
9.60261 -4.3445 0.0827801 71 44 122 255 
9.71376 -4.36395 -0.0018586 51 99 141 255 
9.75426 -4.3946 -0.102701 39 128 142 255 
9.72548 -4.39175 -0.201169 38 129 142 255 
9.75599 -4.41799 -0.302891 40 125 142 255 
9.77616 -4.39813 -0.389335 38 130 142 255 
9.75307 -4.39816 -0.487705 44 115 142 255 
9.75634 -4.40773 -0.589176 52 96 141 255 
9.76889 -4.42588 -0.691657 42 120 142 255 
9.77438 -4.39938 -0.777737 38 130 142 255 
9.85266 -4.44721 -0.884932 40 125 142 255 
9.83987 -4.45167 -0.98668 38 130 142 255 
9.73432 -4.41022 -1.07799 71 46 124 255 
8.98242 -4.04857 -1.07382 66 65 134 255 
8.28931 -3.7433 -1.07811 68 57 131 255 
7.80565 -3.53301 -1.09758 66 63 133 255 
7.32963 -3.32383 -1.10817 68 57 131 255 
6.94185 -3.13321 -1.11244 61 77 138 255 
6.57212 -2.97061 -1.12168 62 76 138 255 
6.20801 -2.81118 -1.12452 56 88 140 255 
5.90213 -2.67649 -1.13338 58 84 140 255 
5.6183 -2.54054 -1.13167 54 92 141 255 
5.39578 -2.4423 -1.14269 51 99 141 255 
5.14498 -2.32981 -1.146 59 82 139 255 
4.93682 -2.23771 -1.15508 58 84 140 255 
4.75347 -2.15247 -1.15778 52 96 141 255 
4.56207 -2.06686 -1.15997 49 104 142 255 
4.41061 -1.99912 -1.17063 57 86 140 255 
4.2132 -1.90794 -1.16689 63 71 136 255 
4.06226 -1.84374 -1.16619 60 80 139 255 
3.95028 -1.79301 -1.17703 62 74 137 255 
3.78686 -1.7172 -1.1719 63 72 137 255 
3.66347 -1.65746 -1.1781 63 71 136 255 
8.67596 -3.96005 2.86487 67 61 132 255 
10.5329 -4.79672 3.34715 66 64 134 255 
12.3614 -5.62407 3.78412 69 56 130 255 
12.3352 -5.61244 3.63885 69 53 129 255 
13.0888 -5.96599 3.73345 69 55 129 255 
13.2042 -6.016 3.61239 66 64 134 255 
14.5272 -6.62169 3.81227 72 32 113 255 
16.4535 -7.50358 4.14174 68 58 131 255 
16.6967 -7.60695 4.04747 72 41 121 255 
9.65804 -4.40237 2.23093 50 102 142 255 
16.7506 -7.64574 3.68931 72 23 105 255 
9.64748 -4.40783 2.02334 68 58 131 255 
9.67651 -4.40859 1.9401 50 101 142 255 
9.66541 -4.40776 1.833 32 146 140 255 
9.68331 -4.42399 1.73191 33 145 140 255 
9.69327 -4.43896 1.63522 32 146 140 255 
9.69832 -4.42057 1.54728 33 145 140 255 
9.69806 -4.4247 1.44315 32 146 140 255 
9.7036 -4.4394 1.34237 34 141 141 255 
9.70478 -4.44832 1.24466 33 145 140 255 
9.72294 -4.43179 1.15891 46 109 142 255 
9.70589 -4.43441 1.05569 32 147 140 255 
9.71144 -4.44504 0.955078 33 145 140 255 
9.7098 -4.45677 0.855843 32 146 140 255 
9.72021 -4.43259 0.771403 32 146 140 255 
9.72791 -4.44652 0.671059 30 157 137 255 
9.70591 -4.44866 0.568894 32 146 140 255 
9.71185 -4.46181 0.468506 44 113 142 255 
9.73495 -4.44341 0.38491 31 150 139 255 
9.74478 -4.45835 0.284358 33 142 141 255 
9.73111 -4.46226 0.183126 33 142 141 255 
9.64845 -4.43676 0.0834084 72 38 119 255 
9.70863 -4.43344 -0.00186279 54 93 141 255 
9.7462 -4.46311 -0.102903 33 145 140 255 
9.73652 -4.46885 -0.201961 35 138 141 255 
9.7514 -4.48822 -0.303598 35 136 142 255 
9.7699 -4.4676 -0.39017 34 141 141 255 
9.76404 -4.4754 -0.489617 33 142 141 255 
9.75361 -4.47876 -0.590659 45 112 142 255 
9.76602 -4.49701 -0.693395 42 119 142 255 
9.76988 -4.46965 -0.779546 35 138 141 255 
9.84059 -4.51465 -0.886319 40 124 142 255 
9.85128 -4.52985 -0.990592 41 122 142 255 
9.5191 -4.38331 -1.05711 68 59 132 255 
9.08755 -4.16324 -1.08942 70 51 127 255 
8.27792 -3.79948 -1.07964 68 57 131 255 
7.78293 -3.58042 -1.09746 67 62 133 255 
7.35318 -3.38906 -1.11486 64 69 136 255 
6.93868 -3.18317 -1.11504 59 81 139 255 
6.54479 -3.00675 -1.12014 62 76 138 255 
6.19333 -2.85046 -1.12501 54 92 141 255 
5.89007 -2.71472 -1.13425 56 89 140 255 
5.6044 -2.57579 -1.13204 56 89 140 255 
5.38515 -2.47742 -1.14364 51 98 141 255 
5.13771 -2.36462 -1.14759 56 89 140 255 
4.95142 -2.28105 -1.16175 56 89 140 255 
4.73485 -2.17914 -1.15648 55 91 141 255 
4.55549 -2.09766 -1.16155 50 100 142 255 
4.38502 -2.02005 -1.16711 54 93 141 255 
4.19701 -1.93173 -1.16566 63 71 136 255 
4.04999 -1.86823 -1.16593 59 81 139 255 
3.92519 -1.81075 -1.17284 60 79 138 255 
3.79023 -1.74685 -1.17624 60 79 138 255 
3.65323 -1.67991 -1.1781 66 65 134 255 
8.66975 -4.02167 2.87091 64 70 136 255 
8.64551 -4.00142 2.75512 48 105 142 255 
15.4909 -7.16297 4.75552 72 40 120 255 
12.304 -5.68964 3.63988 72 26 108 255 
13.0467 -6.04375 3.73194 71 42 122 255 
12.9847 -6.01251 3.56239 70 51 127 255 
14.5578 -6.74382 3.83108 72 23 105 255 
10.0467 -4.65642 2.53612 66 63 133 255 
9.5836 -4.43747 2.32974 69 53 129 255 
9.66193 -4.47594 2.23813 61 77 138 255 
16.747 -7.7686 3.69894 66 63 133 255 
16.8751 -7.83556 3.54919 72 31 112 255 
9.66535 -4.47532 1.94333 50 102 142 255 
9.66947 -4.48149 1.83896 32 146 140 255 
9.69001 -4.49912 1.73801 31 154 138 255 
9.68198 -4.50586 1.63795 31 151 139 255 
9.70873 -4.49746 1.55331 31 160 136 255 
9.70579 -4.50038 1.44838 30 157 137 255 
9.70047 -4.51015 1.34574 31 152 139 255 
9.69981 -4.51827 1.24756 31 150 139 255 
9.69286 -4.49011 1.15859 52 96 141 255 
9.68662 -4.49765 1.05658 31 160 136 255 
9.69844 -4.51127 0.956503 31 153 138 255 
9.71208 -4.53017 0.858478 31 151 139 255 
9.72179 -4.50557 0.773708 31 161 136 255 
9.70587 -4.50865 0.671435 31 158 137 255 
9.69925 -4.51782 0.570117 33 143 141 255 
9.69968 -4.5285 0.46925 46 110 142 255 
9.71203 -4.50516 0.38509 31 151 139 255 
9.72721 -4.52269 0.284649 32 146 140 255 
9.7108 -4.52527 0.183263 35 136 142 255 
9.70077 -4.53313 0.0840996 72 37 118 255 
9.71934 -4.51061 -0.00187012 51 99 141 255 
9.73586 -4.53085 -0.103085 33 144 141 255 
9.72885 -4.53781 -0.202376 35 137 142 255 
9.73817 -4.55474 -0.30405 39 126 142 255 
9.76405 -4.53757 -0.391041 33 145 140 255 
9.75813 -4.54535 -0.49071 37 132 142 255 
9.76847 -4.55837 -0.593242 38 130 142 255 
9.74638 -4.56065 -0.693974 56 88 140 255 
9.80377 -4.5581 -0.784467 35 138 141 255 
9.84703 -4.59095 -0.889419 40 125 142 255 
9.85668 -4.60581 -0.993959 42 118 142 255 
9.69749 -4.53778 -1.07999 71 44 122 255 
9.05553 -4.21598 -1.08866 62 74 137 255 
8.26975 -3.85733 -1.08164 70 50 126 255 
7.78148 -3.63777 -1.10038 67 61 132 255 
7.32328 -3.42991 -1.11349 65 66 135 255 
6.94054 -3.23572 -1.11851 62 76 138 255 
6.53069 -3.04894 -1.12091 62 74 137 255 
6.1927 -2.89635 -1.12811 55 90 140 255 
5.88579 -2.75665 -1.13666 58 84 140 255 
5.59651 -2.61387 -1.13366 54 92 141 255 
5.36985 -2.51041 -1.14364 49 104 142 255 
5.13731 -2.40274 -1.15077 53 94 141 255 
4.93556 -2.31056 -1.16134 55 91 141 255 
4.72227 -2.20857 -1.1567 53 94 141 255 
4.54607 -2.12723 -1.16245 50 101 142 255 
4.37782 -2.04939 -1.16852 54 93 141 255 
4.1842 -1.95703 -1.16542 64 69 136 255 
4.05422 -1.90043 -1.17048 61 77 138 255 
3.90788 -1.83193 -1.171 63 72 137 255 
3.7838 -1.77211 -1.17759 60 79 138 255 
3.64372 -1.7027 -1.17838 64 69 136 255 
8.57993 -4.04417 2.84933 52 96 141 255 
8.66165 -4.07361 2.76818 53 95 141 255 
8.64097 -4.06011 2.66027 65 68 135 255 
13.0774 -6.14495 3.87976 72 33 115 255 
12.5584 -5.91139 3.60256 71 47 125 255 
10.0755 -4.74071 2.77217 69 55 129 255 
10.1617 -4.78332 2.68187 48 105 142 255 
31.5308 -14.8496 7.98231 70 10 93 255 
15.8598 -7.46206 3.86652 71 47 125 255 
9.68032 -4.55682 2.24883 50 100 142 255 
9.75969 -4.60032 2.16184 56 89 140 255 
9.75346 -4.60175 2.05726 66 64 134 255 
9.68043 -4.55465 1.95194 49 104 142 255 
9.67478 -4.55627 1.84525 33 145 140 255 
9.69435 -4.57365 1.74379 31 150 139 255 
9.67738 -4.57617 1.64189 34 139 141 255 
9.70512 -4.56833 1.55719 31 156 137 255 
9.70847 -4.57421 1.45294 31 148 140 255 
9.69324 -4.57934 1.34861 33 144 141 255 
9.68986 -4.5862 1.24987 34 139 141 255 
9.68222 -4.55755 1.16064 46 110 142 255 
9.68314 -4.56847 1.05924 33 144 141 255 
9.67688 -4.57367 0.957126 36 135 142 255 
9.68951 -4.59224 0.858957 37 131 142 255 
9.71021 -4.57279 0.775004 34 141 141 255 
9.68344 -4.57068 0.671811 43 117 142 255 
9.7255 -4.60288 0.57331 42 119 142 255 
9.7042 -4.60334 0.470827 53 95 141 255 
9.71585 -4.57958 0.386348 33 144 141 255 
9.71645 -4.5904 0.285153 38 130 142 255 
9.71629 -4.6006 0.183896 40 124 142 255 
9.70891 -4.60972 0.0844137 68 58 131 255 
9.72585 -4.58637 -0.00187675 54 93 141 255 
9.74855 -4.60973 -0.103517 41 122 142 255 
9.75684 -4.62397 -0.203544 44 115 142 255 
9.76421 -4.64015 -0.305746 46 109 142 255 
9.77127 -4.61403 -0.392456 41 122 142 255 
9.77069 -4.62437 -0.49276 45 113 142 255 
9.80257 -4.64773 -0.597034 42 118 142 255 
9.7795 -4.64951 -0.69835 44 115 142 255 
9.80177 -4.63053 -0.786566 54 93 141 255 
9.84659 -4.66451 -0.891949 41 121 142 255 
9.86332 -4.68286 -0.997507 46 111 142 255 
9.66138 -4.59335 -1.07909 68 57 131 255 
9.05106 -4.28167 -1.09126 66 64 134 255 
8.27464 -3.92161 -1.08541 69 53 129 255 
7.75632 -3.68417 -1.1 68 57 131 255 
7.30388 -3.47564 -1.11376 66 64 134 255 
6.94292 -3.28884 -1.12212 59 82 139 255 
6.52436 -3.09489 -1.12306 60 79 138 255 
6.20244 -2.94742 -1.13315 54 92 141 255 
5.87677 -2.79653 -1.13821 57 85 140 255 
5.61057 -2.6625 -1.1398 54 92 141 255 
5.34281 -2.53784 -1.14118 51 99 141 255 
5.12689 -2.43632 -1.15177 54 92 141 255 
4.91776 -2.33912 -1.1605 54 93 141 255 
4.72098 -2.24337 -1.15973 50 102 142 255 
4.54876 -2.16261 -1.16651 51 99 141 255 
4.38447 -2.08539 -1.17369 55 91 141 255 
4.17824 -1.98558 -1.16713 64 69 136 255 
4.032 -1.92028 -1.16745 60 79 138 255 
3.91138 -1.86293 -1.17545 61 77 138 255 
3.74939 -1.78413 -1.17027 62 76 138 255 
3.63147 -1.7242 -1.17782 65 68 135 255 
8.58087 -4.10915 2.85796 58 83 139 255 
8.64256 -4.12958 2.77012 54 93 141 255 
13.1973 -6.30009 4.07482 70 52 128 255 
12.1487 -5.79984 3.61473 66 64 134 255 
12.0739 -5.77411 3.47369 69 53 129 255 
9.8195 -4.69405 2.7096 71 45 123 255 
9.76628 -4.67059 2.58502 63 71 136 255 
9.48317 -4.53745 2.40775 68 59 132 255 
15.8684 -7.58534 3.87988 71 47 125 255 
9.69191 -4.63513 2.25808 49 104 142 255 
9.70917 -4.64953 2.15693 49 103 142 255 
9.70555 -4.65217 2.05314 54 92 141 255 
9.70023 -4.63687 1.96164 49 103 142 255 
9.68131 -4.63214 1.85188 34 140 141 255 
9.7026 -4.65054 1.75038 41 122 142 255 
9.71327 -4.66628 1.65281 40 125 142 255 
9.69923 -4.63847 1.56078 41 122 142 255 
9.70883 -4.64738 1.45724 41 121 142 255 
9.72847 -4.66921 1.35747 39 126 142 255 
9.71972 -4.67355 1.2574 39 126 142 255 
9.70878 -4.64304 1.16721 47 107 142 255 
9.70877 -4.65361 1.06515 39 127 142 255 
9.72316 -4.66875 0.964519 39 126 142 255 
9.74647 -4.69269 0.866543 39 128 142 255 
9.72065 -4.65079 0.778101 55 91 141 255 
9.7551 -4.67791 0.678761 37 133 142 255 
9.76367 -4.69449 0.577247 36 134 142 255 
9.77027 -4.70834 0.475425 42 119 142 255 
9.75246 -4.67019 0.388936 39 127 142 255 
9.73947 -4.67459 0.286665 39 126 142 255 
9.75635 -4.69307 0.185196 39 128 142 255 
9.64891 -4.654 0.0841388 72 33 115 255 
9.73811 -4.6654 -0.00188461 49 104 142 255 
9.77146 -4.69414 -0.104065 34 141 141 255 
9.77423 -4.70587 -0.204506 40 125 142 255 
9.78776 -4.72518 -0.307386 37 131 142 255 
9.79683 -4.69984 -0.394634 35 136 142 255 
9.78535 -4.70502 -0.494945 38 130 142 255 
9.81615 -4.72816 -0.599616 40 124 142 255 
9.82717 -4.74632 -0.703821 38 129 142 255 
9.79116 -4.69921 -0.788014 57 85 140 255 
9.87347 -4.75163 -0.897007 42 120 142 255 
9.87566 -4.7632 -1.00169 48 105 142 255 
9.64645 -4.65903 -1.08059 72 40 120 255 
9.06225 -4.35521 -1.09582 66 64 134 255 
8.2719 -3.98265 -1.08824 69 55 129 255 
7.7291 -3.72954 -1.09936 68 59 132 255 
7.31542 -3.53634 -1.11881 66 65 134 255 
6.92261 -3.33138 -1.12212 59 81 139 255 
6.50614 -3.13529 -1.12322 60 79 138 255 
6.18246 -2.98457 -1.13283 54 93 141 255 
5.85772 -2.83168 -1.13786 56 88 140 255 
5.60388 -2.70158 -1.14178 55 90 140 255 
5.34394 -2.57868 -1.14478 51 99 141 255 
5.11714 -2.47029 -1.15296 51 98 141 255 
4.89979 -2.36755 -1.15967 55 90 140 255 
4.708 -2.27272 -1.15995 54 93 141 255 
4.54067 -2.19302 -1.16787 52 97 141 255 
4.38122 -2.11691 -1.17627 55 90 140 255 
4.19741 -2.02636 -1.17594 62 76 138 255 
4.04105 -1.9551 -1.17352 61 78 138 255 
3.88858 -1.88143 -1.17205 65 66 135 255 
3.74877 -1.81213 -1.17352 63 71 136 255 
3.64676 -1.75896 -1.18625 64 69 136 255 
8.65368 -4.20948 2.89076 51 98 141 255 
8.66891 -4.2077 2.78679 50 100 142 255 
13.1748 -6.38894 4.07992 72 29 111 255 
12.1755 -5.90461 3.6334 69 53 129 255 
12.0382 -5.84808 3.47369 69 55 129 255 
9.7233 -4.72157 2.69099 57 85 140 255 
9.74531 -4.73425 2.58711 58 84 140 255 
9.52967 -4.63177 2.42673 63 71 136 255 
15.8277 -7.68555 3.88139 69 55 129 255 
9.69057 -4.70777 2.26446 45 112 142 255 
9.70338 -4.72017 2.16204 49 104 142 255 
9.69272 -4.71937 2.05651 59 82 139 255 
9.69903 -4.70962 1.9672 63 72 137 255 
9.70234 -4.71557 1.8614 38 130 142 255 
9.7289 -4.73678 1.76033 33 145 140 255 
9.74664 -4.75613 1.66342 31 150 139 255 
9.75515 -4.73897 1.57443 31 152 139 255 
9.73538 -4.73374 1.46555 33 145 140 255 
9.74155 -4.74925 1.36334 33 144 141 255 
9.74174 -4.75795 1.264 32 146 140 255 
9.70962 -4.71686 1.17077 46 109 142 255 
9.72924 -4.73705 1.07056 35 137 142 255 
9.74356 -4.75233 0.969418 31 149 139 255 
9.74615 -4.76641 0.869098 33 145 140 255 
9.75832 -4.74261 0.78343 32 147 140 255 
9.76031 -4.75428 0.68114 31 160 136 255 
9.7625 -4.7679 0.578897 32 147 140 255 
9.76004 -4.77743 0.476345 40 124 142 255 
9.77934 -4.75704 0.391165 31 154 138 255 
9.7771 -4.76668 0.288628 33 145 140 255 
9.7642 -4.77084 0.185897 33 145 140 255 
9.70908 -4.75667 0.0849164 72 37 118 255 
9.75066 -4.7452 -0.00189264 48 105 142 255 
9.78381 -4.77418 -0.104506 31 152 139 255 
9.78648 -4.78596 -0.205373 33 144 141 255 
9.7882 -4.79967 -0.308319 36 134 142 255 
9.78937 -4.77037 -0.395505 33 145 140 255 
9.78681 -4.77988 -0.496494 33 144 141 255 
9.80489 -4.79708 -0.600715 34 139 141 255 
9.80682 -4.81092 -0.704464 39 127 142 255 
9.78097 -4.76838 -0.789533 57 86 140 255 
9.87368 -4.82657 -0.8997 41 121 142 255 
9.88202 -4.84123 -1.00533 50 102 142 255 
9.64091 -4.72953 -1.0832 70 48 126 255 
9.0559 -4.42076 -1.09831 69 55 129 255 
8.24998 -4.03464 -1.08859 70 48 126 255 
7.74794 -3.79741 -1.10533 66 63 133 255 
7.31226 -3.59033 -1.12168 66 65 134 255 
6.90026 -3.37292 -1.12183 62 74 137 255 
6.49299 -3.17819 -1.12429 59 81 139 255 
6.1658 -3.02331 -1.13315 55 90 140 255 
5.84466 -2.86974 -1.13872 58 84 140 255 
5.58543 -2.73504 -1.14142 53 94 141 255 
5.32009 -2.60753 -1.14307 53 95 141 255 
5.11773 -2.5094 -1.15654 48 106 142 255 
4.8922 -2.40102 -1.16134 57 85 140 255 
4.70624 -2.30758 -1.16298 53 94 141 255 
4.51926 -2.21698 -1.16584 51 99 141 255 
4.34895 -2.13433 -1.1711 59 81 139 255 
4.16575 -2.04269 -1.17056 63 71 136 255 
4.0281 -1.97943 -1.17327 62 76 138 255 
3.88909 -1.91121 -1.17572 62 76 138 255 
3.75659 -1.84443 -1.17949 63 71 136 255 
3.62211 -1.77454 -1.18175 66 65 134 255 
8.6689 -4.28286 2.90457 56 89 140 255 
8.68515 -4.28162 2.8004 47 108 142 255 
8.6823 -4.27636 2.69677 62 76 138 255 
12.6718 -6.24166 3.79288 71 45 123 255 
12.4787 -6.15696 3.61161 72 41 121 255 
9.66195 -4.76526 2.68206 62 73 137 255 
9.71171 -4.79181 2.58595 59 82 139 255 
9.48446 -4.68196 2.42249 47 108 142 255 
15.7145 -7.75013 3.86523 71 19 101 255 
9.66853 -4.7706 2.26611 49 103 142 255 
9.6927 -4.78874 2.16616 49 104 142 255 
9.71465 -4.80401 2.06738 58 83 139 255 
9.7123 -4.78993 1.97582 50 101 142 255 
9.73684 -4.80642 1.87364 46 111 142 255 
9.71824 -4.80557 1.7637 31 154 138 255 
9.72259 -4.81848 1.66433 31 151 139 255 
9.73565 -4.80356 1.57601 31 158 137 255 
9.7257 -4.80304 1.46851 31 156 137 255 
9.7309 -4.81818 1.36596 31 154 138 255 
9.72393 -4.82337 1.26551 31 149 139 255 
9.70189 -4.7869 1.17336 48 106 142 255 
9.70891 -4.80107 1.07154 35 138 141 255 
9.75081 -4.83015 0.973069 31 150 139 255 
9.71672 -4.82613 0.869098 48 105 142 255 
9.75586 -4.81564 0.785591 31 151 139 255 
9.73633 -4.81674 0.681516 31 149 139 255 
9.74648 -4.83436 0.579695 41 123 142 255 
9.74218 -4.843 0.476914 46 111 142 255 
9.76968 -4.8267 0.391956 32 146 140 255 
9.77275 -4.839 0.289371 33 142 141 255 
9.74102 -4.83377 0.186016 34 139 141 255 
9.72984 -4.8411 0.0853562 57 85 140 255 
9.74915 -4.81867 -0.00189805 50 100 142 255 
9.77405 -4.8439 -0.104717 36 135 142 255 
9.7641 -4.84947 -0.205523 39 127 142 255 
9.76483 -4.86276 -0.308517 39 126 142 255 
9.77872 -4.83965 -0.396267 35 138 141 255 
9.77967 -4.85094 -0.497632 38 130 142 255 
9.78332 -4.86115 -0.60121 41 122 142 255 
9.79051 -4.87768 -0.70543 43 116 142 255 
9.76851 -4.83671 -0.790908 56 88 140 255 
9.89387 -4.91188 -0.904269 39 128 142 255 
9.9297 -4.94037 -1.01325 54 93 141 255 
9.65178 -4.80856 -1.08772 71 42 122 255 
9.0384 -4.4811 -1.0995 65 68 135 255 
8.26509 -4.10506 -1.09389 71 46 124 255 
7.71472 -3.84002 -1.10394 68 59 132 255 
7.26881 -3.62452 -1.1184 63 72 137 255 
6.8812 -3.41608 -1.12212 63 72 137 255 
6.48487 -3.22369 -1.12629 57 85 140 255 
6.15332 -3.06417 -1.13429 57 86 140 255 
5.83575 -2.90994 -1.14045 57 85 140 255 
5.59584 -2.78284 -1.14702 52 96 141 255 
5.31453 -2.64538 -1.14534 54 92 141 255 
5.09171 -2.53552 -1.15415 51 98 141 255 
4.87212 -2.42837 -1.16009 58 84 140 255 
4.69549 -2.33815 -1.16385 53 94 141 255 
4.51168 -2.24771 -1.16742 54 92 141 255 
4.34622 -2.16618 -1.17392 63 72 137 255 
4.15574 -2.0695 -1.17129 63 71 136 255 
4.04272 -2.0175 -1.18111 59 81 139 255 
3.87211 -1.93246 -1.17415 63 72 137 255 
3.75468 -1.87217 -1.18248 62 73 137 255 
3.60685 -1.7946 -1.18035 66 65 134 255 
8.58681 -4.30806 2.88587 58 84 140 255 
8.72915 -4.3701 2.82318 47 107 142 255 
8.81356 -4.40841 2.74589 49 103 142 255 
8.88115 -4.44243 2.66638 64 69 136 255 
9.21887 -4.61913 2.6763 62 74 137 255 
10.1392 -5.07824 2.82314 66 63 133 255 
9.54821 -4.78421 2.55018 55 90 140 255 
9.47647 -4.75055 2.42785 47 108 142 255 
30.4646 -15.2577 7.51612 70 11 94 255 
9.62245 -4.82151 2.2622 72 29 111 255 
9.68943 -4.86131 2.17206 49 104 142 255 
9.70782 -4.87499 2.07225 50 100 142 255 
9.73199 -4.8741 1.98587 48 105 142 255 
9.82874 -4.92702 1.89711 44 114 142 255 
9.70797 -4.87486 1.76724 38 130 142 255 
9.72374 -4.8936 1.66964 36 135 142 255 
9.73342 -4.87695 1.58046 32 146 140 255 
9.72705 -4.87817 1.4732 35 138 141 255 
9.73129 -4.89295 1.37021 37 133 142 255 
9.72786 -4.89992 1.26991 42 119 142 255 
9.70167 -4.86104 1.17692 52 97 141 255 
9.72552 -4.88377 1.07666 33 144 141 255 
9.74502 -4.90198 0.975474 41 121 142 255 
9.73232 -4.90855 0.87317 62 73 137 255 
9.74932 -4.88704 0.787463 48 105 142 255 
9.73869 -4.89252 0.68377 46 110 142 255 
9.76123 -4.91654 0.582355 46 109 142 255 
9.75687 -4.9252 0.479104 49 104 142 255 
9.76578 -4.89955 0.392998 41 122 142 255 
9.77056 -4.9128 0.290193 42 118 142 255 
9.77725 -4.92675 0.187282 44 115 142 255 
9.7187 -4.91018 0.0855211 67 62 133 255 
9.75783 -4.89769 -0.00190555 47 107 142 255 
9.75754 -4.91052 -0.104861 39 127 142 255 
9.74933 -4.91695 -0.205844 46 111 142 255 
9.71073 -4.9104 -0.307753 65 66 135 255 
9.76938 -4.90988 -0.397102 41 121 142 255 
9.75329 -4.91265 -0.497814 53 95 141 255 
9.73458 -4.91164 -0.600056 68 57 131 255 
9.74971 -4.93225 -0.704657 72 28 110 255 
9.8126 -4.93375 -0.796915 57 85 140 255 
9.89914 -4.99044 -0.907532 40 124 142 255 
9.9312 -5.01737 -1.01652 59 81 139 255 
9.65761 -4.88566 -1.09173 70 50 126 255 
9.03382 -4.5481 -1.10232 62 76 138 255 
8.2894 -4.18074 -1.10048 69 55 129 255 
7.70341 -3.89355 -1.10572 67 61 132 255 
7.265 -3.67845 -1.12127 64 70 136 255 
6.86188 -3.45913 -1.12241 62 76 138 255 
6.47379 -3.26788 -1.12783 59 82 139 255 
6.14673 -3.1081 -1.13657 56 88 140 255 
5.84152 -2.95771 -1.1451 55 90 140 255 
5.57603 -2.81579 -1.14648 52 97 141 255 
5.28856 -2.67307 -1.14326 52 96 141 255 
5.06643 -2.56185 -1.15197 51 98 141 255 
4.86847 -2.46396 -1.1628 59 81 139 255 
4.68454 -2.36868 -1.16471 51 98 141 255 
4.51171 -2.28239 -1.17103 50 102 142 255 
4.32764 -2.19017 -1.17251 61 78 138 255 
4.15248 -2.09978 -1.17398 62 73 137 255 
4.03717 -2.04577 -1.18313 61 78 138 255 
3.8731 -1.96272 -1.17807 63 72 137 255 
3.73797 -1.89256 -1.18085 64 70 136 255 
3.60006 -1.81886 -1.18175 65 66 135 255 
8.56363 -4.3624 2.88702 59 82 139 255 
8.75013 -4.44795 2.83874 55 90 140 255 
8.77948 -4.45892 2.74374 53 94 141 255 
8.86319 -4.50165 2.66923 59 82 139 255 
9.11357 -4.63654 2.65394 53 94 141 255 
9.05696 -4.60591 2.52962 62 74 137 255 
10.0267 -5.10116 2.68629 66 65 134 255 
9.35854 -4.7635 2.40507 56 88 140 255 
29.9631 -15.2372 7.4153 70 11 94 255 
9.74619 -4.95856 2.2984 65 68 135 255 
9.68912 -4.9358 2.17874 50 101 142 255 
9.68647 -4.93893 2.07412 55 91 141 255 
9.7282 -4.94711 1.99125 50 101 142 255 
9.76231 -4.96891 1.89014 55 91 141 255 
9.74646 -4.9693 1.77976 35 137 142 255 
9.77011 -4.9923 1.68283 33 142 141 255 
9.75712 -4.96395 1.58923 35 137 142 255 
9.76405 -4.97194 1.4834 34 140 141 255 
9.75234 -4.97873 1.37744 35 137 142 255 
9.76305 -4.99299 1.27848 33 142 141 255 
9.69824 -4.934 1.18015 57 85 140 255 
9.74856 -4.97048 1.08257 35 138 141 255 
9.78572 -4.99792 0.9826 33 144 141 255 
9.77299 -5.00452 0.879559 39 128 142 255 
9.78759 -4.9816 0.793009 35 137 142 255 
9.78406 -4.99073 0.689093 32 146 140 255 
9.77622 -4.99953 0.585069 36 134 142 255 
9.78959 -5.01733 0.482213 38 130 142 255 
9.80054 -4.99249 0.395622 38 130 142 255 
9.79009 -4.99811 0.291679 38 130 142 255 
9.7949 -5.01124 0.188206 35 137 142 255 
9.74177 -4.99711 0.0859924 69 56 130 255 
9.78017 -4.98426 -0.00191585 50 101 142 255 
9.83319 -5.02444 -0.106004 70 48 126 255 
9.84713 -5.0423 -0.208558 70 52 128 255 
9.86182 -5.06303 -0.313521 69 4 87 255 
9.75331 -4.977 -0.397683 70 8 92 255 
9.85104 -5.0379 -0.504372 70 7 90 255 
9.75136 -4.99541 -0.602968 69 5 89 255 
9.80537 -5.03621 -0.7109 70 8 92 255 
9.82034 -5.01336 -0.800027 59 82 139 255 
9.91535 -5.07516 -0.911857 41 123 142 255 
10.081 -5.17093 -1.03508 55 90 140 255 
9.64249 -4.95255 -1.09344 71 45 123 255 
9.02168 -4.61159 -1.10427 68 57 131 255 
8.2795 -4.23967 -1.1026 70 50 126 255 
7.66613 -3.93395 -1.10381 69 55 129 255 
7.25286 -3.72839 -1.1229 66 65 134 255 
6.83524 -3.49846 -1.12154 61 77 138 255 
6.44658 -3.30393 -1.1266 61 77 138 255 
6.13105 -3.14756 -1.13722 56 89 140 255 
5.81976 -2.99169 -1.14441 56 89 140 255 
5.56127 -2.8513 -1.14702 54 92 141 255 
5.26769 -2.70322 -1.14231 55 90 140 255 
5.07242 -2.60408 -1.15694 48 105 142 255 
4.85761 -2.49602 -1.16384 58 84 140 255 
4.68468 -2.40496 -1.16839 53 95 141 255 
4.49849 -2.31047 -1.17125 51 99 141 255 
4.32622 -2.2229 -1.1758 60 79 138 255 
4.15246 -2.13186 -1.17765 63 72 137 255 
4.02454 -2.0705 -1.18313 62 76 138 255 
3.87471 -1.99351 -1.18226 61 78 138 255 
3.72628 -1.91546 -1.18085 64 70 136 255 
3.6042 -1.8488 -1.18682 64 69 136 255 
8.72981 -4.51473 2.95232 62 76 138 255 
8.87633 -4.58086 2.88875 56 88 140 255 
8.88894 -4.58334 2.78669 60 80 139 255 
8.99936 -4.64049 2.71876 66 63 133 255 
9.08323 -4.69149 2.65344 51 99 141 255 
9.06905 -4.68232 2.54097 46 109 142 255 
10.6261 -5.48842 2.85583 62 76 138 255 
10.9433 -5.65496 2.82121 67 61 132 255 
27.016 -13.9478 6.70701 71 16 99 255 
9.72167 -5.02141 2.29984 50 102 142 255 
9.66823 -5.00012 2.1809 63 72 137 255 
15.1657 -7.8503 3.25762 72 40 120 255 
9.70203 -5.00896 1.99215 62 76 138 255 
9.72201 -5.02374 1.88827 52 97 141 255 
9.7526 -5.04807 1.78651 31 150 139 255 
9.76737 -5.06672 1.68768 31 156 137 255 
9.78011 -5.05143 1.59799 31 158 137 255 
9.77297 -5.05223 1.48943 30 157 137 255 
9.75596 -5.05628 1.38231 30 157 137 255 
9.76132 -5.0679 1.2823 31 148 140 255 
9.6987 -5.00938 1.18393 59 81 139 255 
9.75853 -5.05124 1.0871 32 147 140 255 
9.77697 -5.06934 0.984826 31 150 139 255 
9.77483 -5.0814 0.882513 32 146 140 255 
9.79405 -5.06079 0.796034 31 150 139 255 
9.77895 -5.06398 0.690909 31 156 137 255 
9.77726 -5.07598 0.586984 31 148 140 255 
9.77457 -5.0856 0.483001 35 138 141 255 
9.80345 -5.06998 0.396988 31 152 139 255 
9.79207 -5.07511 0.29266 33 142 141 255 
9.78438 -5.08184 0.188599 33 143 141 255 
9.74108 -5.07249 0.0862594 66 65 134 255 
9.8018 -5.07129 -0.00192615 48 106 142 255 
9.82436 -5.09619 -0.106244 70 48 126 255 
9.83464 -5.11231 -0.208954 71 47 125 255 
9.76231 -5.08787 -0.311344 70 7 90 255 
9.74833 -5.05009 -0.398735 70 11 94 255 
9.78891 -5.08214 -0.502778 70 11 94 255 
9.78342 -5.08785 -0.60687 69 5 89 255 
9.92737 -5.1761 -0.722034 70 7 90 255 
9.79737 -5.07766 -0.800678 57 86 140 255 
9.9194 -5.15428 -0.91512 43 117 142 255 
10.148 -5.2842 -1.04527 50 100 142 255 
9.64456 -5.02864 -1.09715 71 45 123 255 
9.01351 -4.67739 -1.10676 71 45 123 255 
8.24188 -4.28444 -1.10107 70 48 126 255 
7.65681 -3.9887 -1.10597 69 56 130 255 
7.25181 -3.78428 -1.12631 62 74 137 255 
6.82682 -3.54718 -1.12371 62 73 137 255 
6.44284 -3.35209 -1.12952 59 81 139 255 
6.11075 -3.18466 -1.13706 55 90 140 255 
5.80042 -3.02689 -1.14424 54 92 141 255 
5.54978 -2.88855 -1.14828 52 97 141 255 
5.26668 -2.74366 -1.14572 51 99 141 255 
5.05547 -2.6347 -1.15674 50 101 142 255 
4.82746 -2.51809 -1.1603 59 82 139 255 
4.67849 -2.43817 -1.17056 54 93 141 255 
4.492 -2.34208 -1.17328 49 103 142 255 
4.32198 -2.25435 -1.17839 58 84 140 255 
4.15306 -2.16447 -1.18157 61 77 138 255 
3.98775 -2.08261 -1.17605 62 74 137 255 
3.85556 -2.01368 -1.18017 62 74 137 255 
3.72214 -1.9423 -1.18329 60 80 139 255 
3.60385 -1.87664 -1.19047 64 69 136 255 
10.3928 -5.45586 3.52599 71 45 123 255 
9.01399 -4.72216 2.94292 68 58 131 255 
9.18838 -4.80933 2.88976 58 83 139 255 
10.1738 -5.32535 3.08337 72 31 112 255 
9.0757 -4.75837 2.65972 60 79 138 255 
9.66586 -5.06581 2.71684 67 61 132 255 
12.0928 -6.3403 3.26043 72 22 104 255 
10.898 -5.71657 2.81853 69 55 129 255 
10.1034 -5.29492 2.51629 72 29 111 255 
9.67681 -5.0737 2.29655 67 62 133 255 
14.9843 -7.86635 3.39089 71 47 125 255 
15.1155 -7.94229 3.25725 72 24 106 255 
22.1793 -11.6237 4.56871 72 28 110 255 
9.62206 -5.04714 1.87483 72 36 117 255 
9.73018 -5.1124 1.78811 43 117 142 255 
9.75884 -5.13853 1.69162 33 144 141 255 
9.76997 -5.12237 1.60144 31 156 137 255 
9.76285 -5.12315 1.49265 32 146 140 255 
9.75725 -5.13314 1.38693 33 143 141 255 
9.76958 -5.14854 1.28751 33 143 141 255 
9.69332 -5.08218 1.18705 63 71 136 255 
9.76171 -5.12908 1.09094 33 143 141 255 
9.77565 -5.145 0.987855 34 140 141 255 
9.76903 -5.15477 0.884829 39 128 142 255 
9.76635 -5.12265 0.796322 48 105 142 255 
9.76625 -5.13364 0.692224 33 143 141 255 
9.77774 -5.15264 0.5889 38 130 142 255 
9.76703 -5.15808 0.484184 45 113 142 255 
9.81463 -5.15233 0.398713 34 140 141 255 
9.80322 -5.15744 0.293933 39 128 142 255 
9.77778 -5.15484 0.189078 41 123 142 255 
9.75751 -5.1574 0.0866835 62 73 137 255 
9.80503 -5.14947 -0.00193295 46 110 142 255 
