ply
format ascii 1.0
comment VTK generated PLY File
obj_info vtkPolyData points and polygons: vtk4.0
element vertex 1183
property float x
property float y
property float z
property uchar red
property uchar green
property uchar blue
property uchar alpha
element face 0
property list uchar int vertex_indices
end_header
-16.7924 10.3454 3.02514 58 83 139 255 
-16.7144 10.2567 2.84687 70 48 126 255 
-9.51162 5.8415 1.51117 66 65 134 255 
-9.78763 6.02501 1.44584 69 55 129 255 
-9.48888 5.85045 1.29967 56 88 140 255 
-9.70301 5.9542 1.23471 68 58 131 255 
-9.78944 6.01918 1.13692 55 91 141 255 
-10.2062 6.28511 1.07185 69 53 129 255 
-14.8506 9.16701 1.39803 72 33 115 255 
-13.6521 8.38081 1.15671 64 70 136 255 
-13.1909 8.11379 0.971618 72 38 119 255 
-9.58816 5.91146 0.60018 60 79 138 255 
-9.39522 5.80401 0.484096 55 90 140 255 
-9.40647 5.779 0.397096 52 97 141 255 
-8.48558 5.22361 0.26441 53 95 141 255 
-7.71605 4.75909 0.155076 52 96 141 255 
-7.71104 4.7673 0.0712035 47 108 142 255 
-7.72212 4.74605 -0.00158197 52 97 141 255 
-7.71928 4.7556 -0.0870356 51 99 141 255 
-7.69628 4.75061 -0.170503 55 90 140 255 
-7.67508 4.74877 -0.255255 57 86 140 255 
-6.93578 4.26775 -0.295767 50 100 142 255 
-6.95487 4.28802 -0.37245 47 107 142 255 
-6.93502 4.28238 -0.448558 47 107 142 255 
-6.94015 4.29572 -0.526385 50 102 142 255 
-6.9333 4.2679 -0.590739 51 98 141 255 
-6.91109 4.26436 -0.6648 51 99 141 255 
-6.64766 4.10974 -0.714013 63 71 136 255 
-6.13944 3.80011 -0.728325 60 79 138 255 
-6.16025 3.79647 -0.788653 52 97 141 255 
-6.16023 3.80254 -0.858111 50 100 142 255 
-6.15739 3.80813 -0.927445 49 103 142 255 
-6.12676 3.79521 -0.992362 55 91 141 255 
-6.16758 3.80545 -1.05853 43 117 142 255 
-6.16366 3.80762 -1.12675 50 102 142 255 
-6.13764 3.7974 -1.19095 51 99 141 255 
-6.06196 3.75507 -1.24708 69 55 129 255 
-5.73892 3.54648 -1.23818 55 91 141 255 
-5.45392 3.37313 -1.23722 54 93 141 255 
-5.20549 3.22067 -1.24205 58 84 140 255 
-4.98587 3.08729 -1.24971 61 77 138 255 
-4.76873 2.95038 -1.24421 58 84 140 255 
-4.57261 2.83026 -1.24548 62 76 138 255 
-4.38326 2.71407 -1.24629 65 68 135 255 
-4.22582 2.61462 -1.25373 68 59 132 255 
-4.06385 2.51917 -1.2499 67 62 133 255 
-3.90451 2.42051 -1.24642 66 65 134 255 
-3.741 2.31729 -1.24026 67 61 132 255 
-3.62418 2.24063 -1.24839 69 56 130 255 
-16.8578 10.4998 5.96593 65 66 135 255 
-16.8748 10.4904 5.74638 62 76 138 255 
-16.8502 10.4667 5.52721 61 77 138 255 
-16.8549 10.4701 5.32783 61 77 138 255 
-16.8375 10.475 5.14684 62 74 137 255 
-16.8431 10.4747 4.93796 60 79 138 255 
-16.8437 10.4789 4.73689 62 73 137 255 
-16.8111 10.4632 4.5351 66 64 134 255 
-16.8387 10.4717 4.37426 63 71 136 255 
-16.8147 10.4611 4.16238 62 74 137 255 
-16.8136 10.4724 3.96888 61 78 138 255 
-16.8035 10.4747 3.77723 62 74 137 255 
-16.7873 10.4397 3.60683 59 81 139 255 
-16.7937 10.4521 3.41316 58 83 139 255 
-16.7985 10.4712 3.22024 58 83 139 255 
-16.7965 10.4907 3.03742 60 80 139 255 
-10.0288 6.23915 1.71465 63 72 137 255 
-16.7253 10.4136 2.66735 67 61 132 255 
-9.47271 5.91161 1.40465 72 33 115 255 
-9.68106 6.05124 1.33105 72 37 118 255 
-9.70175 6.03568 1.23924 60 80 139 255 
-9.79371 6.10493 1.14174 64 70 136 255 
-9.93168 6.20045 1.047 59 81 139 255 
-14.68 9.18657 1.38725 72 28 110 255 
-13.8045 8.59143 1.17406 72 40 120 255 
-13.0181 8.118 0.962538 68 59 132 255 
-9.5932 5.99611 0.602787 56 88 140 255 
-9.49574 5.94692 0.491147 57 86 140 255 
-9.40816 5.85985 0.398677 52 97 141 255 
-8.45337 5.27557 0.26441 50 100 142 255 
-7.68671 4.80635 0.155076 54 93 141 255 
-7.68418 4.81612 0.071227 51 99 141 255 
-7.69031 4.79175 -0.00158144 51 99 141 255 
-7.6891 4.80234 -0.087026 47 107 142 255 
-7.67038 4.79986 -0.170578 54 93 141 255 
-7.65596 4.80215 -0.255594 61 77 138 255 
-6.912 4.31182 -0.295876 50 101 142 255 
-6.92758 4.33008 -0.372404 50 102 142 255 
-6.91116 4.32644 -0.448723 51 99 141 255 
-6.91197 4.33717 -0.526257 49 103 142 255 
-6.92052 4.31881 -0.591897 44 113 142 255 
-6.90254 4.31778 -0.666514 52 97 141 255 
-6.61725 4.14728 -0.713467 65 68 135 255 
-6.13371 3.84882 -0.730433 57 86 140 255 
-6.12756 3.82841 -0.787461 51 98 141 255 
-6.13173 3.8371 -0.857405 51 99 141 255 
-6.1381 3.84847 -0.92808 52 97 141 255 
-6.11259 3.83853 -0.993863 55 90 140 255 
-6.14999 3.84689 -1.05954 42 118 142 255 
-6.13264 3.84065 -1.12537 52 96 141 255 
-6.11255 3.83394 -1.19062 51 98 141 255 
-6.0338 3.78905 -1.24605 63 72 137 255 
-5.70705 3.57536 -1.23601 55 90 140 255 
-5.41399 3.39453 -1.23286 56 89 140 255 
-5.18397 3.25151 -1.24165 56 88 140 255 
-4.95606 3.11106 -1.247 59 81 139 255 
-4.76377 2.98788 -1.24767 56 88 140 255 
-4.54443 2.85154 -1.24255 61 78 138 255 
-4.37723 2.74763 -1.24935 63 71 136 255 
-4.1908 2.62865 -1.2481 68 58 131 255 
-4.03439 2.53531 -1.2456 65 68 135 255 
-3.89204 2.44596 -1.2472 65 68 135 255 
-3.75117 2.35556 -1.2484 65 66 135 255 
-3.60549 2.25977 -1.2467 67 62 133 255 
-16.8521 10.6404 5.98693 65 68 135 255 
-16.8451 10.6157 5.75833 62 73 137 255 
-16.8558 10.614 5.5503 64 70 136 255 
-16.8067 10.5836 5.33301 62 74 137 255 
-16.8122 10.6029 5.1589 63 71 136 255 
-16.8302 10.6105 4.95318 57 85 140 255 
-16.826 10.6117 4.75012 64 69 136 255 
-16.7969 10.5979 4.54872 66 63 133 255 
-16.8113 10.5982 4.38395 63 72 137 255 
-16.8289 10.6137 4.18192 61 77 138 255 
-16.7905 10.6016 3.9787 61 77 138 255 
-16.7804 10.6039 3.7866 62 76 138 255 
-16.7853 10.5818 3.62029 57 85 140 255 
-16.7584 10.5734 3.41911 60 79 138 255 
-16.7714 10.5978 3.22746 58 83 139 255 
-16.7727 10.6194 3.04485 60 79 138 255 
-16.7555 10.5671 2.87575 56 89 140 255 
-13.6443 8.61191 2.18438 45 112 142 255 
-16.6807 10.5527 2.48304 69 55 129 255 
-9.97516 6.32052 1.37679 68 59 132 255 
-9.43076 5.94766 1.20927 49 104 142 255 
-9.43386 5.96131 1.10403 66 65 134 255 
-9.74616 6.16806 1.03141 72 41 121 255 
-10.169 6.45076 0.96468 69 56 130 255 
-13.35 8.42264 1.13978 68 58 131 255 
-12.7968 8.08946 0.949827 64 70 136 255 
-9.59419 6.07891 0.605181 54 92 141 255 
-9.59065 6.0886 0.497979 58 83 139 255 
-9.54272 6.02524 0.405939 49 103 142 255 
-8.42675 5.33108 0.264596 52 97 141 255 
-7.66889 4.86092 0.155316 52 97 141 255 
-7.65449 4.86318 0.071227 51 98 141 255 
-7.66161 4.83938 -0.00158162 51 99 141 255 
-7.64259 4.83873 -0.086834 52 97 141 255 
-7.64585 4.85005 -0.170691 54 93 141 255 
-7.63057 4.85172 -0.255736 55 90 140 255 
-6.89386 4.35949 -0.296239 46 109 142 255 
-6.90594 4.37572 -0.372678 47 108 142 255 
-6.89207 4.37358 -0.449218 50 102 142 255 
-6.88692 4.38057 -0.526385 48 106 142 255 
-6.89726 4.36332 -0.592186 47 108 142 255 
-6.89023 4.36913 -0.667901 45 112 142 255 
-6.58075 4.18086 -0.712284 62 73 137 255 
-6.11082 3.88691 -0.730533 55 91 141 255 
-6.11655 3.87391 -0.789087 48 105 142 255 
-6.11059 3.87625 -0.857758 45 112 142 255 
-6.11019 3.8834 -0.927445 51 98 141 255 
-6.0931 3.87863 -0.994545 53 94 141 255 
-6.11457 3.87714 -1.05752 47 107 142 255 
-6.09645 3.87026 -1.12306 53 94 141 255 
-6.08225 3.86714 -1.18932 56 89 140 255 
-5.98301 3.80855 -1.24037 63 71 136 255 
-5.69414 3.61612 -1.238 58 84 140 255 
-5.3856 3.42295 -1.23116 57 86 140 255 
-5.17302 3.28904 -1.24384 56 89 140 255 
-4.92945 3.13669 -1.24512 59 81 139 255 
-4.75276 3.02177 -1.24962 55 90 140 255 
-4.52027 2.87518 -1.24075 61 78 138 255 
-4.34717 2.76609 -1.24559 62 76 138 255 
-4.16232 2.64651 -1.24444 69 55 129 255 
-4.0057 2.5517 -1.24155 66 63 133 255 
-3.87858 2.47083 -1.24773 64 69 136 255 
-3.73258 2.37595 -1.24704 65 66 135 255 
-3.57697 2.27258 -1.24164 69 53 129 255 
-16.8027 10.7539 5.99268 64 70 136 255 
-16.8339 10.7535 5.77694 64 69 136 255 
-16.8236 10.7385 5.5613 63 72 137 255 
-16.8025 10.7255 5.35246 63 71 136 255 
-16.8015 10.7408 5.17573 60 79 138 255 
-16.8 10.736 4.96357 59 81 139 255 
-16.7892 10.7331 4.75825 65 66 135 255 
-16.8071 10.749 4.56926 68 59 132 255 
-16.8011 10.7364 4.39839 62 73 137 255 
-16.798 10.7389 4.19056 59 81 139 255 
-16.768 10.7319 3.98891 62 74 137 255 
-16.7556 10.7326 3.79578 63 72 137 255 
-16.7706 10.7169 3.63124 57 86 140 255 
-16.7563 10.7164 3.43204 55 90 140 255 
-16.7344 10.7186 3.23292 60 80 139 255 
-16.7513 10.7504 3.05289 58 83 139 255 
-16.7512 10.7086 2.88624 55 90 140 255 
-16.7465 10.7142 2.6915 54 93 141 255 
-9.50135 6.09275 1.41988 61 77 138 255 
-9.59771 6.16422 1.32989 68 59 132 255 
-9.69648 6.19872 1.24819 62 73 137 255 
-15.9342 10.2062 1.87205 72 27 109 255 
-10.1147 6.48857 1.07461 72 41 121 255 
-13.7009 8.80966 1.30484 72 41 121 255 
-13.1796 8.42863 1.12963 68 57 131 255 
-12.299 7.88083 0.916453 71 45 123 255 
-9.71551 6.23966 0.615237 55 91 141 255 
-9.60184 6.17869 0.500519 57 85 140 255 
-9.63183 6.16449 0.41133 53 95 141 255 
-8.39977 5.38647 0.264781 50 100 142 255 
-7.63472 4.90518 0.15523 54 93 141 255 
-7.62955 4.9133 0.0712742 50 102 142 255 
-7.64272 4.89331 -0.00158389 46 109 142 255 
-7.64053 4.90336 -0.0871508 50 102 142 255 
-7.61679 4.89741 -0.17071 56 88 140 255 
-7.58805 4.89032 -0.255311 62 74 137 255 
-6.85773 4.39577 -0.29584 55 91 141 255 
-6.87728 4.41693 -0.372587 48 106 142 255 
-6.87602 4.42281 -0.449932 50 102 142 255 
-6.85487 4.4195 -0.525999 51 99 141 255 
-6.85609 4.39641 -0.590956 48 105 142 255 
-6.86245 4.41079 -0.667819 46 111 142 255 
-6.52651 4.20283 -0.709191 66 65 134 255 
-6.07682 3.91786 -0.729329 56 88 140 255 
-6.10271 3.91781 -0.790387 53 95 141 255 
-6.09254 3.91743 -0.858582 50 100 142 255 
-6.08291 3.91867 -0.926936 52 96 141 255 
-6.06669 3.91433 -0.994136 55 91 141 255 
-6.08484 3.91084 -1.05651 51 99 141 255 
-6.07341 3.90813 -1.12322 53 94 141 255 
-6.06919 3.91133 -1.19144 58 83 139 255 
-5.97195 3.8532 -1.24295 62 76 138 255 
-5.67515 3.65312 -1.23872 56 88 140 255 
-5.36037 3.45327 -1.23021 56 89 140 255 
-5.12144 3.30055 -1.23628 60 80 139 255 
-4.89943 3.15999 -1.24241 61 78 138 255 
-4.71197 3.0366 -1.24377 56 88 140 255 
-4.50173 2.90234 -1.24052 62 74 137 255 
-4.33011 2.79271 -1.24559 60 79 138 255 
-4.13541 2.66517 -1.24126 68 59 132 255 
-3.99241 2.57781 -1.24231 67 62 133 255 
-3.86335 2.49458 -1.24773 65 68 135 255 
-3.71713 2.39828 -1.24677 66 63 133 255 
-3.5791 2.30488 -1.24727 70 51 127 255 
-16.8328 10.9194 6.02721 64 69 136 255 
-16.8176 10.889 5.79417 62 74 137 255 
-16.8318 10.8897 5.58599 62 76 138 255 
-16.7858 10.8604 5.36828 63 71 136 255 
-16.7921 10.8805 5.19332 62 73 137 255 
-16.7818 10.87 4.97782 59 82 139 255 
-16.7851 10.8761 4.77591 63 72 137 255 
-16.7882 10.8827 4.58221 67 61 132 255 
-16.7858 10.8722 4.41174 62 76 138 255 
-16.7729 10.8684 4.20084 59 81 139 255 
-16.7521 10.8671 4.0009 62 73 137 255 
-16.7866 10.8983 3.81789 63 71 136 255 
-16.7558 10.8528 3.64237 60 79 138 255 
-16.7481 10.8565 3.44394 55 91 141 255 
-16.7221 10.856 3.24336 59 82 139 255 
-16.7124 10.8708 3.05789 60 80 139 255 
-16.6744 10.8042 2.88437 68 57 131 255 
-16.717 10.8405 2.6974 54 92 141 255 
-16.7197 10.8669 2.50851 59 82 139 255 
-9.79446 6.3758 1.36255 66 63 133 255 
-9.67411 6.26837 1.25024 66 63 133 255 
-9.75646 6.33402 1.1508 70 50 126 255 
-10.1424 6.59449 1.08182 69 55 129 255 
-13.4186 8.74499 1.28305 72 41 121 255 
-12.9577 8.3992 1.11501 70 52 128 255 
-10.1872 6.61617 0.762103 64 69 136 255 
-9.7691 6.35908 0.62109 58 84 140 255 
-9.69763 6.32481 0.507526 56 88 140 255 
-9.64413 6.25611 0.413487 53 95 141 255 
-8.37997 5.44662 0.265206 51 98 141 255 
-7.60531 4.95248 0.155247 54 92 141 255 
-7.60344 4.96276 0.0713134 52 97 141 255 
-7.61674 4.94284 -0.00158476 53 95 141 255 
-7.61282 4.95178 -0.0871796 53 95 141 255 
-7.58492 4.94297 -0.170673 56 88 140 255 
-7.53531 4.92203 -0.254548 58 83 139 255 
-6.82811 4.43614 -0.295731 48 105 142 255 
-6.84168 4.45359 -0.372131 46 111 142 255 
-6.85042 4.46601 -0.450042 50 102 142 255 
-6.82178 4.45765 -0.525549 46 111 142 255 
-6.82982 4.43894 -0.591028 46 109 142 255 
-6.82858 4.44846 -0.667166 48 106 142 255 
-6.46474 4.21939 -0.705279 64 69 136 255 
-6.06766 3.96487 -0.731135 55 91 141 255 
-6.08605 3.96007 -0.791362 51 99 141 255 
-6.0767 3.96016 -0.859759 53 94 141 255 
-6.06291 3.95864 -0.927572 57 86 140 255 
-6.06411 3.96558 -0.997682 56 89 140 255 
-6.06819 3.95296 -1.05781 48 106 142 255 
-6.06174 3.95342 -1.12552 55 91 141 255 
-6.06077 3.95875 -1.19453 59 81 139 255 
-5.9317 3.87899 -1.2395 61 78 138 255 
-5.63698 3.67766 -1.23529 58 83 139 255 
-5.33908 3.4861 -1.23021 60 80 139 255 
-5.11175 3.33887 -1.23887 57 85 140 255 
-4.85866 3.17607 -1.237 64 69 136 255 
-4.68753 3.06171 -1.24226 57 86 140 255 
-4.4716 2.92191 -1.23714 60 79 138 255 
-4.32673 2.82827 -1.24958 61 78 138 255 
-4.13116 2.69845 -1.24492 66 63 133 255 
-3.97247 2.5996 -1.24105 65 66 135 255 
-3.84878 2.51877 -1.24799 65 66 135 255 
-3.69428 2.41578 -1.24406 69 56 130 255 
-3.57534 2.33362 -1.25092 68 58 131 255 
-16.7983 11.044 6.039 64 69 136 255 
-16.7914 11.0189 5.80833 62 74 137 255 
-16.8106 11.0228 5.60129 63 71 136 255 
-16.7746 10.9997 5.38618 65 68 135 255 
-16.7679 11.0115 5.20663 62 74 137 255 
-16.757 11.0005 4.99038 60 80 139 255 
-16.7839 11.0221 4.79472 67 62 133 255 
-16.7554 11.008 4.59159 68 59 132 255 
-16.7734 11.0109 4.42618 64 69 136 255 
-16.7623 11.0082 4.21504 63 72 137 255 
-16.7498 11.0123 4.01642 62 76 138 255 
-16.7367 11.0124 3.82183 65 68 135 255 
-16.7398 10.9889 3.6535 58 83 139 255 
-16.7323 10.9926 3.45448 59 81 139 255 
-16.6989 10.9871 3.25187 59 81 139 255 
-16.7031 11.0112 3.0685 57 85 140 255 
-13.5951 8.92791 2.36114 48 106 142 255 
-16.7189 10.988 2.70854 57 85 140 255 
-16.6875 10.9922 2.51375 59 81 139 255 
-16.7204 11.031 2.33542 67 62 133 255 
-16.7488 10.999 2.17323 70 52 128 255 
-14.9066 9.80807 1.76533 70 51 127 255 
-14.325 9.43959 1.53411 70 52 128 255 
-11.5448 7.62515 1.10833 69 53 129 255 
-12.1815 8.00266 1.05242 72 37 118 255 
-9.96132 6.55674 0.748203 56 88 140 255 
-9.75824 6.43759 0.622899 55 90 140 255 
-9.72032 6.42496 0.510767 55 91 141 255 
-9.72831 6.39587 0.418771 53 95 141 255 
-8.35057 5.50069 0.265339 50 102 142 255 
-7.57061 4.99629 0.155162 54 92 141 255 
-7.57869 5.01318 0.0713684 49 103 142 255 
-7.59797 4.99717 -0.0015872 50 101 142 255 
-7.57394 4.9929 -0.0870836 50 100 142 255 
-7.56362 4.99547 -0.17088 56 88 140 255 
-7.44245 4.92679 -0.252428 61 77 138 255 
-6.82414 4.49334 -0.296747 46 111 142 255 
-6.81589 4.49659 -0.372222 44 114 142 255 
-6.81956 4.50576 -0.449822 50 100 142 255 
-6.79846 4.50218 -0.52587 48 106 142 255 
-6.82911 4.49832 -0.593344 45 113 142 255 
-6.80947 4.49576 -0.667982 46 109 142 255 
-6.43872 4.25898 -0.705279 63 71 136 255 
-6.05483 4.00972 -0.73254 51 99 141 255 
-6.06413 3.99898 -0.791687 50 101 142 255 
-6.04981 3.99573 -0.859406 49 103 142 255 
-6.03767 3.99521 -0.927445 53 95 141 255 
-6.03554 3.99997 -0.997 53 95 141 255 
-6.05208 3.99557 -1.05925 47 107 142 255 
-6.02747 3.984 -1.12368 56 88 140 255 
-6.03554 3.99532 -1.19437 54 93 141 255 
-5.89301 3.90552 -1.2364 59 82 139 255 
-5.61267 3.71109 -1.23493 58 83 139 255 
-5.31186 3.515 -1.22889 58 84 140 255 
-5.09199 3.37072 -1.23906 58 83 139 255 
-4.83908 3.20583 -1.237 59 82 139 255 
-4.67028 3.0915 -1.24269 56 89 140 255 
-4.46658 2.9579 -1.24075 59 81 139 255 
-4.28822 2.84081 -1.24347 59 82 139 255 
-4.10482 2.71733 -1.24199 65 68 135 255 
-3.94112 2.61377 -1.23624 66 63 133 255 
-3.83084 2.54074 -1.2472 69 55 129 255 
-3.681 2.43946 -1.2446 70 52 128 255 
-3.54254 2.34333 -1.24445 68 57 131 255 
-16.794 11.1894 6.06202 65 68 135 255 
-16.7787 11.1584 5.8275 63 71 136 255 
-16.7699 11.1439 5.61042 65 68 135 255 
-16.7414 11.1254 5.39733 65 66 135 255 
-16.7734 11.163 5.2295 61 77 138 255 
-16.7708 11.1574 5.01478 62 76 138 255 
-16.771 11.1615 4.81051 66 65 134 255 
-16.7265 11.1365 4.6023 68 59 132 255 
-16.747 11.1412 4.43716 65 68 135 255 
-16.7287 11.1336 4.22368 63 71 136 255 
-16.7464 11.1578 4.03194 64 69 136 255 
-16.7187 11.1482 3.83326 67 61 132 255 
-16.7303 11.1301 3.66624 58 84 140 255 
-16.7474 11.1502 3.47166 58 84 140 255 
-16.6985 11.1343 3.26504 57 86 140 255 
-16.7018 11.158 3.08078 60 79 138 255 
-16.6872 11.1056 2.90994 57 85 140 255 
-16.6941 11.119 2.71552 58 84 140 255 
-16.6833 11.1368 2.52336 59 82 139 255 
-16.6887 11.1576 2.34051 63 71 136 255 
-16.7357 11.1379 2.18035 68 57 131 255 
-14.6731 9.78397 1.74476 69 56 130 255 
-13.6489 9.11467 1.46766 71 47 125 255 
-11.4142 7.63985 1.10027 69 56 130 255 
-11.4738 7.63892 0.995312 65 66 135 255 
-9.85863 6.5762 0.743506 57 85 140 255 
-9.78331 6.54064 0.627049 50 100 142 255 
-9.74628 6.52841 0.514226 59 81 139 255 
-9.75375 6.49866 0.421575 55 90 140 255 
-8.30669 5.54516 0.26502 50 100 142 255 
-7.53732 5.04099 0.155111 54 93 141 255 
-7.54197 5.05569 0.0713134 53 94 141 255 
-7.56633 5.04314 -0.00158703 50 101 142 255 
-7.55563 5.04761 -0.0872276 51 99 141 255 
-7.54031 5.04679 -0.17105 62 74 137 255 
-7.38967 4.95733 -0.251665 66 64 134 255 
-6.79394 4.53346 -0.296638 49 103 142 255 
-6.80312 4.54832 -0.373042 47 107 142 255 
-6.78515 4.54307 -0.449383 50 102 142 255 
-6.78479 4.55327 -0.526964 50 102 142 255 
-6.80138 4.54013 -0.593344 47 108 142 255 
-6.77927 4.5358 -0.667738 49 103 142 255 
-6.4042 4.29286 -0.704369 64 69 136 255 
-6.03341 4.04902 -0.732942 51 98 141 255 
-6.05436 4.04605 -0.793637 44 113 142 255 
-6.02435 4.03223 -0.859288 53 95 141 255 
-6.02293 4.03882 -0.928969 50 101 142 255 
-6.00594 4.03362 -0.996182 51 98 141 255 
-6.02416 4.03043 -1.05867 43 116 142 255 
-6.01441 4.02861 -1.12583 49 103 142 255 
-5.99453 4.02129 -1.19111 54 92 141 255 
-5.85667 3.93336 -1.23382 62 73 137 255 
-5.59388 3.7482 -1.23583 53 94 141 255 
-5.29263 3.54916 -1.22945 57 85 140 255 
-5.05656 3.39207 -1.23548 59 82 139 255 
-4.83556 3.24636 -1.24116 58 84 140 255 
-4.65771 3.12445 -1.24442 58 84 140 255 
-4.44754 2.98471 -1.24052 59 81 139 255 
-4.24166 2.84756 -1.23502 62 73 137 255 
-4.0784 2.73598 -1.23905 65 66 135 255 
-3.93063 2.64168 -1.23801 66 65 134 255 
-3.80797 2.55935 -1.24485 68 59 132 255 
-3.6292 2.43732 -1.23212 67 61 132 255 
-3.5281 2.36503 -1.24445 69 56 130 255 
-16.7742 11.3254 6.07985 65 68 135 255 
-16.7768 11.3062 5.85084 63 71 136 255 
-16.7819 11.301 5.63753 64 69 136 255 
-16.7705 11.2938 5.42896 65 68 135 255 
-16.7607 11.3036 5.24708 62 76 138 255 
-16.7439 11.2883 5.02735 62 74 137 255 
-16.7248 11.2794 4.81701 66 64 134 255 
-16.7063 11.2717 4.6157 68 59 132 255 
-16.7293 11.2782 4.45073 65 68 135 255 
-16.759 11.3028 4.24877 62 73 137 255 
-16.7215 11.29 4.04255 62 76 138 255 
-16.6849 11.2742 3.84132 69 56 130 255 
-16.709 11.2644 3.67665 58 83 139 255 
-16.7056 11.271 3.47727 58 83 139 255 
-16.7059 11.2879 3.27997 61 77 138 255 
-13.58 9.19339 2.51529 54 92 141 255 
-16.6926 11.2576 2.92287 55 90 140 255 
-16.697 11.2694 2.72719 54 92 141 255 
-16.673 11.2784 2.53222 57 85 140 255 
-16.6635 11.2894 2.34665 62 73 137 255 
-16.7057 11.2665 2.18541 68 57 131 255 
-14.4033 9.7323 1.71975 69 56 130 255 
-13.3675 9.04585 1.44335 71 44 122 255 
-11.2483 7.62917 1.08877 65 66 135 255 
-11.306 7.62774 0.984797 65 66 135 255 
-9.79743 6.62259 0.741941 50 102 142 255 
-9.76283 6.61399 0.628326 58 84 140 255 
-9.74324 6.61333 0.516197 61 78 138 255 
-9.74434 6.57908 0.422905 63 71 136 255 
-8.28327 5.60331 0.265365 51 99 141 255 
-7.52363 5.09892 0.15547 52 96 141 255 
-7.52404 5.11086 0.0714391 51 99 141 255 
-7.53027 5.08612 -0.00158598 55 90 140 255 
-7.5328 5.09948 -0.0873236 50 101 142 255 
-7.52078 5.10082 -0.171313 54 92 141 255 
-7.29546 4.9593 -0.249488 66 64 134 255 
-6.77842 4.58346 -0.297182 46 110 142 255 
-6.77922 4.59278 -0.37327 51 98 141 255 
-6.77697 4.59807 -0.450701 52 97 141 255 
-6.76003 4.59705 -0.527222 49 103 142 255 
-6.761 4.5734 -0.592258 51 99 141 255 
-6.74884 4.57563 -0.667493 53 94 141 255 
-6.37032 4.32704 -0.70355 63 71 136 255 
-5.99858 4.07925 -0.731737 56 89 140 255 
-6.01954 4.07644 -0.792337 47 108 142 255 
-6.00689 4.07413 -0.860348 49 104 142 255 
-6.01198 4.08517 -0.931129 54 92 141 255 
-5.98763 4.07485 -0.997273 51 98 141 255 
-6.0075 4.07287 -1.06012 48 106 142 255 
-5.99366 4.06821 -1.1266 55 90 140 255 
-5.97219 4.05965 -1.1916 56 88 140 255 
-5.82672 3.96535 -1.23261 64 70 136 255 
-5.55206 3.76974 -1.23168 57 85 140 255 
-5.2537 3.56998 -1.22548 60 80 139 255 
-5.02349 3.41477 -1.2325 59 82 139 255 
-4.81394 3.27487 -1.24075 56 88 140 255 
-4.63926 3.15352 -1.24464 53 94 141 255 
-4.42834 3.01139 -1.24029 61 78 138 255 
-4.22893 2.87681 -1.23643 67 61 132 255 
-4.07998 2.77349 -1.24468 67 62 133 255 
-3.91195 2.66412 -1.23725 67 61 132 255 
-3.78501 2.57778 -1.24249 66 63 133 255 
-3.62612 2.46766 -1.23619 67 62 133 255 
-3.49129 2.37153 -1.23658 70 52 128 255 
-16.7763 11.4773 6.10604 65 66 135 255 
-16.7904 11.4658 5.88001 64 70 136 255 
-16.7513 11.4303 5.65068 64 69 136 255 
-16.7273 11.4144 5.43752 63 71 136 255 
-16.7182 11.4248 5.25562 62 73 137 255 
-16.7312 11.4297 5.0445 61 77 138 255 
-16.7083 11.4181 4.83234 65 66 135 255 
-16.7213 11.4317 4.63914 69 56 130 255 
-16.7413 11.4362 4.47249 63 71 136 255 
-16.7241 11.4291 4.25761 62 76 138 255 
-16.7182 11.4377 4.05866 63 72 137 255 
-16.6633 11.4091 3.85237 68 58 131 255 
-16.7005 11.4084 3.69012 60 80 139 255 
-16.6687 11.3955 3.48407 59 81 139 255 
-16.6705 11.4136 3.28671 59 81 139 255 
-13.5233 9.27654 2.51529 68 57 131 255 
-16.6649 11.3883 2.9302 59 82 139 255 
-16.6505 11.3873 2.73094 58 84 140 255 
-16.6501 11.4125 2.53934 58 84 140 255 
-16.6152 11.406 2.34966 62 73 137 255 
-16.6691 11.3912 2.18973 66 63 133 255 
-14.1175 9.66589 1.69267 70 52 128 255 
-11.116 7.6221 1.20527 70 50 126 255 
-11.0378 7.58569 1.07288 68 59 132 255 
-11.1297 7.60859 0.97349 62 74 137 255 
-9.76237 6.68653 0.742379 58 84 140 255 
-9.72947 6.67885 0.628805 61 78 138 255 
-9.71565 6.68205 0.516898 61 77 138 255 
-9.69719 6.63423 0.422618 64 69 136 255 
-8.25368 5.65742 0.265524 53 95 141 255 
-7.49962 5.15008 0.155624 59 82 139 255 
-7.48925 5.15466 0.0714077 51 99 141 255 
-7.49397 5.12884 -0.00158493 52 97 141 255 
-7.4989 5.14391 -0.0872948 48 105 142 255 
-7.50335 5.1565 -0.171634 60 80 139 255 
-7.2262 4.97733 -0.248159 65 66 135 255 
-6.75016 4.62496 -0.297182 52 97 141 255 
-6.74268 4.62864 -0.372814 49 103 142 255 
-6.74452 4.63674 -0.450427 50 101 142 255 
-6.74156 4.64524 -0.527994 51 99 141 255 
-6.73199 4.61423 -0.592186 50 100 142 255 
-6.72063 4.61696 -0.667493 59 81 139 255 
-6.33135 4.35758 -0.702185 66 64 134 255 
-5.98655 4.12501 -0.733343 48 105 142 255 
-5.99195 4.11161 -0.792012 49 104 142 255 
-5.98423 4.1126 -0.860701 52 97 141 255 
-5.99007 4.12423 -0.931638 55 90 140 255 
-5.9723 4.11826 -0.99891 53 94 141 255 
-5.98648 4.11245 -1.06084 47 108 142 255 
-5.97836 4.11163 -1.12844 55 90 140 255 
-5.97804 4.11749 -1.19779 52 97 141 255 
-5.76904 3.9781 -1.22555 64 70 136 255 
-5.52234 3.79928 -1.23024 53 95 141 255 
-5.22199 3.59547 -1.2232 55 90 140 255 
-4.98792 3.43552 -1.22892 57 86 140 255 
-4.78489 3.29824 -1.23845 56 89 140 255 
-4.58445 3.15756 -1.23511 55 91 141 255 
-4.40978 3.03851 -1.24029 58 83 139 255 
-4.2112 2.90271 -1.23643 65 66 135 255 
-4.04931 2.78912 -1.24052 64 69 136 255 
-3.89155 2.68532 -1.23599 68 59 132 255 
-3.76753 2.59986 -1.24197 68 59 132 255 
-3.63309 2.50517 -1.24378 67 62 133 255 
-3.47193 2.38964 -1.2349 68 58 131 255 
-16.7292 11.5964 6.11467 65 68 135 255 
-16.7505 11.59 5.89085 63 71 136 255 
-16.7141 11.5559 5.66196 63 72 137 255 
-16.7363 11.5718 5.46345 64 69 136 255 
-16.686 11.5536 5.26768 63 72 137 255 
-16.7206 11.5735 5.06262 62 74 137 255 
-16.717 11.5752 4.85534 65 68 135 255 
-16.6997 11.568 4.65276 67 62 133 255 
-16.7061 11.5632 4.48197 65 68 135 255 
-16.6923 11.5583 4.26749 64 69 136 255 
-16.688 11.568 4.06848 64 69 136 255 
-16.6769 11.5694 3.87186 66 65 134 255 
-16.6601 11.5313 3.69676 60 79 138 255 
-16.6519 11.5346 3.49529 59 81 139 255 
-16.661 11.5579 3.29876 60 80 139 255 
-16.6413 11.5662 3.10838 61 78 138 255 
-16.6557 11.5326 2.94097 55 90 140 255 
-16.6764 11.5559 2.74677 58 83 139 255 
-16.6164 11.5399 2.54495 59 82 139 255 
-16.6403 11.5741 2.36321 60 80 139 255 
-16.6798 11.5493 2.2004 68 57 131 255 
-13.493 9.36038 1.62464 67 61 132 255 
-10.9014 7.57366 1.18701 68 57 131 255 
-10.9084 7.59574 1.06481 68 59 132 255 
-10.9656 7.59553 0.963191 62 76 138 255 
-9.70558 6.7355 0.741189 54 93 141 255 
-9.69651 6.74413 0.629337 62 74 137 255 
-9.67201 6.73982 0.516766 62 74 137 255 
-9.63741 6.68051 0.421791 66 65 134 255 
-8.23277 5.71765 0.265975 50 102 142 255 
-7.46295 5.19257 0.155521 59 82 139 255 
-7.4583 5.20109 0.0714155 56 88 140 255 
-7.45743 5.1713 -0.00158389 54 92 141 255 
-7.46473 5.18811 -0.087266 54 92 141 255 
-7.46255 5.19616 -0.171427 62 76 138 255 
-7.16929 5.00326 -0.247254 67 62 133 255 
-6.71427 4.66117 -0.296856 50 102 142 255 
-6.69939 4.65965 -0.371995 51 98 141 255 
-6.71185 4.67519 -0.450152 52 97 141 255 
-6.72193 4.6928 -0.528702 50 102 142 255 
-6.72403 4.66968 -0.593995 46 109 142 255 
-6.69872 4.66266 -0.668146 58 84 140 255 
-6.29306 4.38837 -0.700911 65 66 135 255 
-5.97418 4.17078 -0.734949 44 113 142 255 
-5.97069 4.15113 -0.792554 44 114 142 255 
-5.9703 4.15719 -0.862349 45 112 142 255 
-5.96221 4.15921 -0.931257 50 102 142 255 
-5.95586 4.16107 -1.00041 50 101 142 255 
-5.96438 4.15137 -1.06142 47 107 142 255 
-5.95788 4.15163 -1.12936 49 104 142 255 
-5.9551 4.15579 -1.19828 51 98 141 255 
-5.73967 4.01004 -1.22452 68 59 132 255 
-5.48036 3.82016 -1.22609 53 94 141 255 
-5.19259 3.62239 -1.2215 58 84 140 255 
-4.9579 3.45989 -1.22674 58 84 140 255 
-4.76136 3.3253 -1.23762 57 86 140 255 
-4.54977 3.17501 -1.23099 59 82 139 255 
-4.38865 3.06384 -1.23962 59 82 139 255 
-4.20287 2.93517 -1.23924 61 77 138 255 
-4.02258 2.80726 -1.23759 66 65 134 255 
-3.86945 2.70527 -1.23422 66 63 133 255 
-3.75547 2.62569 -1.24327 66 63 133 255 
-3.61923 2.52851 -1.24433 67 62 133 255 
-3.46193 2.4142 -1.23658 69 56 130 255 
-16.6867 11.7192 6.12531 65 66 135 255 
-16.709 11.7135 5.9014 66 64 134 255 
-16.706 11.7024 5.68343 66 65 134 255 
-16.7062 11.7031 5.47694 65 66 135 255 
-16.7067 11.7202 5.29682 62 73 137 255 
-16.6778 11.696 5.07131 64 69 136 255 
-16.6664 11.6921 4.86138 66 65 134 255 
-16.6851 11.71 4.66861 68 57 131 255 
-16.6996 11.7109 4.49942 64 69 136 255 
-16.7044 11.7189 4.28888 63 72 137 255 
-16.6593 11.7001 4.07889 65 66 135 255 
-16.6972 11.7359 3.89322 64 70 136 255 
-16.676 11.6943 3.71614 59 82 139 255 
-16.6913 11.7141 3.51859 59 82 139 255 
-13.5236 9.5049 2.68907 55 91 141 255 
-16.6185 11.7022 3.11747 59 81 139 255 
-16.6478 11.6789 2.95218 56 88 140 255 
-16.6344 11.6785 2.7516 57 85 140 255 
-16.6273 11.6993 2.55756 58 84 140 255 
-16.5958 11.6949 2.36703 62 73 137 255 
-16.6225 11.6611 2.20223 72 33 115 255 
-13.27 9.32683 1.60466 69 55 129 255 
-10.7749 7.58422 1.17828 66 64 134 255 
-10.7565 7.58841 1.05451 65 68 135 255 
-10.7898 7.57214 0.951812 65 68 135 255 
-9.6657 6.79607 0.741315 61 77 138 255 
-9.65739 6.80522 0.629497 65 66 135 255 
-9.64924 6.8123 0.517774 66 63 133 255 
-9.57579 6.72516 0.420892 72 41 121 255 
-8.19671 5.76748 0.265949 53 94 141 255 
-7.42686 5.23539 0.155436 60 79 138 255 
-7.44339 5.25887 0.0715805 55 90 140 255 
-7.44192 5.22846 -0.00158738 51 99 141 255 
-7.43684 5.23669 -0.087314 50 101 142 255 
-7.43052 5.24185 -0.171427 57 85 140 255 
-7.07806 5.00446 -0.245162 65 66 135 255 
-6.69781 4.7109 -0.2974 52 96 141 255 
-6.67965 4.707 -0.372495 53 95 141 255 
-6.69282 4.72319 -0.450811 51 99 141 255 
-6.6816 4.72589 -0.527801 51 98 141 255 
-6.70014 4.71429 -0.594429 49 104 142 255 
-6.68302 4.71287 -0.669451 53 94 141 255 
-6.23836 4.40736 -0.697818 64 69 136 255 
-5.95822 4.21425 -0.736153 47 107 142 255 
-5.94836 4.18998 -0.792987 46 110 142 255 
-5.9463 4.19488 -0.862584 46 110 142 255 
-5.93577 4.19514 -0.931129 50 102 142 255 
-5.9294 4.19697 -1.00027 52 97 141 255 
-5.94688 4.19359 -1.06287 45 112 142 255 
-5.95812 4.20634 -1.13428 50 102 142 255 
-5.9319 4.19396 -1.19877 50 101 142 255 
-5.71978 4.04859 -1.22555 63 71 136 255 
-5.44638 3.84633 -1.22374 52 97 141 255 
-5.15743 3.64511 -1.21847 56 88 140 255 
-4.92138 3.4795 -1.22296 57 86 140 255 
-4.74326 3.35615 -1.23825 54 93 141 255 
-4.51984 3.19554 -1.22818 58 84 140 255 
-4.36102 3.08452 -1.23714 58 84 140 255 
-4.18478 2.9609 -1.23924 63 71 136 255 
-3.99103 2.82181 -1.23318 66 65 134 255 
-3.8512 2.72784 -1.23371 66 64 134 255 
-3.73062 2.64255 -1.24039 66 64 134 255 
-3.58951 2.54066 -1.23944 68 57 131 255 
-3.45175 2.43871 -1.23827 68 58 131 255 
-16.7066 11.8869 6.15926 65 68 135 255 
-16.7198 11.8747 5.93085 64 69 136 255 
-16.7077 11.8571 5.70866 64 70 136 255 
-16.7167 11.864 5.50417 64 69 136 255 
-16.6842 11.8579 5.31265 62 73 137 255 
-16.6983 11.8638 5.09958 61 77 138 255 
-16.6919 11.8634 4.88994 62 76 138 255 
-16.6701 11.8528 4.68468 68 58 131 255 
-16.6832 11.8527 4.5145 64 69 136 255 
-16.672 11.8496 4.29916 63 71 136 255 
-16.6575 11.8521 4.09618 65 68 135 255 
-16.6337 11.8444 3.89528 66 63 133 255 
-16.6633 11.8386 3.72942 61 77 138 255 
-16.6368 11.8289 3.52233 60 79 138 255 
-13.4698 9.59114 2.69003 68 59 132 255 
-16.6052 11.8459 3.12854 61 78 138 255 
-16.6444 11.8296 2.96439 56 89 140 255 
-16.6254 11.8251 2.76207 57 86 140 255 
-16.6053 11.8368 2.5653 64 70 136 255 
-16.569 11.8288 2.37352 64 70 136 255 
-13.592 9.66018 1.80856 68 58 131 255 
-13.0974 9.32611 1.59068 68 58 131 255 
-10.6081 7.56461 1.1651 64 69 136 255 
-10.5678 7.55283 1.04054 66 64 134 255 
-10.6513 7.57289 0.943674 62 74 137 255 
-9.63439 6.86278 0.742129 57 86 140 255 
-9.62114 6.86841 0.629869 63 71 136 255 
-9.6097 6.87312 0.517905 67 61 132 255 
-8.26489 5.88056 0.364852 71 45 123 255 
-8.16361 5.81941 0.266028 53 95 141 255 
-7.42227 5.30062 0.156017 60 79 138 255 
-7.40042 5.29688 0.0714784 58 83 139 255 
-7.42762 5.28678 -0.00159122 51 98 141 255 
-7.41678 5.29094 -0.087458 49 103 142 255 
-7.4031 5.29083 -0.17154 57 86 140 255 
-7.0269 5.03324 -0.244456 67 61 132 255 
-6.68587 4.76409 -0.298162 46 109 142 255 
-6.66284 4.75661 -0.373179 54 92 141 255 
-6.6629 4.76359 -0.450756 59 82 139 255 
-6.66059 4.77261 -0.528445 56 89 140 255 
-6.67759 4.75994 -0.595008 51 98 141 255 
-6.65398 4.75378 -0.669451 57 85 140 255 
-6.21363 4.4473 -0.698091 62 74 137 255 
-5.9274 4.24725 -0.735551 47 107 142 255 
-5.92011 4.22467 -0.792662 45 113 142 255 
-5.9253 4.23476 -0.86329 48 106 142 255 
-5.91072 4.23206 -0.931257 51 98 141 255 
-5.91642 4.24251 -1.00246 51 98 141 255 
-5.92748 4.2346 -1.06402 46 110 142 255 
-5.93301 4.2434 -1.13443 49 103 142 255 
-5.91648 4.23775 -1.20088 46 111 142 255 
-5.69483 4.08361 -1.22555 64 70 136 255 
-5.41867 3.87682 -1.22284 50 100 142 255 
-5.12379 3.66869 -1.21581 55 91 141 255 
-4.9087 3.51591 -1.22514 54 92 141 255 
-4.69952 3.36866 -1.2322 57 85 140 255 
-4.48825 3.21469 -1.22493 57 86 140 255 
-4.32934 3.10214 -1.23353 58 84 140 255 
-4.16653 2.98653 -1.23924 67 62 133 255 
-3.98783 2.85641 -1.23759 63 72 137 255 
-3.83281 2.75029 -1.23321 66 63 133 255 
-3.69395 2.65076 -1.23359 66 63 133 255 
-3.56446 2.55591 -1.23619 66 64 134 255 
-3.44452 2.46543 -1.24108 68 57 131 255 
-16.6776 12.0211 6.17566 66 64 134 255 
-16.6895 12.008 5.94613 65 66 135 255 
-16.7238 12.0235 5.73926 62 76 138 255 
-16.6868 11.9974 5.51843 64 69 136 255 
-16.6724 12.0041 5.33225 61 78 138 255 
-16.6772 12.0035 5.11552 61 77 138 255 
-16.6598 11.9952 4.90202 63 72 137 255 
-16.6461 11.9902 4.69852 67 61 132 255 
-16.6577 11.9891 4.52742 63 71 136 255 
-16.6387 11.9802 4.30945 62 73 137 255 
-16.6178 11.9782 4.10443 64 69 136 255 
-16.622 11.9904 3.90971 64 70 136 255 
-16.627 11.9671 3.73768 59 82 139 255 
-16.6359 11.9826 3.53763 58 84 140 255 
-16.5943 11.97 3.32862 62 76 138 255 
-16.5955 11.9933 3.14052 59 82 139 255 
-16.5835 11.9401 2.96655 56 88 140 255 
-16.5839 11.9495 2.7673 57 85 140 255 
-16.579 11.9722 2.57254 58 84 140 255 
-16.5726 11.9855 2.38452 62 74 137 255 
-13.3929 9.6429 1.78991 68 58 131 255 
-12.7905 9.22641 1.56026 69 55 129 255 
-10.4436 7.5444 1.1521 64 70 136 255 
-10.4341 7.5544 1.03191 62 73 137 255 
-10.4508 7.52735 0.92999 62 76 138 255 
-9.60909 6.93403 0.743444 61 78 138 255 
-9.57073 6.92147 0.629337 62 76 138 255 
-9.5811 6.94192 0.518649 66 65 134 255 
-8.17758 5.89434 0.362588 70 50 126 255 
-8.1553 5.88929 0.26693 53 95 141 255 
-7.38231 5.34078 0.155863 59 81 139 255 
-7.36859 5.34278 0.0714862 56 89 140 255 
-7.40883 5.3422 -0.00159418 54 93 141 255 
-7.38985 5.34045 -0.0875252 59 82 139 255 
-7.37131 5.33674 -0.171558 54 93 141 255 
-6.98456 5.06804 -0.24406 66 63 133 255 
-6.65246 4.8021 -0.297981 53 95 141 255 
-6.64405 4.80501 -0.373771 54 93 141 255 
-6.64002 4.80906 -0.451196 61 77 138 255 
-6.64733 4.82512 -0.529732 55 91 141 255 
-6.6709 4.81718 -0.597035 47 108 142 255 
-6.63356 4.80095 -0.670348 54 93 141 255 
-6.16042 4.46663 -0.69518 64 69 136 255 
-5.89237 4.27711 -0.734447 47 107 142 255 
-5.91341 4.27489 -0.795262 47 108 142 255 
-5.90724 4.27686 -0.864468 46 109 142 255 
-5.88866 4.27116 -0.931892 54 92 141 255 
-5.87986 4.27116 -1.00068 52 96 141 255 
-5.89898 4.26915 -1.06359 52 97 141 255 
-5.90286 4.27682 -1.13367 51 98 141 255 
-5.90954 4.28788 -1.20479 49 104 142 255 
-5.6617 4.11269 -1.22383 59 82 139 255 
-5.38682 3.90422 -1.22103 50 101 142 255 
-5.09721 3.69717 -1.21487 57 85 140 255 
-4.89021 3.54826 -1.22594 56 89 140 255 
-4.69301 3.40778 -1.23595 56 88 140 255 
-4.47397 3.24618 -1.22645 56 88 140 255 
-4.31259 3.13036 -1.2342 55 90 140 255 
-4.13555 3.0029 -1.23549 67 61 132 255 
-3.97258 2.88253 -1.23832 63 72 137 255 
-3.8143 2.77262 -1.2327 67 62 133 255 
-3.67215 2.6694 -1.23175 66 64 134 255 
-3.54404 2.57434 -1.23456 66 64 134 255 
-3.43632 2.49159 -1.24361 68 58 131 255 
-19.8939 14.5257 7.39951 72 26 108 255 
-16.6256 12.1175 5.94974 72 31 112 255 
-16.6668 12.1384 5.74516 70 50 126 255 
-16.6245 12.1081 5.52232 69 53 129 255 
-16.5977 12.1056 5.33199 70 48 126 255 
-16.6212 12.1187 5.12108 69 55 129 255 
-16.6378 12.135 4.91735 66 63 133 255 
-16.6092 12.1191 4.70901 72 41 121 255 
-16.6217 12.1187 4.53776 68 58 131 255 
-16.6116 12.1161 4.32159 66 63 133 255 
-16.605 12.1244 4.11956 69 56 130 255 
-16.5807 12.116 3.91739 68 57 131 255 
-16.6042 12.1059 3.74917 61 78 138 255 
-16.5962 12.1094 3.54494 58 83 139 255 
-13.493 9.85936 2.71862 62 74 137 255 
-13.4677 9.85925 2.56002 62 73 137 255 
-13.51 9.85365 2.42751 56 89 140 255 
-13.4927 9.84847 2.26152 54 92 141 255 
-13.4606 9.8465 2.09799 61 77 138 255 
-13.4419 9.84758 1.94273 64 70 136 255 
-13.2058 9.63175 1.77276 68 58 131 255 
-12.1809 8.90077 1.49252 71 47 125 255 
-10.3103 7.54481 1.14248 59 81 139 255 
-10.3248 7.5723 1.02569 58 84 140 255 
-10.3513 7.55253 0.925237 62 76 138 255 
-9.58651 7.00758 0.745009 58 83 139 255 
-9.54097 6.9895 0.630189 63 71 136 255 
-9.53107 6.99526 0.518255 67 62 133 255 
-8.12592 5.93321 0.361905 69 56 130 255 
-8.12305 5.94217 0.267063 54 93 141 255 
-7.35505 5.39012 0.155983 59 82 139 255 
-7.33728 5.38907 0.0715019 57 86 140 255 
-7.36542 5.37989 -0.00159191 56 88 140 255 
-7.36663 5.39278 -0.0876404 54 93 141 255 
-7.33117 5.37655 -0.171389 56 88 140 255 
-6.90903 5.07824 -0.242505 66 65 134 255 
-6.62529 4.84459 -0.29809 60 80 139 255 
-6.62089 4.85041 -0.374135 58 84 140 255 
-6.60797 4.84794 -0.451031 59 81 139 255 
-6.61197 4.86167 -0.529281 59 82 139 255 
-6.64443 4.86037 -0.597324 50 102 142 255 
-6.57906 4.82329 -0.667819 61 78 138 255 
-6.12889 4.5014 -0.694725 62 73 137 255 
-5.89167 4.33205 -0.737659 48 106 142 255 
-5.89429 4.31638 -0.796237 51 99 141 255 
-5.8873 4.31772 -0.865409 50 102 142 255 
-5.87593 4.3172 -0.934052 53 95 141 255 
-5.8671 4.31714 -1.003 57 86 140 255 
-5.87986 4.31053 -1.06489 53 95 141 255 
-5.8765 4.31296 -1.13367 54 93 141 255 
-5.89027 4.32931 -1.20625 49 103 142 255 
-5.62446 4.13859 -1.22124 57 85 140 255 
-5.35246 3.92963 -1.21868 51 99 141 255 
-5.08551 3.73652 -1.21752 54 93 141 255 
-4.85018 3.56485 -1.22137 54 92 141 255 
-4.66414 3.43072 -1.23387 59 82 139 255 
-4.46577 3.28224 -1.22969 59 82 139 255 
-4.29095 3.15504 -1.23353 59 82 139 255 
-4.12331 3.03282 -1.23737 62 76 138 255 
-3.94857 2.90226 -1.23636 63 72 137 255 
-3.8089 2.80458 -1.2365 63 71 136 255 
-3.65182 2.68902 -1.23044 66 65 134 255 
-3.52353 2.59261 -1.23293 66 64 134 255 
-3.4171 2.50979 -1.24221 68 59 132 255 
-19.8298 14.6663 7.40901 72 31 112 255 
-20.5442 15.1674 7.38523 72 35 116 255 
-21.2424 15.6711 7.35539 72 31 112 255 
-22.036 16.2573 7.35289 72 29 111 255 
-22.4864 16.613 7.25638 72 29 111 255 
-23.3243 17.2262 7.21875 72 27 109 255 
-29.3443 21.6798 8.71197 71 19 101 255 
-30.5583 22.5858 8.70296 70 10 93 255 
-29.5788 21.8448 8.11153 71 13 96 255 
-30.5913 22.6015 7.99442 70 8 92 255 
-29.849 22.0768 7.43875 71 16 99 255 
-29.8104 22.0652 7.07496 71 14 97 255 
-0 0 0 69 4 87 255 
-31.467 23.257 6.75168 70 7 90 255 
-31.3033 23.1694 6.33562 70 10 93 255 
-0 0 0 69 4 87 255 
-16.4708 12.1686 2.97287 72 24 106 255 
-16.4694 12.1769 2.77294 71 13 96 255 
-22.448 16.6332 3.51463 72 28 110 255 
-11.4932 8.52882 1.66862 72 29 111 255 
-12.9098 9.53773 1.74085 68 57 131 255 
-11.9493 8.84451 1.47076 68 58 131 255 
-10.2542 7.60082 1.14141 62 74 137 255 
-10.2638 7.62481 1.02425 61 77 138 255 
-10.2742 7.59338 0.9225 62 73 137 255 
-9.54494 7.06746 0.745134 58 84 140 255 
-9.52837 7.07053 0.63221 62 73 137 255 
-9.51523 7.07387 0.519744 66 65 134 255 
-8.11025 5.99841 0.362839 69 53 129 255 
-8.09688 5.99964 0.267408 55 90 140 255 
-7.33869 5.44766 0.156342 55 91 141 255 
-7.30888 5.43757 0.071549 61 78 138 255 
-7.34433 5.43391 -0.00159453 56 88 140 255 
-7.35508 5.45396 -0.0878995 50 100 142 255 
-7.32292 5.43991 -0.171973 54 93 141 255 
-6.8593 5.10681 -0.241855 66 65 134 255 
-6.60828 4.89467 -0.298671 54 93 141 255 
-6.60224 4.89928 -0.374772 62 76 138 255 
-6.58451 4.89316 -0.451471 59 81 139 255 
-6.57641 4.89798 -0.528831 59 82 139 255 
-6.61128 4.89868 -0.597035 57 85 140 255 
-6.59255 4.89566 -0.672225 59 82 139 255 
-6.09156 4.53179 -0.693633 66 65 134 255 
-5.85061 4.35742 -0.735852 51 99 141 255 
-5.85811 4.34536 -0.794937 52 97 141 255 
-5.86707 4.3585 -0.866351 52 96 141 255 
-5.86286 4.36324 -0.936212 54 93 141 255 
-5.85401 4.36312 -1.00532 54 92 141 255 
-5.8676 4.35715 -1.06749 54 93 141 255 
-5.85548 4.35306 -1.13474 50 100 142 255 
-5.86043 4.36302 -1.2056 48 105 142 255 
-5.58237 4.16067 -1.21763 59 81 139 255 
-5.31877 3.95536 -1.21652 50 100 142 255 
-5.06485 3.76941 -1.21809 52 96 141 255 
-4.83608 3.6004 -1.22335 57 86 140 255 
-4.63202 3.45109 -1.23095 53 95 141 255 
-4.44398 3.30842 -1.22926 55 91 141 255 
-4.25823 3.17141 -1.22969 58 83 139 255 
-4.07812 3.03832 -1.22938 63 72 137 255 
-3.92836 2.9247 -1.23563 64 70 136 255 
-3.77068 2.81228 -1.22967 65 66 135 255 
-3.62364 2.70272 -1.22652 66 65 134 255 
-3.50601 2.61304 -1.23239 66 64 134 255 
-3.37238 2.50894 -1.23152 68 59 132 255 
-19.7433 14.7906 7.41044 72 36 117 255 
-20.44 15.2851 7.38134 72 35 116 255 
-21.1968 15.8392 7.3731 72 28 110 255 
-21.9041 16.3685 7.34226 72 32 113 255 
-22.4081 16.7686 7.26416 72 26 108 255 
-28.9836 21.682 9.01129 70 10 93 255 
-29.8259 22.3198 8.89545 70 8 92 255 
-29.8199 22.3243 8.5315 70 7 90 255 
-29.4364 22.0201 8.10938 70 10 93 255 
-29.8801 22.3607 7.84426 71 13 96 255 
-30.1516 22.5882 7.54857 70 11 94 255 
-29.8946 22.4127 7.12742 70 10 93 255 
-29.9263 22.3866 6.81879 71 13 96 255 
-0 0 0 68 1 84 255 
-31.354 23.506 6.37496 70 11 94 255 
-31.5591 23.7036 6.05377 70 8 92 255 
-0 0 0 68 1 84 255 
-22.153 16.5902 3.74693 72 26 108 255 
-22.1217 16.6027 3.47943 72 35 116 255 
-11.3263 8.51324 1.65194 68 57 131 255 
-11.3601 8.50111 1.53889 66 65 134 255 
-11.3828 8.53383 1.40746 66 63 133 255 
-10.2169 7.67077 1.14248 64 69 136 255 
-10.228 7.69603 1.02537 63 72 137 255 
-10.2426 7.66763 0.923869 61 78 138 255 
-9.50299 7.12709 0.74526 56 88 140 255 
-9.48401 7.12826 0.632157 63 71 136 255 
-9.46047 7.12371 0.519131 66 64 134 255 
-8.0813 6.05405 0.363199 66 64 134 255 
-8.04312 6.0366 0.26685 54 92 141 255 
-7.30353 5.49139 0.156308 54 92 141 255 
-7.29135 5.49435 0.0717061 64 69 136 255 
-7.31725 5.48367 -0.00159593 59 81 139 255 
-7.31668 5.49538 -0.0878419 55 90 140 255 
-7.30698 5.49797 -0.172388 54 93 141 255 
-6.80389 5.13075 -0.241007 64 69 136 255 
-6.57173 4.93033 -0.29838 53 94 141 255 
-6.57525 4.9421 -0.374954 58 84 140 255 
-6.55995 4.93768 -0.451855 58 84 140 255 
-6.55181 4.94245 -0.529281 59 81 139 255 
-6.58349 4.94095 -0.597252 54 92 141 255 
-6.5831 4.9516 -0.674346 56 88 140 255 
-6.04058 4.5517 -0.690995 62 73 137 255 
-5.82615 4.39503 -0.736153 61 78 138 255 
-5.84008 4.38779 -0.796129 53 94 141 255 
-5.83545 4.39084 -0.865645 54 92 141 255 
-5.83994 4.40211 -0.936847 54 92 141 255 
-5.83978 4.40851 -1.0075 54 92 141 255 
-5.84945 4.39961 -1.06908 50 102 142 255 
-5.84761 4.40318 -1.13843 51 98 141 255 
-5.83118 4.39711 -1.20511 50 100 142 255 
-5.5591 4.19662 -1.21814 55 91 141 255 
-5.29912 3.99147 -1.2176 48 106 142 255 
-5.0134 3.77914 -1.21127 58 84 140 255 
-4.80998 3.62705 -1.22236 55 90 140 255 
-4.60451 3.47473 -1.22928 54 92 141 255 
-4.42047 3.33327 -1.2284 54 93 141 255 
-4.23169 3.1922 -1.22766 59 81 139 255 
-4.05474 3.05978 -1.22797 62 74 137 255 
-3.90492 2.94466 -1.23392 64 69 136 255 
-3.7495 2.83245 -1.2284 65 66 135 255 
-3.60545 2.72374 -1.22599 65 68 135 255 
-3.48991 2.6345 -1.23239 63 71 136 255 
-3.35922 2.53132 -1.23236 66 64 134 255 
-19.685 14.9363 7.42281 72 37 118 255 
-20.3588 15.4201 7.38606 72 36 117 255 
-21.1022 15.9713 7.37418 72 36 117 255 
-21.6408 16.3796 7.28754 72 22 104 255 
-22.304 16.9052 7.26391 72 29 111 255 
-28.9166 21.9098 9.03207 70 7 90 255 
-29.1086 22.0629 8.72172 70 11 94 255 
-28.7783 21.8213 8.27164 69 5 89 255 
-29.2898 22.192 8.10636 70 11 94 255 
-29.8671 22.6382 7.87717 71 13 96 255 
-0 0 0 68 1 84 255 
-30.8767 23.4464 7.39575 71 16 99 255 
-29.6582 22.4712 6.78899 70 11 94 255 
-0 0 0 68 1 84 255 
-0 0 0 68 2 86 255 
-0 0 0 68 2 86 255 
-0 0 0 68 2 86 255 
-21.7847 16.524 3.70172 72 28 110 255 
-21.7801 16.5562 3.44161 72 31 112 255 
-11.1617 8.49715 1.6355 69 55 129 255 
-11.2325 8.51361 1.52865 67 61 132 255 
-11.2502 8.54273 1.39752 65 66 135 255 
-10.1744 7.73693 1.14301 58 83 139 255 
-10.1813 7.75925 1.02545 62 73 137 255 
-10.1978 7.73214 0.924085 59 81 139 255 
-9.4702 7.19372 0.746136 54 93 141 255 
-9.44884 7.19297 0.632742 62 74 137 255 
-9.42691 7.1895 0.5197 64 70 136 255 
-8.0225 6.08722 0.362228 61 78 138 255 
-8.02742 6.10217 0.267567 50 101 142 255 
-7.26493 5.53246 0.156205 54 92 141 255 
-7.27897 5.55537 0.0719182 63 72 137 255 
-7.28824 5.53209 -0.00159698 56 89 140 255 
-7.27726 5.53593 -0.0877748 59 82 139 255 
-7.27231 5.5421 -0.172369 59 82 139 255 
-6.75481 5.15905 -0.240385 65 68 135 255 
-6.55647 4.98205 -0.29907 50 100 142 255 
-6.54559 4.98295 -0.375 58 83 139 255 
-6.53826 4.98449 -0.45246 57 86 140 255 
-6.53167 4.99043 -0.530118 60 79 138 255 
-6.55861 4.98547 -0.597758 56 88 140 255 
-6.55259 4.9919 -0.674346 58 83 139 255 
-6.01333 4.58928 -0.691086 63 71 136 255 
-5.80302 4.43372 -0.736655 56 89 140 255 
-5.82887 4.43558 -0.798296 53 95 141 255 
-5.82736 4.44101 -0.86847 49 104 142 255 
-5.81755 4.44147 -0.93761 54 92 141 255 
-5.81498 4.44606 -1.00791 52 96 141 255 
-5.82156 4.43482 -1.06894 51 99 141 255 
-5.82283 4.44077 -1.13889 52 97 141 255 
-5.8088 4.4364 -1.20609 49 103 142 255 
-5.52072 4.22108 -1.21539 59 81 139 255 
-5.26827 4.01914 -1.21616 51 99 141 255 
-4.96904 3.79374 -1.20615 56 88 140 255 
-4.7853 3.65472 -1.22176 51 98 141 255 
-4.58388 3.50351 -1.22949 54 93 141 255 
-4.39451 3.35618 -1.22688 57 86 140 255 
-4.21589 3.22106 -1.22879 64 69 136 255 
-4.03049 3.08047 -1.22632 63 71 136 255 
-3.88832 2.96974 -1.23441 62 73 137 255 
-3.73358 2.85658 -1.22891 65 66 135 255 
-3.5948 2.75051 -1.22809 65 66 135 255 
-3.47062 2.65352 -1.23131 67 61 132 255 
-3.33753 2.54723 -1.23012 68 57 131 255 
-19.6127 15.072 7.43029 72 29 111 255 
-20.3019 15.574 7.39995 72 35 116 255 
-21.0237 16.1157 7.38116 72 29 111 255 
-21.477 16.4639 7.26628 72 28 110 255 
-22.2421 17.0742 7.27773 72 26 108 255 
-0 0 0 68 1 84 255 
-0 0 0 68 1 84 255 
-25.3157 19.4415 7.31055 71 13 96 255 
-30.5972 23.4795 8.5079 70 10 93 255 
-0 0 0 68 2 86 255 
-0 0 0 68 1 84 255 
-30.3593 23.3486 7.306 70 10 93 255 
-0 0 0 68 2 86 255 
-31.6565 24.3106 6.8872 70 7 90 255 
-0 0 0 68 2 86 255 
-0 0 0 68 2 86 255 
-0 0 0 68 2 86 255 
-21.4966 16.5143 3.66992 72 38 119 255 
-21.4737 16.5322 3.40916 72 32 113 255 
-11.0189 8.49573 1.62218 66 65 134 255 
-11.072 8.49944 1.51387 68 59 132 255 
-11.05 8.49815 1.37911 65 66 135 255 
-10.1378 7.80772 1.14426 59 81 139 255 
-10.1343 7.82218 1.02553 63 72 137 255 
-10.1478 7.79275 0.923869 63 71 136 255 
-9.43538 7.25899 0.746888 60 80 139 255 
-9.40769 7.25325 0.632955 65 68 135 255 
-9.40397 7.2637 0.520883 66 64 134 255 
-7.99055 6.14059 0.36248 55 90 140 255 
-7.99933 6.15863 0.267885 53 95 141 255 
-7.24747 5.58976 0.156564 59 82 139 255 
-7.25107 5.60482 0.071981 58 83 139 255 
-7.25971 5.58097 -0.0015982 59 82 139 255 
-7.26454 5.59696 -0.0880339 58 83 139 255 
-7.25083 5.59639 -0.172671 61 78 138 255 
-6.71354 5.19306 -0.240045 67 62 133 255 
-6.53687 5.03072 -0.299578 53 95 141 255 
-6.51489 5.02302 -0.375 58 84 140 255 
-6.52099 5.03489 -0.453394 59 81 139 255 
-6.51671 5.04263 -0.531405 57 86 140 255 
-6.53106 5.02806 -0.598048 55 90 140 255 
-6.51947 5.03018 -0.674102 62 73 137 255 
-5.98111 4.62305 -0.690631 62 74 137 255 
-5.76627 4.46194 -0.735451 62 74 137 255 
-5.79682 4.46762 -0.797646 53 95 141 255 
-5.80943 4.48396 -0.869882 50 100 142 255 
-5.79725 4.48255 -0.938753 50 101 142 255 
-5.79072 4.48409 -1.00846 50 102 142 255 
-5.79972 4.47469 -1.06995 47 107 142 255 
-5.80252 4.48185 -1.14027 48 105 142 255 
-5.78693 4.47619 -1.20723 48 106 142 255 
-5.47914 4.24281 -1.21194 59 82 139 255 
-5.22716 4.03876 -1.21237 46 109 142 255 
-4.95189 3.82897 -1.20767 59 82 139 255 
-4.74961 3.67382 -1.21838 52 97 141 255 
-4.55456 3.52559 -1.22741 53 95 141 255 
-4.37151 3.38129 -1.22623 55 90 140 255 
-4.19836 3.24866 -1.22946 62 73 137 255 
-4.02381 3.11466 -1.23008 61 77 138 255 
-3.87386 2.99651 -1.23563 63 72 137 255 
-3.70757 2.87291 -1.22613 65 66 135 255 
-3.57786 2.77251 -1.22809 67 62 133 255 
-3.44819 2.67006 -1.22914 66 64 134 255 
-3.3112 2.55944 -1.22618 68 58 131 255 
-19.5168 15.1897 7.42914 72 31 112 255 
-20.2257 15.7136 7.40718 72 35 116 255 
-20.9579 16.2704 7.39297 72 35 116 255 
-21.3786 16.5977 7.26732 72 27 109 255 
-22.1178 17.1955 7.27145 72 22 104 255 
-0 0 0 68 2 86 255 
-25.03 19.4598 7.57066 70 7 90 255 
-30.1426 23.4439 8.74582 69 5 89 255 
-30.3091 23.5553 8.46783 70 7 90 255 
-24.6208 19.142 6.55499 71 17 100 255 
-24.7159 19.2363 6.27531 70 7 90 255 
-30.6432 23.8676 7.40943 70 11 94 255 
-30.2619 23.5186 6.99271 70 11 94 255 
-0 0 0 68 1 84 255 
-0 0 0 68 1 84 255 
-0 0 0 68 2 86 255 
-0 0 0 68 2 86 255 
-21.1884 16.4852 3.63451 72 28 110 255 
-21.1465 16.4879 3.37322 72 35 116 255 
-10.8389 8.46353 1.60331 68 59 132 255 
-10.9145 8.48545 1.49943 64 69 136 255 
-10.898 8.48813 1.3666 62 73 137 255 
-10.1204 7.89367 1.14773 60 80 139 255 
-10.1003 7.89527 1.02696 65 66 135 255 
-10.1265 7.87569 0.926317 61 77 138 255 
-9.41743 7.33761 0.749017 57 85 140 255 
-9.36773 7.31453 0.633275 66 63 133 255 
-9.36867 7.32865 0.521408 65 68 135 255 
-7.97874 6.20976 0.363666 52 96 141 255 
-7.974 6.21743 0.268309 49 103 142 255 
-7.23195 5.64889 0.156975 59 81 139 255 
-7.23151 5.66092 0.0721302 58 83 139 255 
-7.25216 5.6463 -0.00160413 52 96 141 255 
-7.23321 5.64389 -0.0880723 54 93 141 255 
-7.21478 5.63954 -0.172633 53 94 141 255 
-6.66266 5.21936 -0.239367 64 70 136 255 
-6.50351 5.06889 -0.299469 59 82 139 255 
-6.49104 5.06844 -0.37541 61 78 138 255 
-6.50099 5.08342 -0.454163 58 83 139 255 
-6.49822 5.09237 -0.532435 56 89 140 255 
-6.50244 5.06988 -0.598265 53 95 141 255 
-6.48613 5.06825 -0.673857 59 82 139 255 
-5.95577 4.66212 -0.690995 64 69 136 255 
-5.75366 4.50889 -0.737357 54 93 141 255 
-5.7693 4.50311 -0.797646 59 81 139 255 
-5.78181 4.51952 -0.869882 51 98 141 255 
