ply
format ascii 1.0
comment VTK generated PLY File
obj_info vtkPolyData points and polygons: vtk4.0
element vertex 1243
property float x
property float y
property float z
property uchar red
property uchar green
property uchar blue
property uchar alpha
element face 0
property list uchar int vertex_indices
end_header
12.727 3.18448 0.699039 62 74 137 255 
12.7192 3.17053 0.574618 62 74 137 255 
12.7231 3.20481 0.471936 64 70 136 255 
12.7597 3.202 0.349081 63 71 136 255 
12.7399 3.18533 0.224636 62 73 137 255 
12.7409 3.17121 0.103122 64 70 136 255 
12.7532 3.21003 -0.00229528 65 68 135 255 
12.7366 3.19148 -0.126047 64 69 136 255 
12.7455 3.182 -0.24765 67 62 133 255 
12.7334 3.16464 -0.371079 68 59 132 255 
12.731 3.19736 -0.476733 63 72 137 255 
12.7397 3.18751 -0.598634 63 72 137 255 
12.6777 3.16272 -0.719078 66 64 134 255 
12.1606 3.02003 -0.808081 65 68 135 255 
11.5911 2.90894 -0.867112 64 70 136 255 
10.7302 2.68076 -0.905411 64 69 136 255 
9.97289 2.48241 -0.938916 60 80 139 255 
9.15793 2.27433 -0.951831 69 53 129 255 
8.54501 2.13973 -0.960057 62 74 137 255 
8.02577 2.00362 -0.98053 63 71 136 255 
7.54267 1.87609 -0.995678 62 73 137 255 
7.12013 1.76562 -1.0101 59 81 139 255 
6.70361 1.67491 -1.00925 61 78 138 255 
6.39795 1.59486 -1.02548 59 81 139 255 
6.07263 1.50932 -1.03254 53 94 141 255 
5.78531 1.43462 -1.04242 54 92 141 255 
5.52123 1.3754 -1.0443 53 94 141 255 
5.32554 1.32458 -1.05877 54 92 141 255 
5.10071 1.26776 -1.06646 56 88 140 255 
4.87913 1.21081 -1.0713 57 85 140 255 
4.69262 1.16638 -1.07287 60 79 138 255 
4.51945 1.12241 -1.07852 59 82 139 255 
4.33674 1.07627 -1.08017 59 82 139 255 
4.19494 1.04257 -1.09056 60 79 138 255 
4.07579 1.00929 -1.09765 60 80 139 255 
3.92526 0.971933 -1.09716 65 68 135 255 
3.81156 0.945226 -1.10679 66 64 134 255 
3.65607 0.909999 -1.10387 68 58 131 255 
11.4546 2.81065 3.54296 72 32 113 255 
10.168 2.50422 3.02849 68 58 131 255 
12.3278 3.04082 3.53798 72 40 120 255 
10.0436 2.47718 2.77763 72 40 120 255 
10.2254 2.51472 2.73307 64 69 136 255 
10.0332 2.46917 2.57238 69 53 129 255 
10.0619 2.47445 2.47424 58 84 140 255 
10.0709 2.47461 2.37516 59 82 139 255 
10.1953 2.5092 2.31616 54 93 141 255 
10.2063 2.50986 2.20913 60 80 139 255 
10.573 2.59427 2.18129 66 63 133 255 
10.7181 2.62571 2.10504 56 88 140 255 
10.3846 2.55578 1.95123 55 91 141 255 
10.5525 2.59305 1.875 63 72 137 255 
10.8349 2.65453 1.81477 62 76 138 255 
10.9536 2.6733 1.72937 65 68 135 255 
11.1667 2.74621 1.66939 55 91 141 255 
11.1645 2.74137 1.55638 62 76 138 255 
10.9671 2.68083 1.42026 54 93 141 255 
10.9657 2.67218 1.31588 62 76 138 255 
10.9274 2.68736 1.22048 69 55 129 255 
12.6136 3.09018 1.28479 63 72 137 255 
12.6211 3.08281 1.1618 66 64 134 255 
12.6711 3.08076 1.04461 65 66 135 255 
12.7243 3.12691 0.946123 64 70 136 255 
12.71 3.11144 0.820963 62 76 138 255 
12.7298 3.10231 0.698134 62 74 137 255 
12.7326 3.09101 0.574355 66 65 134 255 
12.7493 3.12835 0.472187 61 77 138 255 
12.7733 3.12223 0.348922 63 71 136 255 
12.7544 3.10592 0.22455 66 65 134 255 
12.7543 3.09156 0.103075 65 68 135 255 
12.7571 3.12791 -0.00229249 66 64 134 255 
12.754 3.1128 -0.126027 66 65 134 255 
12.7541 3.10114 -0.247442 67 62 133 255 
12.7409 3.08363 -0.37074 68 57 131 255 
12.7339 3.11514 -0.476116 66 65 134 255 
12.7376 3.10408 -0.597632 65 68 135 255 
12.6619 3.07639 -0.7171 67 61 132 255 
12.4301 3.00611 -0.82475 69 56 130 255 
11.634 2.84392 -0.868993 71 45 123 255 
10.7339 2.61181 -0.90435 61 77 138 255 
9.99471 2.42281 -0.939553 59 82 139 255 
9.19879 2.22465 -0.954641 69 55 129 255 
8.57053 2.09032 -0.961466 62 74 137 255 
8.05625 1.95879 -0.982767 64 70 136 255 
7.54536 1.82767 -0.994535 64 70 136 255 
7.12987 1.72167 -1.00996 60 80 139 255 
6.73684 1.63936 -1.01271 59 81 139 255 
6.41145 1.55651 -1.02609 59 82 139 255 
6.07794 1.4711 -1.03189 54 93 141 255 
5.80262 1.40117 -1.04397 55 91 141 255 
5.54008 1.34404 -1.04629 53 94 141 255 
5.32785 1.29049 -1.05763 53 94 141 255 
5.10172 1.23482 -1.06507 52 97 141 255 
4.88741 1.18108 -1.07151 54 93 141 255 
4.71298 1.14078 -1.0759 58 83 139 255 
4.53477 1.09672 -1.08055 60 79 138 255 
4.33192 1.0469 -1.07735 61 78 138 255 
4.20408 1.0175 -1.0913 63 72 137 255 
4.07062 0.981544 -1.09461 61 77 138 255 
3.9593 0.954616 -1.10502 62 76 138 255 
3.81728 0.921821 -1.10679 65 66 135 255 
3.6877 0.893878 -1.11174 65 66 135 255 
12.5233 2.99153 3.86777 69 56 130 255 
10.1627 2.43686 3.02238 54 92 141 255 
12.6544 3.03913 3.62629 72 37 118 255 
12.6214 3.03094 3.48532 70 50 126 255 
12.8067 3.06632 3.41791 72 22 104 255 
10.2096 2.44622 2.61369 56 89 140 255 
10.2396 2.45162 2.51418 60 80 139 255 
10.0774 2.41073 2.37315 57 86 140 255 
10.1593 2.43431 2.30453 61 78 138 255 
10.192 2.44012 2.20275 52 97 141 255 
10.4342 2.49244 2.14946 50 100 142 255 
10.5324 2.51181 2.0655 57 86 140 255 
10.3867 2.4888 1.94871 64 69 136 255 
10.6708 2.55278 1.8932 50 100 142 255 
10.7262 2.55823 1.79389 55 90 140 255 
10.94 2.59896 1.72467 55 90 140 255 
11.1795 2.67672 1.66882 59 82 139 255 
11.9801 2.86381 1.6676 67 61 132 255 
11.0017 2.61785 1.42263 68 59 132 255 
12.4315 2.94871 1.48959 71 47 125 255 
10.9553 2.62304 1.22177 56 88 140 255 
11.2278 2.67775 1.14194 71 42 122 255 
12.5177 2.97628 1.15058 68 59 132 255 
12.683 3.00134 1.04405 64 69 136 255 
12.7287 3.0453 0.945042 65 68 135 255 
12.7259 3.0327 0.820775 59 82 139 255 
12.7545 3.02552 0.698454 65 68 135 255 
12.7892 3.02179 0.576063 66 64 134 255 
12.7673 3.04983 0.472151 64 70 136 255 
12.7981 3.04518 0.349081 66 65 134 255 
12.8092 3.03613 0.225183 68 58 131 255 
12.8304 3.02679 0.103538 69 56 130 255 
12.7897 3.05282 -0.00229493 66 64 134 255 
12.7758 3.03517 -0.126056 70 52 128 255 
12.804 3.03019 -0.248045 69 56 130 255 
12.7907 3.01273 -0.371645 70 51 127 255 
12.7576 3.03811 -0.476298 67 62 133 255 
12.7341 3.02056 -0.596585 66 63 133 255 
12.6572 2.99312 -0.715781 68 57 131 255 
12.5085 2.94396 -0.82874 67 62 133 255 
11.6784 2.77895 -0.871019 69 55 129 255 
10.738 2.54314 -0.903371 63 72 137 255 
10.0191 2.36373 -0.940462 60 80 139 255 
9.21905 2.16976 -0.955343 70 50 126 255 
8.60351 2.04251 -0.963741 62 73 137 255 
8.07005 1.90978 -0.983002 63 71 136 255 
7.56126 1.78248 -0.99517 62 73 137 255 
7.13451 1.67653 -1.00914 61 78 138 255 
6.76314 1.60187 -1.01517 58 84 140 255 
6.42281 1.51759 -1.0264 58 84 140 255 
6.08301 1.43288 -1.03123 54 93 141 255 
5.81782 1.36712 -1.04518 57 86 140 255 
5.55013 1.31048 -1.04665 50 100 142 255 
5.33375 1.25732 -1.05725 52 96 141 255 
5.11588 1.20507 -1.06646 56 89 140 255 
4.9098 1.15465 -1.07484 55 91 141 255 
4.72939 1.11408 -1.07807 55 90 140 255 
4.55185 1.07133 -1.08303 58 84 140 255 
4.37706 1.02942 -1.08698 62 73 137 255 
4.20269 0.989902 -1.08934 63 71 136 255 
4.10106 0.962295 -1.10119 60 80 139 255 
3.9773 0.93317 -1.10842 62 74 137 255 
3.79944 0.892876 -1.10001 64 69 136 255 
3.6791 0.867929 -1.10753 68 58 131 255 
9.93684 2.30933 3.06453 63 71 136 255 
10.1026 2.35699 3.00015 60 79 138 255 
13.3079 3.10982 3.80801 72 26 108 255 
12.6548 2.95695 3.48947 70 50 126 255 
10.7466 2.50346 2.86396 59 82 139 255 
12.8932 3.00569 3.29592 71 47 125 255 
10.226 2.38212 2.50722 61 78 138 255 
10.0777 2.34553 2.3698 58 84 140 255 
10.3585 2.41494 2.34632 50 100 142 255 
10.1963 2.3751 2.20049 50 100 142 255 
10.349 2.40507 2.12884 53 95 141 255 
12.7417 2.95619 2.49517 72 33 115 255 
12.7404 2.97025 2.38685 71 45 123 255 
10.7045 2.49151 1.89643 62 73 137 255 
10.6869 2.47965 1.78474 53 94 141 255 
10.7458 2.48327 1.69162 71 44 122 255 
11.1639 2.60067 1.66408 64 69 136 255 
11.5921 2.69597 1.61125 70 52 128 255 
12.453 2.88257 1.60798 72 40 120 255 
11.2948 2.60597 1.35143 68 59 132 255 
10.9576 2.55261 1.22027 57 85 140 255 
12.637 2.93201 1.28341 70 51 127 255 
12.6541 2.9268 1.16145 69 55 129 255 
12.6914 2.92123 1.04325 68 58 131 255 
12.6976 2.95561 0.941369 64 70 136 255 
12.7521 2.95637 0.821276 58 84 140 255 
12.7932 2.95192 0.699571 71 47 125 255 
12.8543 2.954 0.578165 70 11 94 255 
12.7975 2.97415 0.472583 72 37 118 255 
12.8155 2.96637 0.349054 71 17 100 255 
12.8529 2.96332 0.225628 70 10 93 255 
38.0842 8.73803 0.306891 71 13 96 255 
12.8209 2.97723 -0.0022972 71 44 122 255 
12.8517 2.97001 -0.126623 72 37 118 255 
12.8545 2.95897 -0.248667 71 44 122 255 
12.8694 2.94802 -0.373398 71 45 123 255 
12.814 2.96857 -0.477713 68 58 131 255 
12.7845 2.94978 -0.598087 69 55 129 255 
12.6724 2.91473 -0.715616 67 62 133 255 
12.6567 2.89699 -0.837364 70 51 127 255 
11.7506 2.72006 -0.875144 68 57 131 255 
10.7641 2.47967 -0.904269 63 71 136 255 
10.0547 2.30711 -0.942464 61 77 138 255 
9.21473 2.10915 -0.953537 71 47 125 255 
8.64009 1.99528 -0.96645 62 76 138 255 
8.09129 1.86245 -0.984179 65 68 135 255 
7.58075 1.73805 -0.996314 63 72 137 255 
7.15336 1.6347 -1.01037 61 78 138 255 
6.7468 1.55434 -1.01127 62 74 137 255 
6.43681 1.47926 -1.02717 53 94 141 255 
6.09745 1.39685 -1.03221 55 91 141 255 
5.81938 1.32986 -1.04397 53 95 141 255 
5.57149 1.27948 -1.04918 51 99 141 255 
5.35285 1.2272 -1.05953 50 100 142 255 
5.11363 1.17147 -1.06447 56 89 140 255 
4.92061 1.12537 -1.07568 55 90 140 255 
4.71615 1.08046 -1.07352 59 82 139 255 
4.56118 1.04403 -1.08371 60 80 139 255 
4.39182 1.0045 -1.0891 60 80 139 255 
4.20302 0.962797 -1.08787 61 78 138 255 
4.10783 0.937328 -1.10144 58 83 139 255 
3.97824 0.907675 -1.10711 62 73 137 255 
3.80297 0.869117 -1.09947 65 66 135 255 
3.70026 0.848987 -1.11231 68 57 131 255 
9.5211 2.15123 2.93219 53 95 141 255 
10.0494 2.27966 2.98015 65 68 135 255 
13.2901 3.01979 3.79754 72 37 118 255 
13.2378 3.00763 3.64507 72 33 115 255 
10.2813 2.32864 2.73609 53 95 141 255 
10.2161 2.3156 2.60789 60 79 138 255 
10.2461 2.32062 2.50861 61 77 138 255 
10.0606 2.27655 2.36243 70 50 126 255 
10.1998 2.31205 2.30712 70 52 128 255 
10.4779 2.37302 2.25808 60 80 139 255 
10.5271 2.37847 2.16243 61 78 138 255 
10.7215 2.41825 2.09661 68 59 132 255 
10.7148 2.42879 2.00453 67 62 133 255 
10.8387 2.45275 1.91751 65 66 135 255 
10.8925 2.45703 1.81653 70 48 126 255 
11.0155 2.47448 1.73164 66 63 133 255 
11.1102 2.51638 1.65373 65 68 135 255 
11.1483 2.52076 1.54739 60 80 139 255 
11.1946 2.51902 1.44347 61 77 138 255 
11.4016 2.55705 1.36232 72 29 111 255 
11.2591 2.55011 1.25207 71 42 122 255 
12.7887 2.88464 1.297 68 57 131 255 
13.2014 2.96817 1.20999 72 41 121 255 
12.6877 2.83851 1.0415 69 55 129 255 
12.7136 2.8772 0.941225 59 82 139 255 
12.7115 2.8649 0.817519 72 23 105 255 
35.1662 7.88733 1.92031 70 7 90 255 
38.3055 8.55574 1.72053 69 5 89 255 
37.9502 8.57459 1.39945 70 10 93 255 
37.9846 8.54696 1.03313 70 11 94 255 
38.0651 8.53055 0.667289 71 16 99 255 
38.1371 8.50419 0.306891 70 8 92 255 
37.9977 8.57836 -0.00679876 71 14 97 255 
37.9992 8.53631 -0.373868 71 16 99 255 
37.9996 8.50193 -0.734071 71 19 101 255 
0 0 -0 69 4 87 255 
19.1124 4.30431 -0.711525 71 14 97 255 
16.3611 3.66944 -0.764344 72 28 110 255 
12.9395 2.89269 -0.729683 72 33 115 255 
12.72 2.82946 -0.840389 71 46 124 255 
11.8196 2.65973 -0.879052 69 55 129 255 
10.7859 2.4151 -0.90484 61 77 138 255 
10.0502 2.24125 -0.940735 58 84 140 255 
9.22944 2.053 -0.953737 71 47 125 255 
8.64927 1.94157 -0.966125 64 70 136 255 
8.12001 1.81667 -0.986298 59 82 139 255 
7.59612 1.69258 -0.996949 63 71 136 255 
7.16326 1.59078 -1.01037 62 74 137 255 
6.76297 1.51443 -1.01228 59 81 139 255 
6.45638 1.44211 -1.02886 54 93 141 255 
6.10013 1.35812 -1.03123 57 85 140 255 
5.81974 1.29242 -1.0426 55 91 141 255 
5.58788 1.2472 -1.0508 49 103 142 255 
5.37082 1.19668 -1.06161 49 103 142 255 
5.12741 1.14156 -1.06586 53 95 141 255 
4.92742 1.09516 -1.07568 57 86 140 255 
4.74842 1.05723 -1.07937 59 82 139 255 
4.54278 1.01052 -1.07784 59 81 139 255 
4.40264 0.978584 -1.09027 62 76 138 255 
4.22588 0.940782 -1.09228 61 77 138 255 
4.11256 0.911896 -1.10119 61 78 138 255 
3.9762 0.881577 -1.10502 66 65 134 255 
3.81951 0.848271 -1.10272 66 64 134 255 
3.68386 0.821462 -1.10584 66 63 133 255 
9.20858 2.02131 2.83207 50 101 142 255 
10.1223 2.23098 2.99765 70 50 126 255 
10.4544 2.3081 2.98317 61 77 138 255 
14.2689 3.14995 3.92358 72 40 120 255 
10.3474 2.27695 2.74991 71 42 122 255 
10.2737 2.26247 2.619 52 97 141 255 
12.843 2.82606 3.14012 71 44 122 255 
16.7347 3.67902 3.92429 72 28 110 255 
16.8027 3.70052 3.79543 70 48 126 255 
12.614 2.77555 2.71472 72 40 120 255 
10.598 2.32624 2.17402 71 42 122 255 
10.7313 2.35137 2.09567 51 98 141 255 
10.7891 2.37612 2.01566 64 70 136 255 
10.8719 2.39022 1.92074 58 83 139 255 
10.9305 2.39522 1.82039 68 57 131 255 
11.044 2.40979 1.73376 70 52 128 255 
11.195 2.46347 1.66408 62 74 137 255 
11.3987 2.50397 1.57999 63 71 136 255 
28.2675 6.17879 3.63994 71 14 97 255 
28.1119 6.12374 3.35438 72 20 103 255 
28.1611 6.19689 3.12738 72 23 105 255 
12.7683 2.7978 1.29316 66 64 134 255 
13.2136 2.88584 1.20946 70 48 126 255 
12.665 2.75193 1.03822 66 63 133 255 
12.6979 2.79185 0.938777 62 74 137 255 
26.4951 5.80081 1.70166 70 7 90 255 
35.5242 7.739 1.93723 71 13 96 255 
38.4383 8.33812 1.72416 69 5 89 255 
46.7901 10.2706 1.72307 69 5 89 255 
46.8003 10.2293 1.27117 70 10 93 255 
0 0 0 68 2 86 255 
0 0 0 68 1 84 255 
38.078 8.35126 -0.00680382 69 5 89 255 
38.1056 8.31493 -0.374406 70 8 92 255 
38.138 8.28751 -0.735749 70 8 92 255 
31.2659 6.75945 -0.904686 70 7 90 255 
20.0483 4.38601 -0.745352 72 22 104 255 
16.4566 3.58493 -0.76776 71 47 125 255 
15.0237 3.26195 -0.846068 72 40 120 255 
12.703 2.74398 -0.838136 72 36 117 255 
11.8298 2.58588 -0.878618 70 52 128 255 
10.7967 2.34802 -0.904514 66 65 134 255 
10.057 2.17807 -0.940098 60 79 138 255 
9.27104 2.00264 -0.956748 70 52 128 255 
8.65324 1.88677 -0.965258 61 77 138 255 
8.11645 1.76365 -0.984532 61 77 138 255 
7.60636 1.64594 -0.996949 64 70 136 255 
7.16707 1.54554 -1.00955 61 78 138 255 
6.78084 1.47479 -1.01358 58 83 139 255 
6.46124 1.40163 -1.02824 53 94 141 255 
6.11317 1.32171 -1.03205 56 89 140 255 
5.82756 1.25669 -1.0426 54 92 141 255 
5.58773 1.21122 -1.04936 53 95 141 255 
5.36463 1.1608 -1.05896 51 98 141 255 
5.14678 1.11277 -1.06845 55 90 140 255 
4.93787 1.06573 -1.07651 56 88 140 255 
4.76627 1.03055 -1.08197 60 80 139 255 
4.56222 0.985509 -1.081 59 82 139 255 
4.39716 0.949091 -1.08745 58 83 139 255 
4.22779 0.914015 -1.0913 62 74 137 255 
4.09349 0.88135 -1.09461 56 88 140 255 
3.96361 0.853304 -1.10004 62 74 137 255 
3.82464 0.824819 -1.10272 65 68 135 255 
3.68602 0.798234 -1.105 68 57 131 255 
9.25172 1.97136 2.84156 62 76 138 255 
9.43221 2.01828 2.78957 62 74 137 255 
10.2489 2.19686 2.92063 62 76 138 255 
17.103 3.6657 4.69663 71 14 97 255 
10.3829 2.21807 2.75568 72 41 121 255 
10.4003 2.22354 2.64775 57 85 140 255 
10.6077 2.26603 2.59013 72 35 116 255 
16.6655 3.55674 3.90286 72 40 120 255 
12.8516 2.74778 2.89908 67 62 133 255 
15.1229 3.23044 3.25034 69 53 129 255 
10.6255 2.26403 2.17677 68 59 132 255 
10.6533 2.26586 2.07768 54 93 141 255 
10.9073 2.33209 2.03505 71 13 96 255 
10.8699 2.31997 1.91785 62 74 137 255 
12.817 2.72629 2.13173 63 72 137 255 
12.1483 2.57278 1.90462 69 55 129 255 
12.2909 2.62567 1.82455 64 69 136 255 
16.3615 3.48905 2.26487 72 41 121 255 
28.302 6.00461 3.63957 72 22 104 255 
11.2563 2.37976 1.34136 71 16 99 255 
13.4197 2.86681 1.48832 71 16 99 255 
13.1959 2.80678 1.33471 70 48 126 255 
12.5938 2.66963 1.15121 65 66 135 255 
12.664 2.67047 1.03679 66 64 134 255 
33.8045 7.21539 2.49591 71 13 96 255 
33.7221 7.16654 2.16296 71 14 97 255 
35.8651 7.58306 1.95324 69 4 87 255 
0 0 0 69 4 87 255 
47.0985 10.0357 1.73213 70 8 92 255 
46.8895 9.94775 1.27192 70 11 94 255 
46.8207 9.89089 0.818585 70 8 92 255 
0 0 0 68 2 86 255 
0 0 -0 68 1 84 255 
0 0 -0 68 2 86 255 
44.7291 9.43273 -0.861769 69 4 87 255 
31.3469 6.57589 -0.905846 70 10 93 255 
20.0172 4.25067 -0.74321 71 17 100 255 
16.5037 3.48926 -0.768944 71 44 122 255 
14.9027 3.14006 -0.838155 71 46 124 255 
12.9208 2.70815 -0.851394 72 35 116 255 
11.8348 2.51097 -0.877822 71 45 123 255 
10.8255 2.28482 -0.905737 67 61 132 255 
10.0604 2.11427 -0.939189 64 70 136 255 
9.28705 1.94653 -0.95715 70 50 126 255 
8.66174 1.83302 -0.964933 63 71 136 255 
8.12323 1.713 -0.984062 60 79 138 255 
7.59981 1.59577 -0.994789 66 65 134 255 
7.19678 1.5058 -1.01241 62 74 137 255 
6.79363 1.43398 -1.01416 62 76 138 255 
6.46102 1.36012 -1.02686 57 86 140 255 
6.13179 1.2864 -1.03384 56 88 140 255 
5.82841 1.21949 -1.04139 56 89 140 255 
5.60853 1.17975 -1.05189 56 89 140 255 
5.38222 1.13008 -1.06104 50 101 142 255 
5.16214 1.08298 -1.07024 54 93 141 255 
4.95676 1.03802 -1.07922 54 92 141 255 
4.78397 1.00369 -1.08457 59 81 139 255 
4.57105 0.958097 -1.08168 60 80 139 255 
4.40005 0.921495 -1.08675 61 77 138 255 
4.24185 0.889849 -1.0935 63 71 136 255 
4.11586 0.859777 -1.09916 60 80 139 255 
3.98388 0.832125 -1.10423 64 69 136 255 
3.87014 0.809812 -1.11439 65 66 135 255 
3.68145 0.773628 -1.10218 69 55 129 255 
9.24958 1.91164 2.83725 49 103 142 255 
10.2844 2.13471 3.03766 65 66 135 255 
16.6302 3.45811 4.73297 72 41 121 255 
10.3615 2.15438 2.84168 62 76 138 255 
10.421 2.15943 2.76222 63 71 136 255 
10.4774 2.17288 2.66394 72 37 118 255 
10.5671 2.18965 2.57689 64 69 136 255 
12.825 2.65493 2.99959 72 37 118 255 
11.8479 2.45727 2.66923 71 47 125 255 
13.7357 2.84611 2.94839 70 10 93 255 
10.7545 2.2226 2.20035 50 100 142 255 
10.7545 2.21851 2.09474 52 97 141 255 
12.8653 2.66827 2.39726 70 51 127 255 
10.8347 2.24304 1.90918 49 103 142 255 
12.1607 2.5088 2.01997 68 58 131 255 
11.308 2.32241 1.7706 72 35 116 255 
11.1701 2.31466 1.65603 71 45 123 255 
11.1326 2.30268 1.53907 54 93 141 255 
11.1079 2.28555 1.42662 53 95 141 255 
11.2804 2.31264 1.34252 72 27 109 255 
12.6252 2.61618 1.39839 71 45 123 255 
12.558 2.59064 1.26855 61 77 138 255 
12.5953 2.58929 1.14987 67 62 133 255 
33.8295 6.9171 2.76604 70 11 94 255 
33.8062 6.99914 2.49282 71 16 99 255 
33.6941 6.94479 2.15838 72 20 103 255 
35.7613 7.33217 1.9451 69 5 89 255 
35.0383 7.15154 1.5676 69 5 89 255 
47.5243 9.82201 1.74554 70 7 90 255 
47.5029 9.77367 1.2869 70 7 90 255 
0 0 0 68 2 86 255 
0 0 0 68 2 86 255 
0 0 -0 68 2 86 255 
0 0 -0 68 2 86 255 
45.4209 9.2879 -0.873983 69 4 87 255 
31.7883 6.46511 -0.917436 69 5 89 255 
20.2641 4.17332 -0.751413 71 19 101 255 
16.5874 3.40077 -0.771858 71 45 123 255 
14.7652 3.01658 -0.829363 72 37 118 255 
13.0751 2.65684 -0.860468 72 41 121 255 
11.8421 2.4367 -0.877243 71 44 122 255 
10.7973 2.20976 -0.902229 68 57 131 255 
10.1025 2.05846 -0.941918 61 77 138 255 
9.28809 1.88733 -0.956046 70 51 127 255 
8.67575 1.78044 -0.965258 63 71 136 255 
8.13748 1.66392 -0.984532 60 80 139 255 
7.61529 1.55029 -0.995551 64 69 136 255 
7.20006 1.46043 -1.0116 60 79 138 255 
6.82654 1.39723 -1.01777 59 81 139 255 
6.46731 1.32006 -1.02655 55 91 141 255 
6.1531 1.25151 -1.03612 56 88 140 255 
5.85123 1.18684 -1.04415 56 89 140 255 
5.62434 1.14708 -1.05351 51 99 141 255 
5.36981 1.09312 -1.05725 52 96 141 255 
5.14468 1.0464 -1.06527 56 88 140 255 
4.96112 1.00719 -1.0788 56 89 140 255 
4.78717 0.973734 -1.08392 57 86 140 255 
4.58925 0.932553 -1.08461 59 81 139 255 
4.39133 0.891578 -1.08322 62 74 137 255 
4.24248 0.862838 -1.09228 64 69 136 255 
4.1277 0.835851 -1.10093 59 82 139 255 
3.98986 0.807856 -1.10449 62 74 137 255 
3.85429 0.781841 -1.10842 66 65 134 255 
3.67861 0.749492 -1.09993 68 58 131 255 
9.2555 1.85373 2.83552 61 77 138 255 
10.3048 2.07308 3.03988 69 56 130 255 
16.1752 3.26008 4.59769 72 41 121 255 
17.0293 3.43188 4.66447 72 26 108 255 
10.4881 2.10631 2.77654 66 65 134 255 
10.6095 2.13245 2.69414 61 78 138 255 
10.8235 2.17361 2.63612 55 90 140 255 
11.0863 2.22416 2.5897 71 45 123 255 
11.1151 2.23423 2.50099 72 33 115 255 
13.8863 2.78855 2.97698 71 45 123 255 
12.734 2.55034 2.60211 71 42 122 255 
10.7805 2.15498 2.09717 58 84 140 255 
12.4995 2.51251 2.32618 70 48 126 255 
10.857 2.17826 1.91071 60 79 138 255 
12.0587 2.41072 2.00055 72 26 108 255 
11.2881 2.24623 1.7653 66 63 133 255 
11.2666 2.26264 1.66824 68 59 132 255 
11.1223 2.22946 1.53572 69 56 130 255 
11.9994 2.39233 1.5392 71 47 125 255 
12.3836 2.45973 1.47198 63 72 137 255 
12.4519 2.50068 1.37748 62 73 137 255 
12.7239 2.54358 1.28371 66 63 133 255 
33.4937 6.67159 3.05397 71 13 96 255 
34.1216 6.75898 2.78648 71 19 101 255 
34.09 6.84004 2.51061 71 16 99 255 
33.8232 6.75531 2.16396 71 19 101 255 
35.4667 7.04528 1.92669 70 8 92 255 
35.0785 6.93583 1.56747 70 7 90 255 
47.5562 9.52473 1.74453 69 5 89 255 
47.113 9.3925 1.27475 70 10 93 255 
72.4041 14.3696 1.26269 69 4 87 255 
0 0 0 68 1 84 255 
0 0 -0 68 1 84 255 
0 0 -0 68 2 86 255 
45.936 9.09996 -0.882804 69 4 87 255 
0 0 -0 69 4 87 255 
20.4353 4.07805 -0.756821 72 31 112 255 
16.655 3.30827 -0.774044 70 50 126 255 
13.9372 2.75843 -0.781886 72 35 116 255 
13.1587 2.58986 -0.864909 72 37 118 255 
11.8422 2.36106 -0.876158 72 41 121 255 
10.8332 2.14792 -0.904106 65 66 135 255 
10.0543 1.98448 -0.936277 65 66 135 255 
9.30926 1.83223 -0.957049 70 52 128 255 
8.69821 1.7295 -0.966558 63 71 136 255 
8.14364 1.61319 -0.984062 61 77 138 255 
7.6451 1.50757 -0.99822 63 71 136 255 
7.20791 1.41603 -1.01146 61 78 138 255 
6.83013 1.35435 -1.01705 62 74 137 255 
6.48304 1.28188 -1.02778 56 89 140 255 
6.17422 1.2164 -1.0384 55 90 140 255 
5.88063 1.15528 -1.04811 55 91 141 255 
5.62838 1.11198 -1.05297 49 103 142 255 
5.36967 1.05882 -1.05593 54 93 141 255 
5.15677 1.01595 -1.06646 55 91 141 255 
4.96721 0.976734 -1.0788 59 82 139 255 
4.78731 0.94321 -1.08262 60 80 139 255 
4.59967 0.905317 -1.08574 57 86 140 255 
4.42057 0.869305 -1.0891 62 76 138 255 
4.24009 0.835291 -1.09032 63 72 137 255 
4.13655 0.811253 -1.10195 59 82 139 255 
4.00232 0.784845 -1.10659 58 83 139 255 
3.85618 0.75762 -1.10761 63 71 136 255 
3.70291 0.730809 -1.10584 68 59 132 255 
12.3957 2.40365 3.79297 70 50 126 255 
10.5681 2.05867 3.11378 63 72 137 255 
14.5951 2.84855 4.14353 72 27 109 255 
15.5704 3.03857 4.25967 72 20 103 255 
16.0648 3.12384 4.24771 72 24 106 255 
10.8053 2.10291 2.74052 72 36 117 255 
10.6801 2.07671 2.59803 61 77 138 255 
11.0644 2.14921 2.58144 60 80 139 255 
12.0766 2.3505 2.71404 69 56 130 255 
12.1289 2.35831 2.59706 63 72 137 255 
12.0236 2.33142 2.45398 62 76 138 255 
12.0501 2.33198 2.34133 71 47 125 255 
12.0946 2.35401 2.2481 71 42 122 255 
36.0214 6.99739 6.33169 70 10 93 255 
15.8787 3.07319 2.6311 72 38 119 255 
34.1564 6.57918 5.33516 71 13 96 255 
11.2093 2.17968 1.65775 65 68 135 255 
11.8391 2.29768 1.63272 70 48 126 255 
12.0119 2.31828 1.53895 71 44 122 255 
13.0802 2.51478 1.55293 71 46 124 255 
12.8944 2.50735 1.4247 70 50 126 255 
12.8741 2.49155 1.29729 72 27 109 255 
28.464 5.48836 2.59224 70 8 92 255 
35.3352 6.77433 2.88214 71 16 99 255 
34.0354 6.6121 2.50355 72 23 105 255 
34.2324 6.61889 2.1875 71 17 100 255 
35.2573 6.77907 1.91302 70 7 90 255 
35.0851 6.7137 1.56589 70 11 94 255 
42.2001 8.183 1.54618 70 11 94 255 
47.8421 9.233 1.29293 70 10 93 255 
47.1558 9.05833 0.82139 69 4 87 255 
0 0 0 68 2 86 255 
0 0 -0 68 1 84 255 
0 0 -0 69 4 87 255 
0 0 -0 68 1 84 255 
31.2044 5.94855 -0.89841 70 7 90 255 
20.6032 3.98026 -0.76212 72 29 111 255 
16.7113 3.213 -0.775729 71 46 124 255 
13.7243 2.62891 -0.769028 72 40 120 255 
13.2243 2.51859 -0.868191 68 57 131 255 
11.8799 2.29289 -0.877894 71 44 122 255 
10.8589 2.08385 -0.905166 69 53 129 255 
10.0849 1.9263 -0.938006 62 73 137 255 
9.34574 1.77991 -0.959659 69 53 129 255 
8.72525 1.67929 -0.9684 64 70 136 255 
8.15728 1.56394 -0.984532 63 72 137 255 
7.66979 1.46361 -1.00025 66 64 134 255 
7.22425 1.37326 -1.01255 61 77 138 255 
6.81499 1.30794 -1.01358 58 83 139 255 
6.52378 1.2484 -1.03301 50 100 142 255 
6.17187 1.17665 -1.03677 55 91 141 255 
5.88277 1.11826 -1.04725 54 92 141 255 
5.6351 1.07742 -1.05297 53 95 141 255 
5.3915 1.0288 -1.05896 50 100 142 255 
5.1812 0.987777 -1.07024 59 82 139 255 
4.97311 0.946238 -1.0788 57 85 140 255 
4.77958 0.911258 -1.07958 61 77 138 255 
4.608 0.877624 -1.08641 60 79 138 255 
4.42104 0.841257 -1.08792 62 76 138 255 
4.25466 0.811075 -1.09276 64 70 136 255 
4.12624 0.78297 -1.0979 58 83 139 255 
3.98999 0.757034 -1.10187 62 74 137 255 
3.85792 0.733405 -1.10679 64 69 136 255 
3.70261 0.707174 -1.10443 69 53 129 255 
12.2549 2.29841 3.7455 72 41 121 255 
10.556 1.98916 3.10656 66 64 134 255 
11.6694 2.20329 3.30903 62 74 137 255 
11.7053 2.20983 3.19851 72 33 115 255 
11.7574 2.21147 3.10514 67 62 133 255 
11.9099 2.24213 3.01713 71 45 123 255 
10.684 2.00952 2.59594 65 66 135 255 
10.7765 2.02477 2.51134 64 69 136 255 
10.8298 2.03894 2.43098 70 50 126 255 
12.9895 2.44302 2.77807 67 62 133 255 
12.9754 2.43346 2.64513 71 45 123 255 
16.1068 3.01464 3.1259 72 26 108 255 
16.1577 3.04204 2.9998 72 29 111 255 
11.5415 2.16861 2.02634 72 20 103 255 
15.7663 2.95119 2.60943 69 56 130 255 
12.1174 2.25704 1.89053 70 51 127 255 
12.198 2.29434 1.80185 62 73 137 255 
12.2864 2.30635 1.69242 67 61 132 255 
13.6928 2.55564 1.75226 70 52 128 255 
12.7722 2.37438 1.5146 71 19 101 255 
12.9125 2.42874 1.42503 69 56 130 255 
36.7816 6.88455 3.70207 70 8 92 255 
13.3008 2.48007 1.2099 70 50 126 255 
37.7519 6.99777 3.0757 69 5 89 255 
34.6194 6.50536 2.54352 71 13 96 255 
34.5059 6.45237 2.2024 71 13 96 255 
35.1117 6.52793 1.90291 72 20 103 255 
35.3929 6.54773 1.5778 70 8 92 255 
47.1096 8.83542 1.72404 69 5 89 255 
0 0 0 68 2 86 255 
0 0 0 68 2 86 255 
0 0 0 68 1 84 255 
0 0 -0 68 1 84 255 
0 0 -0 68 2 86 255 
0 0 -0 69 4 87 255 
32.4553 5.98089 -0.933353 71 13 96 255 
20.9426 3.91268 -0.77377 72 23 105 255 
16.8691 3.13614 -0.782149 72 40 120 255 
14.3853 2.66411 -0.80513 72 35 116 255 
13.2543 2.44011 -0.869157 72 36 117 255 
11.9399 2.22856 -0.881296 71 42 122 255 
10.8803 2.01882 -0.905901 70 52 128 255 
10.0681 1.85914 -0.935367 67 62 133 255 
9.35061 1.72145 -0.959057 69 55 129 255 
8.71878 1.62263 -0.966558 63 71 136 255 
8.19211 1.51856 -0.987593 63 72 137 255 
7.68058 1.41688 -1.00051 65 66 135 255 
7.23449 1.32927 -1.01282 62 76 138 255 
6.85305 1.2717 -1.01806 59 82 139 255 
6.52451 1.20708 -1.03193 52 96 141 255 
6.14599 1.13267 -1.03123 59 81 139 255 
5.89243 1.08268 -1.04776 56 89 140 255 
5.62999 1.04068 -1.0508 56 88 140 255 
5.39192 0.994626 -1.05782 51 98 141 255 
5.17078 0.952947 -1.06686 56 89 140 255 
4.95862 0.91199 -1.07442 60 79 138 255 
4.78796 0.882445 -1.08023 62 74 137 255 
4.61618 0.849863 -1.08709 58 83 139 255 
4.41369 0.811828 -1.08487 61 77 138 255 
4.28053 0.788819 -1.09815 62 76 138 255 
4.12145 0.755892 -1.09537 58 83 139 255 
3.99741 0.73306 -1.10266 63 72 137 255 
3.86708 0.710589 -1.10815 63 71 136 255 
3.71065 0.685139 -1.10556 67 62 133 255 
11.4131 2.06812 3.48427 72 38 119 255 
10.6361 1.93675 3.12656 66 64 134 255 
11.6429 2.12439 3.29775 65 68 135 255 
11.7395 2.14178 3.20422 72 36 117 255 
16.7876 3.05108 4.42859 72 24 106 255 
10.4436 1.89981 2.64268 64 69 136 255 
10.6722 1.93958 2.59013 70 52 128 255 
12.9985 2.35976 3.02571 67 61 132 255 
10.845 1.97298 2.43163 69 55 129 255 
11.0333 2.00509 2.35702 61 77 138 255 
11.1222 2.01535 2.26479 58 83 139 255 
11.2736 2.03851 2.18543 66 65 134 255 
11.3938 2.07283 2.11295 65 68 135 255 
11.5905 2.10426 2.03263 66 64 134 255 
11.8582 2.14444 1.9604 67 62 133 255 
12.1009 2.17722 1.88583 64 69 136 255 
12.2303 2.22281 1.80458 72 40 120 255 
13.7814 2.49954 1.89621 72 26 108 255 
34.6918 6.25489 4.43451 71 19 101 255 
35.2653 6.33231 4.17728 70 11 94 255 
12.9771 2.35853 1.43053 71 46 124 255 
13.3091 2.40669 1.33805 65 66 135 255 
13.3334 2.40159 1.2115 62 74 137 255 
13.155 2.35505 1.07056 68 57 131 255 
36.0433 6.54423 2.64514 69 5 89 255 
35.8118 6.46941 2.28318 70 11 94 255 
35.3093 6.34078 1.91148 71 13 96 255 
0 0 0 69 4 87 255 
46.9319 8.50432 1.7156 70 10 93 255 
0 0 0 68 2 86 255 
0 0 0 68 1 84 255 
0 0 0 68 2 86 255 
0 0 -0 68 1 84 255 
0 0 -0 68 2 86 255 
53.7841 9.62939 -1.03005 69 5 89 255 
0 0 -0 69 4 87 255 
20.621 3.7218 -0.761031 72 20 103 255 
17.0611 3.06365 -0.790164 72 40 120 255 
15.11 2.70254 -0.844749 70 48 126 255 
13.2916 2.36276 -0.870637 72 38 119 255 
11.9631 2.15702 -0.882019 71 46 124 255 
10.9101 1.95519 -0.907369 69 55 129 255 
10.0686 1.79541 -0.934367 65 66 135 255 
9.38451 1.66822 -0.961465 68 57 131 255 
8.74912 1.57279 -0.968833 65 68 135 255 
8.21887 1.47142 -0.989712 63 72 137 255 
7.69499 1.37077 -1.00127 66 65 134 255 
7.22203 1.28122 -1.00996 62 74 137 255 
6.86462 1.23032 -1.01864 58 83 139 255 
6.53666 1.1679 -1.0327 50 100 142 255 
6.15282 1.09494 -1.03123 59 81 139 255 
5.89799 1.04633 -1.04759 56 89 140 255 
5.63337 1.0056 -1.05026 55 91 141 255 
5.40275 0.962384 -1.05877 51 99 141 255 
5.17074 0.920172 -1.06566 55 91 141 255 
5.0036 0.888559 -1.08297 57 86 140 255 
4.79521 0.853392 -1.08067 64 69 136 255 
4.60788 0.819135 -1.08393 60 80 139 255 
4.43103 0.78694 -1.08792 61 78 138 255 
4.29388 0.764068 -1.10035 62 76 138 255 
4.12887 0.731095 -1.09613 61 78 138 255 
3.99803 0.707846 -1.10161 63 71 136 255 
3.86663 0.686007 -1.10679 66 64 134 255 
3.71857 0.663032 -1.10668 70 52 128 255 
12.6945 2.21995 3.87122 72 33 115 255 
11.3214 1.98985 3.32437 72 40 120 255 
15.0549 2.6516 4.25949 72 33 115 255 
13.1269 2.31175 3.57894 69 5 89 255 
13.0336 2.28627 3.43449 71 44 122 255 
10.434 1.83201 2.63736 62 73 137 255 
13.0052 2.28123 3.15289 69 55 129 255 
13.0089 2.27929 3.02482 72 28 110 255 
16.0843 2.8243 3.60242 72 37 118 255 
12.362 2.1683 2.638 72 35 116 255 
12.1321 2.12154 2.46773 63 71 136 255 
17.1267 2.98847 3.31646 72 28 110 255 
13.7318 2.41121 2.54372 72 33 115 255 
11.5459 2.02307 2.0226 69 55 129 255 
11.914 2.0791 1.96747 65 66 135 255 
13.867 2.40723 2.15872 71 44 122 255 
13.8638 2.4319 2.04335 72 20 103 255 
35.3833 6.19351 4.86313 71 19 101 255 
35.3023 6.14156 4.50765 71 14 97 255 
12.9002 2.23476 1.52641 72 33 115 255 
12.9766 2.27628 1.42891 71 47 125 255 
13.0237 2.27264 1.30793 71 42 122 255 
36.0732 6.26918 3.27414 71 14 97 255 
13.1565 2.27208 1.06952 64 70 136 255 
36.0288 6.31349 2.64118 71 13 96 255 
35.6404 6.21287 2.26978 72 22 104 255 
35.4991 6.15026 1.91967 72 20 103 255 
35.1319 6.05455 1.56274 70 7 90 255 
47.2539 8.26353 1.72548 70 7 90 255 
47.1205 8.19714 1.26913 70 7 90 255 
67.7074 11.7182 1.17541 69 5 89 255 
0 0 0 68 2 86 255 
0 0 -0 68 2 86 255 
0 0 -0 68 2 86 255 
54.384 9.39279 -1.04042 69 5 89 255 
41.927 7.19552 -1.20311 70 8 92 255 
20.8473 3.63069 -0.768544 72 24 106 255 
17.1318 2.96795 -0.792577 71 45 123 255 
15.2326 2.62811 -0.850684 71 45 123 255 
13.3157 2.28285 -0.87128 72 35 116 255 
11.986 2.08529 -0.882743 67 62 133 255 
10.9386 1.8911 -0.908756 70 50 126 255 
10.0509 1.7287 -0.931728 65 68 135 255 
9.43674 1.61784 -0.965781 65 68 135 255 
8.78309 1.52333 -0.971542 62 73 137 255 
8.2434 1.42366 -0.991595 64 69 136 255 
7.68273 1.32 -0.998601 66 64 134 255 
7.25124 1.24055 -1.01296 61 77 138 255 
6.85254 1.18481 -1.01575 57 85 140 255 
6.54176 1.12743 -1.03239 52 96 141 255 
6.18665 1.06184 -1.03579 58 83 139 255 
5.90139 1.00962 -1.04708 57 85 140 255 
5.65203 0.973182 -1.05261 55 91 141 255 
5.41436 0.930213 -1.05991 51 98 141 255 
5.18112 0.889256 -1.06666 53 94 141 255 
5.00221 0.856685 -1.08151 58 84 140 255 
4.80035 0.823953 -1.08067 61 77 138 255 
4.60897 0.790188 -1.08303 58 83 139 255 
4.44823 0.76187 -1.09098 62 76 138 255 
4.28798 0.735903 -1.09766 62 74 137 255 
4.13518 0.706073 -1.09663 61 78 138 255 
3.98613 0.68054 -1.09716 63 72 137 255 
3.8442 0.657724 -1.0992 66 63 133 255 
3.72446 0.640528 -1.10724 70 50 126 255 
11.5358 1.94446 3.51419 69 55 129 255 
13.1017 2.21997 3.84305 72 31 112 255 
13.1183 2.22761 3.70762 72 35 116 255 
9.84918 1.67228 2.68246 72 36 117 255 
10.0668 1.70226 2.64992 55 91 141 255 
10.3169 1.74625 2.60499 65 66 135 255 
10.3874 1.75641 2.51558 54 93 141 255 
14.9199 2.51986 3.46551 72 24 106 255 
16.5307 2.79825 3.6985 70 48 126 255 
13.0361 2.20417 2.7789 70 50 126 255 
12.1449 2.04705 2.46773 72 31 112 255 
11.3433 1.90767 2.19424 72 31 112 255 
11.9829 2.02841 2.21741 72 20 103 255 
11.8447 2.0006 2.07276 61 77 138 255 
11.943 2.00874 1.9702 71 47 125 255 
35.3838 5.919 5.50253 70 10 93 255 
38.9988 6.59454 5.74187 70 7 90 255 
35.5927 6.0053 4.88675 71 19 101 255 
35.3452 5.92582 4.5084 71 16 99 255 
35.4893 5.92393 4.19488 71 13 96 255 
13.008 2.1996 1.43085 71 45 123 255 
13.1551 2.21249 1.31974 71 47 125 255 
12.7233 2.13085 1.15361 65 66 135 255 
13.1938 2.19524 1.07144 72 24 106 255 
41.4091 6.99469 3.03239 69 4 87 255 
36.2605 6.09196 2.30685 71 14 97 255 
35.2623 5.88662 1.90488 71 17 100 255 
34.8599 5.78765 1.54903 72 20 103 255 
34.8633 5.87651 1.2717 70 10 93 255 
47.1936 7.91183 1.26977 70 7 90 255 
0 0 0 69 4 87 255 
0 0 0 69 4 87 255 
0 0 -0 68 1 84 255 
0 0 -0 68 2 86 255 
54.4022 9.05251 -1.03968 69 5 89 255 
42.0473 6.95084 -1.20532 70 8 92 255 
21.1175 3.54439 -0.77769 72 26 108 255 
17.2955 2.88711 -0.799317 71 46 124 255 
15.2986 2.54295 -0.853486 71 46 124 255 
13.3383 2.20256 -0.87186 72 35 116 255 
12.0635 2.02259 -0.887519 72 37 118 255 
10.9569 1.82509 -0.909327 70 48 126 255 
10.082 1.67041 -0.933639 63 72 137 255 
9.47397 1.56445 -0.968591 66 64 134 255 
8.78835 1.46875 -0.971109 63 72 137 255 
8.25492 1.37354 -0.991948 62 74 137 255 
7.68187 1.27138 -0.997457 66 64 134 255 
7.29488 1.202 -1.01801 61 78 138 255 
6.84211 1.13981 -1.01315 56 88 140 255 
6.5427 1.0863 -1.03147 52 97 141 255 
6.21836 1.02804 -1.04003 55 91 141 255 
5.9133 0.974352 -1.04811 57 86 140 255 
5.6841 0.942829 -1.05748 54 92 141 255 
5.43062 0.898737 -1.06199 55 91 141 255 
5.20968 0.861285 -1.07143 53 94 141 255 
5.0344 0.830433 -1.08735 62 76 138 255 
4.80724 0.794802 -1.0811 57 85 140 255 
4.61758 0.762528 -1.08393 59 81 139 255 
4.45378 0.73472 -1.09121 61 77 138 255 
4.2685 0.705625 -1.09154 63 72 137 255 
4.16808 0.685396 -1.10422 58 84 140 255 
4.01213 0.65967 -1.10318 65 68 135 255 
3.83487 0.631933 -1.0954 66 63 133 255 
3.70654 0.614055 -1.10078 70 50 126 255 
11.5334 1.87134 3.50988 63 72 137 255 
13.0838 2.13443 3.83388 69 55 129 255 
13.1194 2.14505 3.70413 69 55 129 255 
9.89452 1.61758 2.69205 70 52 128 255 
10.1201 1.64746 2.66122 50 101 142 255 
10.1378 1.65201 2.55716 56 88 140 255 
10.3029 1.67717 2.49258 62 76 138 255 
10.6161 1.72605 2.46334 66 63 133 255 
16.6257 2.70949 3.71595 70 48 126 255 
15.6235 2.54315 3.32706 72 35 116 255 
15.8961 2.57912 3.22665 72 32 113 255 
11.7281 1.89846 2.26638 71 46 124 255 
12.0175 1.95849 2.22154 62 76 138 255 
11.6029 1.88661 2.02838 66 64 134 255 
11.9074 1.9277 1.96233 61 78 138 255 
36.6549 5.90066 5.69447 69 5 89 255 
38.3372 6.24096 5.63872 70 8 92 255 
36.9161 5.99587 5.0633 71 17 100 255 
35.809 5.7779 4.56294 71 17 100 255 
12.2902 1.97406 1.45126 72 37 118 255 
13.0654 2.12693 1.4357 72 35 116 255 
13.3187 2.15606 1.3348 69 53 129 255 
12.7706 2.05829 1.15673 65 66 135 255 
13.456 2.15411 1.09164 71 46 124 255 
36.1006 5.8704 2.64096 70 7 90 255 
36.0361 5.82713 2.29025 69 5 89 255 
35.2268 5.65874 1.90105 71 17 100 255 
35.3367 5.64424 1.56865 71 16 99 255 
35.0802 5.69193 1.27831 71 16 99 255 
47.5294 7.6686 1.27751 70 7 90 255 
72.1701 11.5803 1.25033 69 4 87 255 
0 0 0 68 2 86 255 
0 0 -0 68 2 86 255 
0 0 -0 68 2 86 255 
54.742 8.76422 -1.04513 69 4 87 255 
42.2215 6.71374 -1.2091 70 10 93 255 
21.1458 3.41587 -0.777944 72 26 108 255 
17.3503 2.78696 -0.801047 71 45 123 255 
15.3189 2.44982 -0.853761 72 41 121 255 
13.3249 2.11645 -0.870122 72 35 116 255 
12.0648 1.94678 -0.886723 72 37 118 255 
10.9915 1.76161 -0.911286 70 52 128 255 
10.1019 1.61009 -0.934549 55 90 140 255 
9.51582 1.51144 -0.971903 62 76 138 255 
8.78444 1.41275 -0.9697 65 68 135 255 
8.26123 1.32255 -0.991713 62 73 137 255 
7.70324 1.2264 -0.999236 65 66 135 255 
7.28255 1.15411 -1.01528 59 81 139 255 
6.87731 1.10235 -1.01734 56 89 140 255 
6.53949 1.04457 -1.02993 54 93 141 255 
6.22455 0.98987 -1.04003 56 89 140 255 
5.92501 0.938975 -1.04914 57 86 140 255 
5.69172 0.908244 -1.05784 52 96 141 255 
5.43604 0.865399 -1.06199 52 96 141 255 
5.22164 0.83038 -1.07282 52 97 141 255 
5.00752 0.794469 -1.08047 60 79 138 255 
4.82553 0.767437 -1.08413 59 82 139 255 
4.63949 0.736931 -1.08799 55 90 140 255 
4.44957 0.706008 -1.0891 61 78 138 255 
4.25264 0.676223 -1.0864 64 69 136 255 
4.16743 0.659053 -1.10296 61 78 138 255 
4.00752 0.633683 -1.10083 66 63 133 255 
3.86244 0.612158 -1.10218 68 57 131 255 
3.69602 0.589035 -1.09656 71 46 124 255 
11.4746 1.78962 3.48859 70 48 126 255 
8.1854 1.28382 2.39618 53 95 141 255 
8.17152 1.28464 2.30488 59 82 139 255 
8.22604 1.29304 2.2359 69 53 129 255 
10.1539 1.58907 2.6675 54 92 141 255 
10.165 1.59248 2.56151 53 95 141 255 
10.3678 1.62249 2.50582 56 89 140 255 
10.7382 1.67834 2.48924 53 95 141 255 
10.8342 1.69747 2.41913 66 65 134 255 
10.8065 1.69105 2.29902 69 55 129 255 
11.986 1.86931 2.4306 71 46 124 255 
12.0191 1.86995 2.32034 68 59 132 255 
12.0341 1.88547 2.22243 71 16 99 255 
11.6435 1.81995 2.03348 64 69 136 255 
36.5246 5.68322 6.01336 71 13 96 255 
36.2802 5.61218 5.63079 71 17 100 255 
38.2291 5.98281 5.61731 70 8 92 255 
37.0422 5.7833 5.07564 71 13 96 255 
35.9614 5.57632 4.57792 71 14 97 255 
12.4905 1.9277 1.47349 70 48 126 255 
12.9976 2.03412 1.42686 69 56 130 255 
13.3337 2.0746 1.335 66 65 134 255 
13.5054 2.09179 1.2221 66 63 133 255 
13.4828 2.07362 1.09276 72 38 119 255 
13.4236 2.09838 0.981052 63 71 136 255 
36.2487 5.6335 2.30153 71 16 99 255 
35.4434 5.47066 1.91089 72 23 105 255 
35.5998 5.46247 1.57881 71 16 99 255 
35.3219 5.50891 1.28586 70 11 94 255 
47.8294 7.41619 1.28433 70 7 90 255 
0 0 0 68 1 84 255 
0 0 0 68 1 84 255 
0 0 -0 68 2 86 255 
0 0 -0 68 2 86 255 
0 0 -0 69 4 87 255 
42.4713 6.48655 -1.2151 70 7 90 255 
21.3194 3.30982 -0.78357 72 29 111 255 
17.374 2.68151 -0.801366 72 37 118 255 
15.2576 2.3441 -0.84953 71 45 123 255 
13.2311 2.0184 -0.863171 72 35 116 255 
12.0962 1.87577 -0.888171 72 41 121 255 
10.9952 1.69307 -0.910714 70 51 127 255 
10.1283 1.55063 -0.936095 62 74 137 255 
9.55147 1.45707 -0.974613 65 68 135 255 
8.79687 1.35943 -0.970133 65 68 135 255 
8.27999 1.2735 -0.993008 61 78 138 255 
7.76651 1.18766 -1.00648 63 71 136 255 
7.30516 1.11179 -1.01746 62 73 137 255 
6.89959 1.06254 -1.01965 55 90 140 255 
6.55847 1.00638 -1.03193 52 96 141 255 
6.22661 0.951062 -1.03938 58 84 140 255 
5.93163 0.90275 -1.04931 61 77 138 255 
5.68649 0.871664 -1.05586 53 95 141 255 
5.4461 0.83277 -1.06294 54 92 141 255 
5.22664 0.798325 -1.07282 52 97 141 255 
5.0152 0.764171 -1.08109 62 73 137 255 
4.85427 0.741499 -1.08955 55 91 141 255 
4.6497 0.709332 -1.08935 57 86 140 255 
4.44805 0.677814 -1.08769 62 74 137 255 
4.27971 0.65363 -1.09228 64 70 136 255 
4.15322 0.630709 -1.09815 63 71 136 255 
4.00657 0.608357 -1.09952 66 65 134 255 
3.85565 0.586854 -1.0992 68 57 131 255 
3.69388 0.565475 -1.09487 70 48 126 255 
8.17408 1.22353 2.48281 64 69 136 255 
8.16178 1.22885 2.38701 50 101 142 255 
8.18973 1.23605 2.30784 50 102 142 255 
8.15169 1.23015 2.2136 67 61 132 255 
10.1625 1.52659 2.66725 57 85 140 255 
10.2887 1.54725 2.59025 47 107 142 255 
10.3641 1.55682 2.50257 71 44 122 255 
10.7049 1.60591 2.47919 57 86 140 255 
14.341 2.15685 3.19916 71 46 124 255 
11.0402 1.65829 2.34653 53 95 141 255 
11.9798 1.79312 2.42706 69 56 130 255 
12.8697 1.92149 2.48224 70 7 90 255 
11.6398 1.75059 2.14759 72 22 104 255 
11.6661 1.75022 2.03552 55 91 141 255 
36.5753 5.46148 6.01609 71 16 99 255 
36.399 5.40209 5.64398 71 14 97 255 
36.8372 5.53364 5.40771 70 11 94 255 
37.6915 5.64799 5.15976 69 5 89 255 
35.6564 5.30518 4.53486 71 14 97 255 
12.6063 1.86644 1.48577 70 48 126 255 
13.0197 1.9558 1.42794 69 55 129 255 
12.7045 1.89693 1.27081 70 10 93 255 
12.721 1.89044 1.15005 67 61 132 255 
12.5555 1.85221 1.01666 71 45 123 255 
13.4688 2.02086 0.983429 70 10 93 255 
35.871 5.34959 2.27541 71 17 100 255 
35.2629 5.22149 1.8994 71 17 100 255 
14.0836 2.07264 0.624017 72 37 118 255 
35.4104 5.30036 1.28787 70 7 90 255 
47.9462 7.13331 1.28627 70 7 90 255 
72.2949 10.692 1.25012 69 4 87 255 
0 0 0 68 2 86 255 
0 0 -0 68 1 84 255 
0 0 -0 68 1 84 255 
0 0 -0 68 2 86 255 
43.084 6.30984 -1.23149 69 4 87 255 
21.2849 3.17085 -0.781574 72 27 109 255 
16.8951 2.50155 -0.778552 72 26 108 255 
15.25 2.24723 -0.848321 70 50 126 255 
13.2729 1.94151 -0.865102 72 35 116 255 
12.0572 1.79403 -0.88448 71 47 125 255 
10.964 1.61946 -0.907288 71 46 124 255 
10.2125 1.49945 -0.94301 70 51 127 255 
9.58189 1.4016 -0.976821 63 71 136 255 
8.82078 1.30776 -0.971867 64 69 136 255 
8.28372 1.22209 -0.992537 64 70 136 255 
7.76777 1.13912 -1.00572 64 69 136 255 
7.30792 1.06637 -1.01692 62 74 137 255 
6.90011 1.01932 -1.01878 54 92 141 255 
6.57332 0.967412 -1.03332 56 88 140 255 
6.22256 0.911409 -1.03775 57 85 140 255 
5.94876 0.868044 -1.05138 59 81 139 255 
5.69757 0.837614 -1.05694 52 96 141 255 
5.45305 0.799622 -1.06332 53 94 141 255 
5.23144 0.76624 -1.07282 54 92 141 255 
5.04109 0.736494 -1.08568 59 81 139 255 
4.8597 0.711841 -1.08976 58 83 139 255 
4.63951 0.678673 -1.08596 61 77 138 255 
4.44058 0.648822 -1.08487 62 73 137 255 
4.28076 0.626936 -1.09154 67 62 133 255 
4.14457 0.603402 -1.09486 62 73 137 255 
4.00354 0.582788 -1.09768 66 64 134 255 
3.84299 0.560822 -1.09458 67 61 132 255 
3.70582 0.544053 -1.0974 71 44 122 255 
8.22314 1.17933 2.49547 53 95 141 255 
8.11211 1.17052 2.37034 54 92 141 255 
8.1533 1.17944 2.29549 65 66 135 255 
8.15526 1.17955 2.21256 66 64 134 255 
10.2378 1.47373 2.68459 48 105 142 255 
10.2683 1.4798 2.58277 62 76 138 255 
11.5691 1.66532 2.79103 69 55 129 255 
10.7513 1.54547 2.48768 51 98 141 255 
10.916 1.57331 2.43292 62 74 137 255 
11.273 1.62259 2.39384 62 74 137 255 
13.0155 1.86656 2.63452 71 17 100 255 
37.4438 5.35584 7.21549 70 8 92 255 
11.6805 1.68348 2.15315 66 64 134 255 
11.4045 1.63949 1.98808 63 71 136 255 
37.1827 5.31915 6.1105 70 10 93 255 
36.4099 5.17558 5.64065 72 23 105 255 
38.1341 5.4894 5.59304 70 8 92 255 
38.6387 5.54773 5.28466 70 7 90 255 
12.5679 1.79119 1.59699 67 61 132 255 
12.8151 1.81709 1.50904 62 73 137 255 
13.1623 1.89472 1.44228 69 53 129 255 
12.8006 1.83106 1.27928 69 56 130 255 
13.1968 1.87846 1.192 72 36 117 255 
12.6258 1.78351 1.02145 72 40 120 255 
13.3299 1.91646 0.97241 63 72 137 255 
36.1076 5.15861 2.28838 70 7 90 255 
14.0641 1.99441 0.756875 72 40 120 255 
35.9273 5.06227 1.59046 70 10 93 255 
47.6088 6.82788 1.72997 69 4 87 255 
0 0 0 68 2 86 255 
0 0 0 68 2 86 255 
0 0 0 68 1 84 255 
0 0 -0 68 1 84 255 
0 0 -0 68 1 84 255 
60.1846 8.50252 -1.14585 69 4 87 255 
43.208 6.05743 -1.23395 69 5 89 255 
21.4128 3.05571 -0.785566 72 24 106 255 
17.2019 2.43921 -0.791985 72 35 116 255 
15.3732 2.1691 -0.85442 72 41 121 255 
13.1739 1.84453 -0.857894 70 48 126 255 
12.0621 1.71917 -0.884046 72 41 121 255 
11.0073 1.5569 -0.910062 70 48 126 255 
10.1811 1.43108 -0.93928 70 51 127 255 
9.57553 1.34071 -0.975315 63 71 136 255 
8.85718 1.25766 -0.975009 67 61 132 255 
8.25566 1.16624 -0.988299 63 71 136 255 
7.78247 1.09254 -1.00673 62 73 137 255 
7.31727 1.02193 -1.01733 63 71 136 255 
6.91309 0.977929 -1.0198 59 81 139 255 
6.54978 0.922924 -1.02871 55 90 140 255 
6.21924 0.871978 -1.03628 59 81 139 255 
5.96178 0.832617 -1.05276 61 78 138 255 
5.69871 0.80209 -1.05622 55 91 141 255 
5.45882 0.766284 -1.06351 55 91 141 255 
5.23798 0.734399 -1.07322 55 91 141 255 
5.06101 0.707716 -1.08901 61 77 138 255 
4.86784 0.682551 -1.09063 55 90 140 255 
4.66192 0.652759 -1.09025 61 78 138 255 
4.45218 0.62264 -1.08675 65 68 135 255 
4.29797 0.602543 -1.09497 66 64 134 255 
4.14148 0.577025 -1.09309 63 72 137 255 
4.00704 0.558212 -1.09768 66 64 134 255 
3.82634 0.534435 -1.08889 70 52 128 255 
3.70339 0.520503 -1.09572 71 42 122 255 
14.5096 1.99014 4.39943 72 33 115 255 
8.10106 1.11822 2.36506 67 61 132 255 
8.15275 1.12833 2.29334 69 55 129 255 
9.95132 1.37705 2.6975 49 103 142 255 
10.2322 1.4089 2.68082 62 74 137 255 
15.2278 2.09924 3.82692 72 35 116 255 
11.5763 1.5939 2.79034 60 79 138 255 
10.9054 1.49939 2.52116 66 65 134 255 
11.0619 1.5251 2.46329 57 86 140 255 
11.1315 1.53256 2.36175 71 13 96 255 
13.4124 1.83956 2.71252 72 20 103 255 
11.3449 1.55176 2.1843 60 80 139 255 
11.4898 1.5841 2.11618 55 91 141 255 
11.3792 1.56465 1.98196 66 65 134 255 
37.196 5.08836 6.10745 71 14 97 255 
37.157 5.04938 5.75147 71 14 97 255 
37.668 5.1866 5.51991 70 7 90 255 
41.4906 5.6976 5.66983 70 7 90 255 
12.7969 1.74378 1.6247 71 47 125 255 
12.9904 1.7607 1.52838 70 51 127 255 
13.1412 1.80945 1.43872 67 62 133 255 
12.8204 1.7537 1.28016 72 38 119 255 
36.315 4.94202 3.27735 70 10 93 255 
12.5585 1.69547 1.01515 70 11 94 255 
13.371 1.83871 0.974571 71 46 124 255 
13.8004 1.8853 0.873874 72 24 106 255 
13.9534 1.89144 0.750278 72 32 113 255 
35.8388 4.82573 1.5852 71 19 101 255 
55.3576 7.59282 2.00981 69 4 87 255 
47.9588 6.53468 1.28436 69 4 87 255 
56.4488 7.64183 0.974414 69 4 87 255 
0 0 0 68 2 86 255 
0 0 -0 68 1 84 255 
0 0 -0 68 2 86 255 
0 0 -0 69 4 87 255 
43.3147 5.80162 -1.23596 70 7 90 255 
21.0331 2.86996 -0.770976 71 17 100 255 
16.972 2.30048 -0.780738 71 42 122 255 
15.5416 2.09568 -0.863048 71 44 122 255 
13.269 1.77491 -0.863364 72 37 118 255 
12.0823 1.64648 -0.884769 72 37 118 255 
11.0462 1.49334 -0.912509 72 40 120 255 
10.1798 1.36726 -0.93837 68 57 131 255 
9.55596 1.27824 -0.972505 64 70 136 255 
8.87852 1.20517 -0.976526 64 69 136 255 
8.26562 1.11596 -0.988652 66 65 134 255 
7.78902 1.04476 -1.00673 65 68 135 255 
7.32242 0.976877 -1.01719 63 71 136 255 
6.92877 0.936818 -1.02124 60 79 138 255 
6.56119 0.883509 -1.02963 57 85 140 255 
6.22839 0.834325 -1.03693 60 80 139 255 
5.97361 0.796933 -1.05397 59 81 139 255 
5.72204 0.7696 -1.05965 52 96 141 255 
5.46245 0.732645 -1.06332 55 91 141 255 
5.25308 0.703676 -1.07541 54 93 141 255 
5.05362 0.675095 -1.08651 63 72 137 255 
4.87 0.652411 -1.0902 56 89 140 255 
4.67163 0.624917 -1.0916 60 80 139 255 
4.45496 0.595181 -1.08651 65 68 135 255 
4.30832 0.577061 -1.09668 67 62 133 255 
4.13535 0.550327 -1.09056 66 64 134 255 
4.01517 0.534251 -1.09899 68 57 131 255 
3.84959 0.51362 -1.09458 70 50 126 255 
3.69605 0.496365 -1.09262 72 37 118 255 
9.47435 1.24032 2.87033 70 48 126 255 
8.10682 1.06837 2.36478 53 95 141 255 
8.18531 1.08169 2.30059 61 77 138 255 
10.0879 1.33292 2.73225 52 97 141 255 
10.066 1.32313 2.6351 61 77 138 255 
10.4367 1.37356 2.62069 57 85 140 255 
11.771 1.54718 2.83493 71 45 123 255 
11.4904 1.50805 2.65422 65 68 135 255 
10.5347 1.3866 2.34395 71 19 101 255 
0 0 0 68 1 84 255 
13.401 1.7543 2.708 72 23 105 255 
11.3308 1.47907 2.17981 63 71 136 255 
12.6844 1.66955 2.33426 70 11 94 255 
12.4291 1.63137 2.16305 72 28 110 255 
37.2246 4.85977 6.10713 71 14 97 255 
37.5372 4.86666 5.80559 70 8 92 255 
37.133 4.88096 5.43702 70 10 93 255 
13.3313 1.74742 1.82027 70 7 90 255 
13.3269 1.73277 1.6906 70 48 126 255 
13.1803 1.70414 1.54946 69 55 129 255 
13.2477 1.74135 1.44918 69 56 130 255 
12.83 1.67487 1.28006 60 80 139 255 
13.1013 1.70111 1.1814 72 27 109 255 
13.8133 1.77865 1.11568 72 24 106 255 
13.123 1.72262 0.955701 72 32 113 255 
48.1649 6.27909 3.04741 70 10 93 255 
13.9618 1.80541 0.750118 72 20 103 255 
35.736 4.58881 1.57938 72 26 108 255 
55.3229 7.24251 2.0069 69 4 87 255 
56.4895 7.34428 1.51158 69 4 87 255 
72.4765 9.35913 1.25007 69 4 87 255 
0 0 0 68 2 86 255 
0 0 -0 68 1 84 255 
0 0 -0 68 1 84 255 
0 0 -0 69 4 87 255 
42.3996 5.41444 -1.20888 69 4 87 255 
21.0374 2.73917 -0.770504 71 17 100 255 
17.601 2.27584 -0.809016 72 36 117 255 
15.7245 2.02219 -0.872499 71 42 122 255 
13.3272 1.69952 -0.866454 72 41 121 255 
12.1109 1.57475 -0.886144 72 36 117 255 
11.0947 1.43063 -0.915773 71 47 125 255 
10.2009 1.30641 -0.939553 65 68 135 255 
9.58139 1.22185 -0.974312 64 70 136 255 
8.86899 1.1485 -0.974684 66 65 134 255 
8.26935 1.06484 -0.988299 65 68 135 255 
7.78938 0.996196 -1.00597 66 64 134 255 
7.32533 0.931554 -1.01678 65 66 135 255 
6.92261 0.892768 -1.01951 57 85 140 255 
6.57237 0.843989 -1.03055 59 81 139 255 
6.25003 0.798217 -1.0397 60 79 138 255 
5.98034 0.760513 -1.05431 59 82 139 255 
5.73153 0.735101 -1.06055 54 92 141 255 
