ply
format ascii 1.0
comment VTK generated PLY File
obj_info vtkPolyData points and polygons: vtk4.0
element vertex 1225
property float x
property float y
property float z
property uchar red
property uchar green
property uchar blue
property uchar alpha
element face 0
property list uchar int vertex_indices
end_header
8.15492 8.26301 -0.842362 71 42 122 255 
7.48856 7.5717 -0.871796 70 51 127 255 
6.9493 7.01433 -0.902069 68 57 131 255 
6.47104 6.52458 -0.926941 67 62 133 255 
6.05399 6.12781 -0.938821 64 70 136 255 
5.69008 5.75125 -0.958989 62 74 137 255 
5.37493 5.42333 -0.978143 62 76 138 255 
5.07547 5.1139 -0.99209 57 86 140 255 
4.81144 4.86502 -0.999417 59 81 139 255 
4.60853 4.65482 -1.01872 57 85 140 255 
4.3715 4.40932 -1.02456 62 73 137 255 
4.17938 4.21102 -1.0376 60 80 139 255 
4.03226 4.07149 -1.0517 55 91 141 255 
3.83472 3.86919 -1.051 58 84 140 255 
3.68663 3.71854 -1.06248 56 89 140 255 
3.5255 3.55343 -1.06671 62 76 138 255 
3.39817 3.42764 -1.07092 59 81 139 255 
3.27371 3.30083 -1.07671 58 83 139 255 
3.16072 3.18584 -1.08487 62 74 137 255 
3.0256 3.0517 -1.0842 65 68 135 255 
2.94996 2.97036 -1.09436 62 73 137 255 
2.85503 2.87466 -1.09926 65 68 135 255 
2.76629 2.7873 -1.10679 66 65 134 255 
2.66589 2.69076 -1.10977 67 61 132 255 
9.06402 9.08795 3.85569 64 70 136 255 
9.76696 9.80958 4.00335 65 66 135 255 
9.58267 9.63138 3.78573 67 62 133 255 
9.36442 9.41164 3.56494 62 73 137 255 
9.94828 9.98499 3.65834 71 46 124 255 
17.0848 17.1533 6.02726 72 27 109 255 
10.0161 10.053 3.38863 66 63 133 255 
10.0927 10.126 3.27441 70 51 127 255 
10.1623 10.2034 3.17676 69 56 130 255 
9.65351 9.68887 2.87475 72 35 116 255 
9.99363 10.0199 2.8355 67 62 133 255 
7.49022 7.50441 2.02259 50 101 142 255 
7.45522 7.48534 1.92753 64 70 136 255 
7.80179 7.82763 1.90697 51 98 141 255 
7.75491 7.76988 1.78586 50 101 142 255 
9.10082 9.1022 1.97421 70 48 126 255 
9.17945 9.21332 1.88805 53 94 141 255 
9.20496 9.23222 1.765 50 100 142 255 
9.65857 9.66708 1.71906 71 45 123 255 
14.5321 14.5241 2.39541 72 38 119 255 
11.6143 11.6572 1.78473 72 23 105 255 
18.7019 18.7376 2.6191 72 36 117 255 
18.7187 18.7287 2.36788 72 20 103 255 
15.5493 15.5246 1.76016 72 38 119 255 
15.6795 15.7318 1.60381 72 41 121 255 
13.7994 13.821 1.22534 72 35 116 255 
16.3456 16.3372 1.23138 72 23 105 255 
16.2735 16.2363 1.00769 70 10 93 255 
0 0 0 68 2 86 255 
46.0623 46.1021 1.7293 69 5 89 255 
20.9561 20.938 0.506739 70 8 92 255 
20.0998 20.0399 0.222925 69 5 89 255 
19.9585 20.0043 -0.00493195 69 4 87 255 
19.918 19.9213 -0.270428 71 14 97 255 
16.6631 16.6371 -0.4439 72 31 112 255 
13.9012 13.8501 -0.55498 72 31 112 255 
11.4412 11.4554 -0.588013 70 50 126 255 
10.5603 10.5546 -0.680601 72 38 119 255 
9.58302 9.56473 -0.745124 72 40 120 255 
9.01857 8.98229 -0.820888 68 58 131 255 
8.22027 8.22763 -0.843881 71 45 123 255 
7.55039 7.54111 -0.873591 69 55 129 255 
6.96964 6.94905 -0.899157 67 61 132 255 
6.48628 6.46018 -0.923428 67 62 133 255 
6.06476 6.06384 -0.934704 63 72 137 255 
5.74494 5.73588 -0.962285 59 82 139 255 
5.38984 5.37205 -0.97484 62 73 137 255 
5.09622 5.07217 -0.990044 57 86 140 255 
4.8475 4.8417 -1.00072 61 77 138 255 
4.6419 4.63134 -1.01979 58 83 139 255 
4.40266 4.3866 -1.02554 59 81 139 255 
4.21352 4.19364 -1.03967 59 82 139 255 
4.03489 4.02445 -1.04593 55 91 141 255 
3.86534 3.85252 -1.0529 58 83 139 255 
3.70938 3.69585 -1.06248 56 88 140 255 
3.54585 3.53035 -1.0663 62 74 137 255 
3.42882 3.41637 -1.07395 61 78 138 255 
3.28838 3.27518 -1.07491 59 82 139 255 
3.16023 3.1465 -1.07805 62 74 137 255 
3.06419 3.05292 -1.0913 63 71 136 255 
2.97499 2.95903 -1.09689 61 78 138 255 
2.86919 2.85368 -1.09795 63 72 137 255 
2.78743 2.77435 -1.10842 66 65 134 255 
2.66944 2.66148 -1.10443 68 57 131 255 
9.33804 9.2485 3.94804 66 65 134 255 
9.43348 9.35908 3.84305 68 59 132 255 
9.46317 9.39526 3.71568 63 71 136 255 
9.43296 9.36489 3.56909 53 94 141 255 
10.0073 9.92172 3.65758 64 70 136 255 
11.212 11.1197 3.93128 71 16 99 255 
10.3477 10.2591 3.47945 71 44 122 255 
10.1678 10.0769 3.27865 72 22 104 255 
7.72871 7.66529 2.40125 70 51 127 255 
7.68141 7.61551 2.27351 70 48 126 255 
9.68918 9.59617 2.73236 62 73 137 255 
7.5452 7.46729 2.02503 57 85 140 255 
7.61487 7.55238 1.95679 54 93 141 255 
7.76988 7.70053 1.88759 53 94 141 255 
7.79963 7.71937 1.78522 46 109 142 255 
9.30768 9.19554 2.00681 61 78 138 255 
8.05585 7.98696 1.64684 47 108 142 255 
9.37758 9.29065 1.78713 66 64 134 255 
10.4395 10.3213 1.84674 63 72 137 255 
11.7611 11.6113 1.92686 72 32 113 255 
15.1196 14.9903 2.3092 70 11 94 255 
11.5143 11.3956 1.60269 72 37 118 255 
18.8227 18.603 2.36654 72 24 106 255 
14.5386 14.3384 1.63575 72 27 109 255 
14.7556 14.6243 1.5001 72 28 110 255 
13.9159 13.7677 1.22816 68 57 131 255 
16.4406 16.2317 1.23101 71 16 99 255 
16.3593 16.1228 1.00686 72 24 106 255 
0 0 0 68 2 86 255 
34.5985 34.206 1.29102 69 4 87 255 
34.4423 33.9928 0.827787 70 7 90 255 
20.2174 19.9113 0.22287 69 4 87 255 
20.1648 19.9645 -0.00495255 69 5 89 255 
20.1125 19.8704 -0.271407 72 24 106 255 
16.6246 16.3962 -0.440186 72 28 110 255 
14.0258 13.8038 -0.556563 72 29 111 255 
11.3855 11.2606 -0.581589 68 59 132 255 
10.6319 10.4967 -0.681056 72 40 120 255 
9.67424 9.538 -0.747652 67 61 132 255 
9.09699 8.94988 -0.823012 71 46 124 255 
8.29472 8.20088 -0.846342 70 48 126 255 
7.6022 7.50024 -0.874243 70 52 128 255 
7.03272 6.92642 -0.901796 69 53 129 255 
6.52083 6.41537 -0.922726 68 59 132 255 
6.09548 6.02023 -0.933729 62 74 137 255 
5.77437 5.69494 -0.961343 59 82 139 255 
5.41917 5.33539 -0.974204 65 68 135 255 
5.13996 5.05331 -0.992499 59 81 139 255 
4.88909 4.82368 -1.00318 57 85 140 255 
4.66671 4.5993 -1.01902 53 94 141 255 
4.42879 4.35881 -1.02537 60 79 138 255 
4.23987 4.1684 -1.03984 59 81 139 255 
4.06581 4.00583 -1.04755 55 91 141 255 
3.88611 3.82597 -1.05214 60 79 138 255 
3.72151 3.6627 -1.0595 61 78 138 255 
3.57372 3.5147 -1.06817 59 81 139 255 
3.44763 3.39322 -1.0733 55 91 141 255 
3.32717 3.27339 -1.081 58 84 140 255 
3.19473 3.14205 -1.08322 59 82 139 255 
3.09392 3.04495 -1.09521 64 69 136 255 
2.99171 2.93936 -1.09638 61 78 138 255 
2.86737 2.81709 -1.09061 64 70 136 255 
2.79617 2.7491 -1.10516 65 66 135 255 
2.68299 2.64236 -1.10331 67 62 133 255 
9.36791 9.16491 3.93682 70 51 127 255 
10.9802 10.7608 4.44619 70 51 127 255 
9.51789 9.33432 3.7146 64 70 136 255 
9.49782 9.31427 3.57194 64 69 136 255 
9.62679 9.42804 3.4973 61 77 138 255 
9.75155 9.55329 3.39859 67 62 133 255 
10.2402 10.0287 3.42254 71 46 124 255 
10.2253 10.0102 3.27731 70 51 127 255 
7.76653 7.60884 2.39845 63 72 137 255 
7.74687 7.58672 2.27907 57 85 140 255 
9.79484 9.58248 2.74552 69 56 130 255 
10.3331 10.1016 2.75657 72 27 109 255 
7.8009 7.64251 1.99251 61 77 138 255 
7.99795 7.82988 1.93129 66 64 134 255 
7.84191 7.66654 1.7841 48 105 142 255 
8.02057 7.82727 1.71891 60 80 139 255 
8.12521 7.95746 1.651 50 102 142 255 
10.557 10.3315 1.99978 63 71 136 255 
10.5686 10.3215 1.85835 68 57 131 255 
10.562 10.3003 1.72004 68 59 132 255 
15.2269 14.9126 2.31157 72 35 116 255 
11.5583 11.2997 1.59915 68 58 131 255 
19.0519 18.5999 2.38097 71 13 96 255 
14.607 14.2301 1.63359 72 35 116 255 
14.2863 13.9864 1.44363 72 29 111 255 
14.2699 13.9457 1.25183 72 26 108 255 
16.7829 16.3675 1.2491 72 33 115 255 
0 0 0 69 4 87 255 
46.849 45.8338 2.35745 69 5 89 255 
0 0 0 69 4 87 255 
30.0174 29.2643 0.717111 70 8 92 255 
20.3672 19.8141 0.223176 69 5 89 255 
20.1561 19.7124 -0.00492061 69 4 87 255 
20.1717 19.6859 -0.270572 72 23 105 255 
16.7428 16.3114 -0.440658 72 22 104 255 
14.0199 13.6297 -0.553001 72 31 112 255 
11.4501 11.1863 -0.581371 72 38 119 255 
10.6275 10.3643 -0.676685 70 51 127 255 
9.76191 9.50702 -0.749905 69 56 130 255 
9.16891 8.91058 -0.824556 71 47 125 255 
8.36058 8.16516 -0.847934 69 55 129 255 
7.64879 7.45414 -0.874325 69 53 129 255 
7.05796 6.86647 -0.899612 69 53 129 255 
6.58005 6.39466 -0.925536 68 58 131 255 
6.13871 5.98896 -0.934704 65 68 135 255 
5.79996 5.65039 -0.959813 62 74 137 255 
5.45607 5.30619 -0.974967 65 66 135 255 
5.17869 5.02927 -0.993999 54 93 141 255 
4.92781 4.80257 -1.00505 55 91 141 255 
4.70192 4.57747 -1.02056 49 104 142 255 
4.45192 4.32811 -1.02456 60 80 139 255 
4.24417 4.12171 -1.03467 60 79 138 255 
4.09666 3.98698 -1.04918 54 92 141 255 
3.9074 3.8 -1.05157 57 85 140 255 
3.739 3.63502 -1.05811 60 79 138 255 
3.60013 3.49748 -1.06963 61 78 138 255 
3.46488 3.36859 -1.07222 57 86 140 255 
3.34509 3.25088 -1.08032 55 90 140 255 
3.20976 3.11832 -1.08181 59 81 139 255 
3.11463 3.02793 -1.09594 61 78 138 255 
2.9958 2.90748 -1.09132 62 74 137 255 
2.90191 2.81624 -1.09716 68 59 132 255 
2.79848 2.71781 -1.09947 66 64 134 255 
2.70121 2.62786 -1.10415 66 64 134 255 
11.2903 10.9109 4.71647 72 24 106 255 
11.1606 10.8041 4.49231 69 55 129 255 
9.66631 9.36421 3.75003 69 56 130 255 
9.67342 9.37073 3.61628 62 74 137 255 
9.74012 9.42263 3.5174 72 33 115 255 
9.82323 9.5061 3.40318 62 76 138 255 
10.1638 9.83243 3.37679 62 74 137 255 
10.5409 10.1933 3.35835 72 35 116 255 
7.79062 7.53931 2.39156 68 58 131 255 
11.3509 10.9806 3.31945 72 24 106 255 
7.74104 7.4808 2.15693 64 70 136 255 
8.08213 7.8047 2.14327 72 35 116 255 
7.98126 7.7238 2.02643 61 78 138 255 
7.88575 7.62584 1.89286 44 114 142 255 
7.92856 7.65667 1.79309 50 100 142 255 
8.06631 7.77585 1.71845 50 100 142 255 
8.21798 7.95012 1.65991 43 117 142 255 
10.7534 10.3953 2.02486 68 58 131 255 
10.8153 10.4335 1.89043 67 61 132 255 
10.6508 10.2601 1.72421 59 81 139 255 
10.5815 10.2366 1.59679 70 51 127 255 
11.4234 11.0315 1.57109 72 40 120 255 
11.1523 10.7548 1.38545 72 28 110 255 
14.5899 14.04 1.62201 72 35 116 255 
14.0822 13.6184 1.41454 72 32 113 255 
16.2739 15.71 1.41914 72 33 115 255 
0 0 0 68 2 86 255 
0 0 0 68 2 86 255 
47.3543 45.7629 2.3687 69 5 89 255 
47.4621 45.7857 1.74991 69 4 87 255 
29.1428 28.0649 0.692089 70 7 90 255 
0 0 0 68 2 86 255 
20.3759 19.6842 -0.00494469 69 5 89 255 
20.1914 19.4646 -0.269228 71 19 101 255 
17.0364 16.3948 -0.445728 72 26 108 255 
14.3095 13.7414 -0.561086 71 19 101 255 
11.5012 11.0992 -0.5805 72 40 120 255 
10.7916 10.3959 -0.68306 71 42 122 255 
9.87475 9.49955 -0.754081 71 46 124 255 
9.23493 8.86521 -0.825586 70 52 128 255 
8.39473 8.09847 -0.846342 69 55 129 255 
7.67715 7.39048 -0.872367 70 52 128 255 
7.10857 6.83132 -0.900704 71 44 122 255 
6.62921 6.36381 -0.926941 70 50 126 255 
6.19825 5.97326 -0.938171 65 66 135 255 
5.82951 5.60988 -0.958989 61 77 138 255 
5.4921 5.27605 -0.975602 65 66 135 255 
5.21302 5.00083 -0.994681 58 84 140 255 
4.97928 4.79352 -1.00953 51 99 141 255 
4.71639 4.53552 -1.01764 52 96 141 255 
4.49974 4.32122 -1.02944 56 88 140 255 
4.26582 4.09219 -1.03381 58 84 140 255 
4.11466 3.95563 -1.04755 56 89 140 255 
3.94339 3.7882 -1.05498 55 90 140 255 
3.7577 3.60861 -1.05711 60 79 138 255 
3.61659 3.47058 -1.06817 57 86 140 255 
3.47915 3.34119 -1.07027 57 86 140 255 
3.35725 3.22287 -1.07784 55 90 140 255 
3.21481 3.08511 -1.07711 59 81 139 255 
3.10168 2.97854 -1.08494 63 71 136 255 
3.0052 2.881 -1.08829 65 68 135 255 
2.94422 2.82243 -1.10659 66 65 134 255 
2.80607 2.69192 -1.09594 68 58 131 255 
2.70691 2.60126 -1.09993 68 59 132 255 
16.18 15.4454 6.7194 72 24 106 255 
9.80411 9.37506 3.92306 72 31 112 255 
9.72637 9.30739 3.75111 66 64 134 255 
9.7098 9.29116 3.6085 67 61 132 255 
9.81594 9.38008 3.52393 63 71 136 255 
9.90172 9.46509 3.41019 59 82 139 255 
10.3709 9.91032 3.42533 69 56 130 255 
10.3854 9.92036 3.28937 71 44 122 255 
7.9532 7.6027 2.4271 62 76 138 255 
7.93773 7.58506 2.30766 67 62 133 255 
7.79389 7.43993 2.15889 61 78 138 255 
7.98132 7.61326 2.1041 70 51 127 255 
7.92539 7.57612 2.00041 57 86 140 255 
7.93382 7.57867 1.8932 52 96 141 255 
8.13466 7.75981 1.8289 69 53 129 255 
8.0838 7.69758 1.71209 62 76 138 255 
8.25015 7.88382 1.65661 64 70 136 255 
10.7862 10.2997 2.0191 71 45 123 255 
10.9315 10.4169 1.89954 70 50 126 255 
10.769 10.2473 1.73312 66 63 133 255 
10.8339 10.3528 1.62526 69 55 129 255 
11.1309 10.6178 1.52186 70 50 126 255 
11.2173 10.6855 1.38537 70 50 126 255 
11.3769 10.8145 1.25741 72 40 120 255 
11.5821 11.0639 1.15656 72 27 109 255 
11.6281 11.0882 1.00806 72 27 109 255 
11.6525 11.0884 0.857065 72 29 111 255 
11.6641 11.0797 0.705211 72 22 104 255 
0 0 0 68 2 86 255 
0 0 0 68 2 86 255 
29.3043 27.8759 0.691849 70 7 90 255 
11.6802 11.0873 0.126487 70 11 94 255 
19.6882 18.7877 -0.00474974 69 5 89 255 
11.6285 11.0731 -0.154143 70 7 90 255 
17.1483 16.301 -0.446029 71 14 97 255 
14.1463 13.4188 -0.551446 71 19 101 255 
11.5583 11.0181 -0.579956 71 45 123 255 
10.8552 10.3295 -0.68306 70 48 126 255 
9.93212 9.4381 -0.754026 70 50 126 255 
9.29423 8.81319 -0.826037 69 55 129 255 
8.41755 8.02135 -0.843664 70 50 126 255 
7.71368 7.335 -0.871388 70 50 126 255 
7.16552 6.80197 -0.902615 69 55 129 255 
6.67968 6.33397 -0.928547 68 59 132 255 
6.2247 5.92552 -0.936654 64 69 136 255 
5.8703 5.58016 -0.960049 62 76 138 255 
5.52941 5.24703 -0.976492 64 69 136 255 
5.26374 4.98783 -0.998501 56 88 140 255 
5.01004 4.76424 -1.00982 52 97 141 255 
4.73553 4.49833 -1.0158 53 95 141 255 
4.52259 4.29013 -1.02863 55 90 140 255 
4.29014 4.06526 -1.03364 60 79 138 255 
4.12602 3.91812 -1.0443 56 89 140 255 
3.96015 3.75785 -1.05328 56 89 140 255 
3.78474 3.59021 -1.0585 59 82 139 255 
3.63568 3.44631 -1.06755 59 82 139 255 
3.49746 3.31776 -1.06962 58 84 140 255 
3.37272 3.19819 -1.07649 58 83 139 255 
3.24285 3.07402 -1.08017 59 82 139 255 
3.11286 2.95278 -1.08249 62 73 137 255 
3.0446 2.88313 -1.09613 65 66 135 255 
2.95167 2.79502 -1.10292 66 64 134 255 
2.82044 2.67267 -1.09513 66 64 134 255 
2.73117 2.59253 -1.10331 66 63 133 255 
11.7676 11.0961 4.85859 70 48 126 255 
9.86354 9.3167 3.9239 72 28 110 255 
11.4984 10.8687 4.40872 72 35 116 255 
9.93788 9.39328 3.67178 65 66 135 255 
10.0338 9.47116 3.58121 64 69 136 255 
9.94056 9.38617 3.40367 72 31 112 255 
10.5256 9.9353 3.45622 64 69 136 255 
10.6418 10.0411 3.35098 69 55 129 255 
8.00183 7.55577 2.42775 61 78 138 255 
7.92007 7.47575 2.28914 68 59 132 255 
7.90645 7.4552 2.17736 48 106 142 255 
7.95567 7.49611 2.08518 56 89 140 255 
7.96529 7.52127 1.99879 66 65 134 255 
7.98304 7.53255 1.89388 47 107 142 255 
8.02264 7.55948 1.79325 67 61 132 255 
8.13808 7.65461 1.7136 52 96 141 255 
8.15228 7.69515 1.62744 52 96 141 255 
9.47733 8.9394 1.76379 56 89 140 255 
11.6245 10.9419 2.00825 69 55 129 255 
10.9916 10.3314 1.75872 66 64 134 255 
11.6361 10.9836 1.73546 70 48 126 255 
11.6405 10.9683 1.58231 71 44 122 255 
11.633 10.9461 1.42839 72 41 121 255 
11.5673 10.8611 1.27107 72 38 119 255 
11.6345 10.9783 1.15505 68 57 131 255 
11.6836 11.005 1.007 66 65 134 255 
11.6985 10.9962 0.855469 67 61 132 255 
11.7143 10.9915 0.70416 69 53 129 255 
11.6843 11.0176 0.577653 70 51 127 255 
11.7092 11.0214 0.426696 70 50 126 255 
11.7233 11.0156 0.275176 70 48 126 255 
11.7312 10.9997 0.126306 71 45 123 255 
11.6953 11.0241 -0.00280509 70 50 126 255 
11.6977 11.0029 -0.154163 70 48 126 255 
11.6896 10.9763 -0.302291 71 46 124 255 
11.6957 10.9587 -0.45329 71 47 125 255 
11.6337 10.9545 -0.580355 71 44 122 255 
10.9053 10.2504 -0.68224 71 44 122 255 
9.99422 9.38107 -0.754356 70 48 126 255 
9.32264 8.73212 -0.823784 71 47 125 255 
8.43465 7.93947 -0.84048 71 47 125 255 
7.77889 7.30663 -0.873672 70 50 126 255 
7.20712 6.75788 -0.902615 68 57 131 255 
6.70971 6.2847 -0.927342 66 63 133 255 
6.27398 5.89947 -0.938605 64 69 136 255 
5.91095 5.55015 -0.961108 64 70 136 255 
5.56367 5.21504 -0.976873 63 71 136 255 
5.2834 4.94528 -0.996455 57 85 140 255 
5.02763 4.72257 -1.00751 56 89 140 255 
4.78322 4.48812 -1.0201 55 90 140 255 
4.54451 4.25825 -1.02765 56 89 140 255 
4.29271 4.01799 -1.0283 59 82 139 255 
4.15213 3.89475 -1.04484 57 86 140 255 
3.95591 3.70796 -1.04608 56 88 140 255 
3.81385 3.57362 -1.06049 58 84 140 255 
3.66818 3.43463 -1.07088 57 86 140 255 
3.53058 3.30825 -1.07352 60 80 139 255 
3.39939 3.18409 -1.07874 58 84 140 255 
3.27229 3.06403 -1.08369 61 78 138 255 
3.14224 2.94423 -1.0864 64 70 136 255 
3.07142 2.87299 -1.09942 64 70 136 255 
2.95115 2.76037 -1.09638 67 62 133 255 
2.8389 2.65729 -1.09594 66 63 133 255 
2.75543 2.5836 -1.10668 66 64 134 255 
11.581 10.7867 4.75416 71 44 122 255 
11.5753 10.8 4.57844 72 33 115 255 
11.6149 10.8447 4.42778 72 33 115 255 
11.6917 10.9159 4.29494 72 29 111 255 
10.1908 9.50183 3.61638 72 36 117 255 
10.4074 9.7069 3.54306 72 41 121 255 
10.5181 9.80685 3.43392 71 44 122 255 
10.547 9.83005 3.30209 72 31 112 255 
10.5774 9.86572 3.19076 70 52 128 255 
7.99371 7.45304 2.29717 68 57 131 255 
7.9255 7.38182 2.17009 64 69 136 255 
7.99577 7.4418 2.08368 50 100 142 255 
7.96957 7.43333 1.98838 56 88 140 255 
8.06011 7.51232 1.90119 50 100 142 255 
8.09633 7.53566 1.79935 59 82 139 255 
8.17983 7.59982 1.71254 60 80 139 255 
8.19935 7.64498 1.62744 54 92 141 255 
9.54506 8.89324 1.76621 52 96 141 255 
11.6711 10.8515 2.00476 72 38 119 255 
11.03 10.2407 1.75478 72 29 111 255 
14.5267 13.5445 2.15414 72 29 111 255 
14.6105 13.5985 1.97464 72 35 116 255 
14.7605 13.7191 1.80203 72 35 116 255 
11.7602 10.9072 1.28488 72 36 117 255 
11.7388 10.9413 1.15872 71 42 122 255 
11.756 10.9379 1.00743 67 62 133 255 
11.757 10.916 0.85483 70 52 128 255 
11.7735 10.9119 0.703678 71 42 122 255 
11.7612 10.9546 0.57812 68 59 132 255 
11.7664 10.9399 0.426324 70 51 127 255 
11.7518 10.9074 0.27427 71 46 124 255 
11.7772 10.9078 0.126079 71 46 124 255 
11.7532 10.9432 -0.00280282 69 53 129 255 
11.754 10.9207 -0.154019 71 44 122 255 
11.7435 10.8921 -0.301952 71 47 125 255 
11.7495 10.8745 -0.452781 72 40 120 255 
11.6999 10.8822 -0.580319 70 50 126 255 
10.9745 10.1894 -0.68265 68 57 131 255 
10.064 9.33112 -0.75529 70 51 127 255 
9.36432 8.66391 -0.822754 71 45 123 255 
8.46933 7.87467 -0.839105 71 42 122 255 
7.81992 7.25538 -0.873264 68 57 131 255 
7.26161 6.72571 -0.904252 70 52 128 255 
6.74961 6.24476 -0.927543 68 58 131 255 
6.3188 5.86898 -0.939905 64 70 136 255 
5.93251 5.5023 -0.959107 62 73 137 255 
5.59993 5.18485 -0.977635 62 73 137 255 
5.31219 4.91142 -0.996182 55 90 140 255 
5.06304 4.69769 -1.00881 50 101 142 255 
4.82299 4.47011 -1.02271 50 100 142 255 
4.56693 4.22694 -1.02684 58 83 139 255 
4.3426 4.01498 -1.03433 55 90 140 255 
4.18894 3.88123 -1.04809 53 95 141 255 
3.99228 3.69629 -1.04968 58 84 140 255 
3.83211 3.54682 -1.0595 56 89 140 255 
3.68416 3.40741 -1.06942 58 83 139 255 
3.55296 3.28852 -1.07417 60 79 138 255 
3.41886 3.16317 -1.07874 61 77 138 255 
3.28318 3.03663 -1.08111 58 83 139 255 
3.15811 2.92292 -1.08567 64 69 136 255 
3.07975 2.84555 -1.09613 62 76 138 255 
2.97015 2.74418 -1.09716 64 69 136 255 
2.86504 2.64897 -1.09974 67 62 133 255 
2.75926 2.55556 -1.1019 68 58 131 255 
10.1183 9.30899 4.13015 72 29 111 255 
12.1641 11.2105 4.78402 72 41 121 255 
10.214 9.42002 3.87162 72 40 120 255 
11.7769 10.861 4.30168 72 33 115 255 
10.2568 9.44633 3.61914 62 74 137 255 
10.4846 9.65929 3.5491 68 57 131 255 
15.6564 14.4191 5.08248 72 22 104 255 
10.4766 9.64499 3.26146 72 28 110 255 
12.6753 11.6778 3.8019 72 35 116 255 
12.8601 11.8436 3.67468 72 26 108 255 
11.8521 10.904 3.22685 72 28 110 255 
8.04851 7.39925 2.08555 55 91 141 255 
8.02226 7.39096 1.99017 55 90 140 255 
8.40112 7.73437 1.97039 49 103 142 255 
9.57602 8.80385 2.11616 62 73 137 255 
8.21684 7.5408 1.71057 64 70 136 255 
8.22208 7.5724 1.6227 62 76 138 255 
11.6017 10.6772 2.13461 72 40 120 255 
14.5984 13.4071 2.4934 70 52 128 255 
14.7799 13.5544 2.33808 70 48 126 255 
14.5832 13.4309 2.15026 69 56 130 255 
14.6651 13.4823 1.9708 69 55 129 255 
12.1407 11.1461 1.47381 71 42 122 255 
11.9437 10.9419 1.29758 72 41 121 255 
14.4936 13.3437 1.42253 69 53 129 255 
14.5705 13.3906 1.24156 72 22 104 255 
23.8822 21.9027 1.72663 70 8 92 255 
0 0 0 68 1 84 255 
11.8422 10.895 0.578803 72 27 109 255 
11.8458 10.8789 0.426775 72 29 111 255 
11.8642 10.877 0.27533 72 37 118 255 
11.8624 10.8522 0.126275 72 37 118 255 
11.8591 10.9068 -0.00281207 71 46 124 255 
11.8252 10.8524 -0.154076 71 47 125 255 
11.8183 10.8273 -0.302159 71 45 123 255 
11.8374 10.8218 -0.453601 71 42 122 255 
11.7532 10.7981 -0.579665 70 51 127 255 
11.07 10.1522 -0.684699 72 31 112 255 
10.1439 9.29009 -0.756994 69 55 129 255 
9.4011 8.59147 -0.821339 72 35 116 255 
8.55495 7.85696 -0.842796 71 45 123 255 
7.87237 7.21466 -0.874162 69 53 129 255 
7.30347 6.6817 -0.904343 68 57 131 255 
6.79294 6.20793 -0.928245 69 55 129 255 
6.33638 5.8133 -0.937196 65 68 135 255 
5.96616 5.4658 -0.959107 63 72 137 255 
5.64042 5.15842 -0.97916 64 70 136 255 
5.32613 4.86404 -0.993181 59 82 139 255 
5.09615 4.67055 -1.00968 50 101 142 255 
4.85033 4.44043 -1.02271 50 102 142 255 
4.59788 4.2035 -1.02798 56 89 140 255 
4.3737 3.99424 -1.03588 58 84 140 255 
4.20397 3.84748 -1.04593 57 85 140 255 
4.01126 3.66841 -1.04873 56 88 140 255 
3.835 3.50605 -1.05433 60 80 139 255 
3.70356 3.38342 -1.06901 59 81 139 255 
3.58027 3.27324 -1.07634 56 89 140 255 
3.44396 3.14739 -1.08055 59 82 139 255 
3.30032 3.01512 -1.08064 61 77 138 255 
3.18672 2.9133 -1.08934 64 69 136 255 
3.06643 2.79856 -1.08525 63 71 136 255 
2.97696 2.7168 -1.0935 63 72 137 255 
2.89972 2.64821 -1.10679 66 65 134 255 
2.77418 2.53793 -1.10162 68 57 131 255 
10.1263 9.20229 4.1103 68 59 132 255 
10.2657 9.34503 4.01474 67 61 132 255 
10.2844 9.36884 3.87646 60 80 139 255 
11.9883 10.9206 4.35432 71 19 101 255 
10.3188 9.38713 3.62065 62 74 137 255 
10.5365 9.58825 3.54668 71 46 124 255 
10.5607 9.60701 3.40907 72 41 121 255 
10.4873 9.53658 3.2465 72 33 115 255 
10.6731 9.71283 3.18343 72 32 113 255 
12.9065 11.7408 3.66728 72 29 111 255 
12.6241 11.472 3.41781 70 50 126 255 
8.10176 7.35699 2.08762 72 38 119 255 
10.9967 10.0073 2.7128 63 72 137 255 
8.46446 7.69726 1.97414 52 96 141 255 
9.47788 8.60691 2.08276 71 42 122 255 
9.72177 8.81263 2.01257 72 29 111 255 
8.26253 7.51648 1.62155 71 42 122 255 
9.88885 8.9894 1.80927 72 23 105 255 
14.7818 13.4093 2.51063 70 50 126 255 
12.0824 10.9448 1.90069 72 40 120 255 
14.8926 13.5479 2.18358 71 42 122 255 
11.9974 10.8947 1.60328 72 23 105 255 
12.0554 10.9322 1.45528 71 42 122 255 
14.6168 13.2267 1.57913 72 32 113 255 
14.5988 13.276 1.42484 70 51 127 255 
23.9915 21.7788 2.0329 70 8 92 255 
14.6246 13.2481 1.05143 71 14 97 255 
51.2585 46.3512 3.02939 71 13 96 255 
51.1565 46.4885 2.48635 69 5 89 255 
37.4191 33.9441 1.34059 69 5 89 255 
35.7789 32.4 0.825683 69 4 87 255 
19.6693 17.7738 0.208215 69 5 89 255 
11.9391 10.8459 -0.00281522 72 20 103 255 
11.9153 10.8012 -0.154383 72 28 110 255 
11.9178 10.7848 -0.303008 72 36 117 255 
11.9125 10.757 -0.45394 72 33 115 255 
11.7985 10.7069 -0.578649 72 40 120 255 
11.1454 10.0962 -0.685519 72 38 119 255 
10.2007 9.22768 -0.756994 69 55 129 255 
9.47734 8.55503 -0.823398 72 32 113 255 
8.60374 7.80499 -0.842868 71 42 122 255 
7.91428 7.16422 -0.873917 70 50 126 255 
7.33842 6.63142 -0.903615 69 56 130 255 
6.8309 6.16613 -0.928245 68 57 131 255 
6.3712 5.77364 -0.937088 66 65 134 255 
6.00842 5.43708 -0.960519 63 71 136 255 
5.65577 5.10909 -0.976364 65 66 135 255 
5.35367 4.82928 -0.992772 63 71 136 255 
5.11664 4.63188 -1.00809 50 100 142 255 
4.8489 4.38474 -1.01672 57 85 140 255 
4.63091 4.18182 -1.02961 55 90 140 255 
4.38203 3.95281 -1.03209 60 80 139 255 
4.2202 3.81502 -1.04412 53 94 141 255 
4.03296 3.64307 -1.04854 56 88 140 255 
3.85135 3.47786 -1.05294 56 89 140 255 
3.71045 3.34818 -1.06505 59 81 139 255 
3.59232 3.24401 -1.07395 58 84 140 255 
3.46827 3.13077 -1.08213 56 89 140 255 
3.32308 2.99872 -1.08205 59 82 139 255 
3.19662 2.88655 -1.08665 63 71 136 255 
3.09073 2.78617 -1.08778 61 78 138 255 
3.00361 2.70752 -1.09716 63 71 136 255 
2.91306 2.62779 -1.10571 64 70 136 255 
2.78756 2.51893 -1.10078 66 64 134 255 
9.35938 8.40108 3.77801 58 84 140 255 
10.3342 9.29214 4.01919 64 70 136 255 
10.3503 9.31329 3.87968 59 82 139 255 
10.4605 9.41207 3.77836 65 66 135 255 
10.4497 9.38962 3.64628 68 57 131 255 
10.5367 9.47087 3.52711 72 41 121 255 
15.7041 14.1109 5.04138 70 48 126 255 
10.5978 9.51895 3.26258 72 26 108 255 
10.7841 9.69351 3.19873 72 37 118 255 
16.1586 14.519 4.56595 72 41 121 255 
11.7814 10.575 3.17204 72 26 108 255 
10.8033 9.68994 2.76837 65 68 135 255 
11.1794 10.0488 2.74259 72 38 119 255 
8.54305 7.6735 1.98145 59 81 139 255 
9.70905 8.70874 2.12178 67 62 133 255 
11.7404 10.5119 2.41705 71 45 123 255 
15.8787 14.2679 3.09901 72 33 115 255 
14.2706 12.8135 2.59652 72 33 115 255 
14.8675 13.3216 2.51125 72 41 121 255 
12.1478 10.8692 1.90046 71 47 125 255 
15.147 13.6104 2.2086 72 37 118 255 
15.065 13.5126 2.00211 72 31 112 255 
12.1089 10.8461 1.45368 70 50 126 255 
14.6977 13.1368 1.57913 70 50 126 255 
14.3587 12.8976 1.39365 70 51 127 255 
14.432 12.9403 1.21613 66 63 133 255 
14.8031 13.2454 1.0584 70 50 126 255 
15.1122 13.4978 0.888225 71 13 96 255 
51.3857 46.1244 2.48369 70 8 92 255 
37.3572 33.4724 1.33099 70 7 90 255 
27.9732 25.0208 0.641993 70 8 92 255 
14.05 12.5403 0.147913 71 16 99 255 
19.6955 17.6727 -0.00461849 69 4 87 255 
13.7551 12.3161 -0.177239 72 23 105 255 
13.6551 12.2053 -0.345266 72 35 116 255 
14.1999 12.6651 -0.53813 71 19 101 255 
11.9556 10.7164 -0.583113 70 51 127 255 
11.2079 10.0283 -0.685565 71 42 122 255 
10.2549 9.16292 -0.756829 70 50 126 255 
9.53785 8.50402 -0.824106 72 35 116 255 
8.64552 7.74673 -0.842289 71 45 123 255 
7.9618 7.11884 -0.874325 69 55 129 255 
7.38492 6.59157 -0.904343 67 61 132 255 
6.87306 6.12807 -0.928848 68 59 132 255 
6.42428 5.75035 -0.939688 64 70 136 255 
6.02538 5.38555 -0.95793 64 70 136 255 
5.70552 5.0908 -0.979541 64 69 136 255 
5.35879 4.77459 -0.98827 63 72 137 255 
5.14644 4.60172 -1.00838 50 101 142 255 
4.86834 4.34832 -1.01518 56 88 140 255 
4.6609 4.15726 -1.03058 54 92 141 255 
4.404 3.92388 -1.03157 61 77 138 255 
4.24279 3.7884 -1.04394 56 89 140 255 
4.05085 3.61434 -1.0474 58 84 140 255 
3.8887 3.46851 -1.05731 58 84 140 255 
3.73312 3.32731 -1.06567 55 90 140 255 
3.6107 3.22061 -1.07352 58 83 139 255 
3.48596 3.10814 -1.08168 59 81 139 255 
3.33924 2.97633 -1.08134 62 76 138 255 
3.22875 2.87979 -1.09154 66 65 134 255 
3.11571 2.77423 -1.09056 60 80 139 255 
3.00863 2.67878 -1.09297 66 64 134 255 
2.9205 2.60218 -1.10245 67 62 133 255 
2.80726 2.50561 -1.10246 69 56 130 255 
9.68593 8.58747 3.88848 72 27 109 255 
10.2812 9.13096 3.97668 66 65 134 255 
12.221 10.8616 4.55582 72 37 118 255 
10.487 9.32012 3.76721 62 74 137 255 
10.3638 9.19811 3.59653 67 62 133 255 
10.6222 9.43052 3.53629 70 50 126 255 
15.6922 13.9271 5.01002 72 41 121 255 
9.84011 8.72987 3.01276 71 16 99 255 
11.586 10.2865 3.41781 70 52 128 255 
11.6714 10.3584 3.27996 72 40 120 255 
11.7771 10.4414 3.15357 68 59 132 255 
10.8677 9.62803 2.76968 72 36 117 255 
11.0061 9.77166 2.68534 67 62 133 255 
8.59366 7.6242 1.9823 66 63 133 255 
9.78964 8.67322 2.12772 58 83 139 255 
12.0171 10.6276 2.46056 71 42 122 255 
11.5642 10.2635 2.24463 62 74 137 255 
15.6923 13.9172 2.83961 72 33 115 255 
11.705 10.3593 1.96632 70 48 126 255 
12.2151 10.7951 1.90058 70 52 128 255 
15.286 13.5667 2.21668 72 40 120 255 
12.2151 10.8219 1.6145 69 53 129 255 
15.1285 13.3844 1.8063 71 47 125 255 
14.9865 13.2304 1.60141 71 42 122 255 
14.5838 12.939 1.40777 71 44 122 255 
14.5776 12.9104 1.22171 69 56 130 255 
14.926 13.1913 1.06138 72 37 118 255 
0 0 0 68 1 84 255 
52.6421 46.6721 2.53053 69 4 87 255 
36.394 32.2091 1.28961 69 5 89 255 
27.308 24.1258 0.623316 71 14 97 255 
14.0321 12.3705 0.146923 71 13 96 255 
14.1369 12.5292 -0.00329693 71 19 101 255 
13.8057 12.2096 -0.176922 72 29 111 255 
17.8543 15.7627 -0.448989 71 13 96 255 
12.0519 10.6173 -0.454251 71 17 100 255 
12.075 10.6905 -0.585727 68 58 131 255 
11.2497 9.94213 -0.684381 71 47 125 255 
10.3319 9.11832 -0.758367 70 51 127 255 
9.59509 8.44995 -0.824556 72 40 120 255 
8.69364 7.69419 -0.842362 72 41 121 255 
7.99861 7.06392 -0.873591 70 50 126 255 
7.42149 6.54284 -0.903888 70 48 126 255 
6.90232 6.07855 -0.927744 69 56 130 255 
6.4654 5.71609 -0.940555 63 71 136 255 
6.07618 5.36425 -0.960755 63 72 137 255 
5.73442 5.05373 -0.97916 64 69 136 255 
5.37237 4.72787 -0.985406 60 80 139 255 
5.18571 4.57988 -1.01055 50 100 142 255 
4.89197 4.31575 -1.01457 57 86 140 255 
4.68928 4.1312 -1.03123 55 90 140 255 
4.46718 3.93127 -1.0407 59 81 139 255 
4.27039 3.7662 -1.04503 57 86 140 255 
4.08694 3.60175 -1.051 56 88 140 255 
3.91359 3.44782 -1.05831 56 88 140 255 
3.76594 3.31532 -1.06921 62 74 137 255 
3.62966 3.19775 -1.0733 57 85 140 255 
3.5035 3.0854 -1.08122 57 86 140 255 
3.34431 2.94422 -1.07711 62 74 137 255 
3.22671 2.84261 -1.08494 64 69 136 255 
3.1334 2.7557 -1.09082 61 78 138 255 
3.00762 2.64497 -1.08669 63 72 137 255 
2.92774 2.57658 -1.0992 65 66 135 255 
2.82546 2.49088 -1.10359 68 58 131 255 
10.227 8.95566 4.08354 71 45 123 255 
10.3384 9.06897 3.97724 66 63 133 255 
10.4052 9.1341 3.85794 70 51 127 255 
10.5113 9.22693 3.75554 67 61 132 255 
10.4084 9.12414 3.59251 70 52 128 255 
15.8972 13.9403 5.26386 72 40 120 255 
10.6604 9.34495 3.38515 63 71 136 255 
21.6733 18.9916 6.59994 70 8 92 255 
11.6959 10.2564 3.43159 66 64 134 255 
11.7112 10.2659 3.27338 65 66 135 255 
11.7111 10.2552 3.11899 63 72 137 255 
11.7797 10.3076 2.98592 71 44 122 255 
11.8181 10.3636 2.86788 69 55 129 255 
8.64324 7.57393 1.98298 71 44 122 255 
9.87536 8.64159 2.13478 65 68 135 255 
9.83394 8.58992 2.00271 62 73 137 255 
11.618 10.1846 2.2429 67 62 133 255 
15.8579 13.8911 2.8541 72 27 109 255 
11.6646 10.1965 1.94897 59 82 139 255 
12.296 10.733 1.90289 72 29 111 255 
12.3038 10.7857 1.7746 70 52 128 255 
12.3337 10.7926 1.6214 72 28 110 255 
15.0611 13.1609 1.78858 70 48 126 255 
14.9434 13.0301 1.58824 69 56 130 255 
14.6809 12.865 1.4095 72 41 121 255 
14.7024 12.8608 1.22553 71 14 97 255 
15.2188 13.2847 1.07639 70 8 92 255 
38.1451 33.2377 2.21785 69 5 89 255 
0 0 0 69 4 87 255 
36.9252 32.2772 1.30139 69 5 89 255 
26.687 23.2872 0.605871 71 13 96 255 
13.9705 12.1646 0.145494 70 10 93 255 
17.1976 15.0545 -0.00398912 72 31 112 255 
13.8585 12.1055 -0.176644 72 22 104 255 
17.381 15.156 -0.434739 72 36 117 255 
15.0057 13.0569 -0.562556 72 24 106 255 
12.287 10.7445 -0.592804 71 44 122 255 
11.3406 9.89919 -0.686202 72 37 118 255 
10.414 9.07772 -0.760291 70 48 126 255 
9.64676 8.39092 -0.824556 72 41 121 255 
8.74745 7.64661 -0.843013 71 46 124 255 
8.0418 7.01471 -0.873591 70 52 128 255 
7.42169 6.46252 -0.899066 71 47 125 255 
6.93123 6.0289 -0.92664 68 57 131 255 
6.49436 5.67108 -0.939688 64 69 136 255 
6.10374 5.3223 -0.959931 63 72 137 255 
5.76307 5.01649 -0.978779 62 73 137 255 
5.43044 4.72017 -0.990726 57 85 140 255 
5.19134 4.52846 -1.00621 53 95 141 255 
4.92431 4.29085 -1.0158 58 84 140 255 
4.67658 4.06931 -1.02293 55 90 140 255 
4.48081 3.89474 -1.03829 56 88 140 255 
4.29193 3.73863 -1.04466 53 94 141 255 
4.10971 3.57725 -1.05119 57 85 140 255 
3.93098 3.42053 -1.05731 59 82 139 255 
3.80909 3.31205 -1.07568 61 77 138 255 
3.62859 3.15747 -1.06724 61 77 138 255 
3.50693 3.05042 -1.07649 60 79 138 255 
3.37112 2.9313 -1.07993 64 70 136 255 
3.27335 2.84822 -1.09472 62 76 138 255 
3.14587 2.73261 -1.0893 62 73 137 255 
3.03545 2.63659 -1.09088 65 68 135 255 
2.93841 2.55415 -1.0973 64 70 136 255 
2.84721 2.47917 -1.10612 68 59 132 255 
10.2614 8.8752 4.07549 64 70 136 255 
10.5231 9.11733 4.02669 70 48 126 255 
10.3912 9.00951 3.83217 71 47 125 255 
10.5853 9.17744 3.76177 71 44 122 255 
16.1294 13.9652 5.5375 71 19 101 255 
15.9766 13.8374 5.26192 72 29 111 255 
10.73 9.29019 3.3891 65 68 135 255 
11.4457 9.90595 3.46685 70 8 92 255 
9.56265 8.28248 2.79073 71 16 99 255 
11.8168 10.231 3.28531 70 51 127 255 
11.7464 10.1594 3.11172 72 33 115 255 
11.7989 10.1973 2.97487 71 45 123 255 
11.648 10.0886 2.81152 70 48 126 255 
11.7348 10.1564 2.67792 66 65 134 255 
12.1364 10.4893 2.60959 70 50 126 255 
9.90443 8.54492 2.00635 70 48 126 255 
11.6766 10.1098 2.24219 68 58 131 255 
11.6892 10.1134 2.09261 65 68 135 255 
11.7224 10.1208 1.94822 63 71 136 255 
11.9321 10.287 1.83677 71 42 122 255 
12.5066 10.8285 1.79422 71 42 122 255 
15.4459 13.3495 2.01973 71 46 124 255 
15.1846 13.1054 1.79365 72 38 119 255 
14.9891 12.9089 1.58464 72 35 116 255 
14.7581 12.7734 1.40935 72 40 120 255 
15.83 13.6767 1.3125 72 22 104 255 
0 0 0 69 4 87 255 
0 0 0 68 2 86 255 
38.2842 33.1123 1.82067 69 4 87 255 
38.2265 33.0032 1.34009 69 5 89 255 
0 0 0 69 4 87 255 
14.1329 12.1543 0.146405 70 10 93 255 
17.2556 14.9193 -0.00398127 72 33 115 255 
13.8417 11.9419 -0.175492 71 16 99 255 
13.8123 11.8958 -0.343645 72 27 109 255 
13.8218 11.8785 -0.515429 72 24 106 255 
12.4397 10.744 -0.596978 72 41 121 255 
11.4118 9.83855 -0.68684 72 40 120 255 
10.465 9.00974 -0.759961 68 57 131 255 
9.68898 8.32376 -0.823784 72 38 119 255 
8.78741 7.58693 -0.842362 71 45 123 255 
8.09073 6.97044 -0.874243 70 51 127 255 
7.45592 6.41231 -0.89843 70 52 128 255 
6.96583 5.98432 -0.926339 70 50 126 255 
6.52904 5.63113 -0.939688 64 70 136 255 
6.12801 5.27762 -0.958636 60 80 139 255 
5.78246 4.97134 -0.976873 64 69 136 255 
5.46982 4.69579 -0.992635 55 90 140 255 
5.20703 4.48619 -1.0039 54 92 141 255 
4.94306 4.25411 -1.01426 59 82 139 255 
4.69024 4.0309 -1.02049 60 80 139 255 
4.49565 3.85948 -1.03622 59 82 139 255 
4.30435 3.70325 -1.04214 53 94 141 255 
4.11967 3.54172 -1.04816 57 85 140 255 
3.94148 3.3874 -1.05453 59 81 139 255 
3.81599 3.27714 -1.07192 60 79 138 255 
3.65456 3.14088 -1.06919 55 90 140 255 
3.52558 3.02884 -1.07649 59 81 139 255 
3.37724 2.90043 -1.07617 61 77 138 255 
3.28121 2.81987 -1.09154 62 76 138 255 
3.16625 2.71641 -1.09056 63 71 136 255 
3.07647 2.63928 -1.09978 64 69 136 255 
2.95987 2.54109 -1.09947 65 66 135 255 
2.86528 2.46415 -1.10724 68 59 132 255 
10.2946 8.79403 4.06714 62 73 137 255 
10.4446 8.93767 3.97557 72 38 119 255 
12.6391 10.8234 4.63661 72 31 112 255 
12.9302 11.0722 4.57086 72 37 118 255 
13.4893 11.5353 4.60671 72 29 111 255 
15.8813 13.5852 5.20298 72 40 120 255 
15.9954 13.6782 5.02558 72 38 119 255 
13.5735 11.6026 4.08972 72 28 110 255 
11.792 10.0874 3.42319 67 61 132 255 
11.7143 10.0171 3.23965 70 48 126 255 
12.062 10.3037 3.17852 72 31 112 255 
12.0136 10.2548 3.01309 67 62 133 255 
13.9493 11.9329 3.34927 72 26 108 255 
11.6449 9.95426 2.6434 71 44 122 255 
11.5264 9.83921 2.4654 72 31 112 255 
12.4477 10.6066 2.50832 72 33 115 255 
11.973 10.2387 2.28701 72 36 117 255 
12.4216 10.6144 2.21202 70 48 126 255 
12.2282 10.4272 2.02161 72 38 119 255 
15.5055 13.2028 2.37433 69 53 129 255 
15.6971 13.4233 2.24008 72 38 119 255 
15.0893 12.8804 1.96273 72 40 120 255 
15.0525 12.831 1.76872 70 52 128 255 
16.0164 13.6233 1.68438 72 22 104 255 
14.9544 12.7837 1.42059 72 24 106 255 
15.2144 12.9826 1.25483 70 48 126 255 
16.0596 13.675 1.1239 72 28 110 255 
15.2418 12.9553 0.876882 71 14 97 255 
0 0 0 68 2 86 255 
37.7832 32.218 1.31759 70 8 92 255 
36.5641 31.1239 0.821373 69 5 89 255 
12.1707 10.3376 0.125419 72 33 115 255 
17.7385 15.1476 -0.00407116 72 35 116 255 
22.5944 19.2528 -0.284961 71 13 96 255 
18.9517 16.1206 -0.469043 71 14 97 255 
15.1648 12.8717 -0.562556 72 29 111 255 
12.2499 10.4496 -0.584783 72 36 117 255 
11.4788 9.77417 -0.68725 72 40 120 255 
10.4988 8.92725 -0.758422 69 55 129 255 
9.72998 8.25576 -0.822948 71 42 122 255 
8.83076 7.53028 -0.842072 71 42 122 255 
8.12728 6.91549 -0.873591 70 48 126 255 
7.52548 6.39223 -0.902069 70 50 126 255 
7.00014 5.93953 -0.926038 69 53 129 255 
6.56347 5.59096 -0.939688 66 63 133 255 
6.16027 5.23992 -0.958636 63 71 136 255 
5.81664 4.93897 -0.977508 63 72 137 255 
5.47964 4.64612 -0.989225 57 86 140 255 
5.242 4.46057 -1.00534 53 94 141 255 
4.9638 4.21922 -1.01318 59 82 139 255 
4.73669 4.02056 -1.02521 56 88 140 255 
4.517 3.82991 -1.0357 57 85 140 255 
4.321 3.67167 -1.04069 58 84 140 255 
4.13384 3.51002 -1.04627 56 88 140 255 
3.96219 3.36315 -1.05453 57 86 140 255 
3.82707 3.24608 -1.06942 64 70 136 255 
3.67823 3.12218 -1.07049 59 81 139 255 
3.5597 3.02039 -1.08122 56 88 140 255 
3.40016 2.88405 -1.07782 59 81 139 255 
3.29697 2.79843 -1.09105 64 70 136 255 
3.1799 2.69443 -1.08955 62 74 137 255 
3.08377 2.61287 -1.09664 66 65 134 255 
2.971 2.51915 -1.09784 66 64 134 255 
2.86279 2.43161 -1.1005 68 59 132 255 
10.2803 8.67326 4.04039 68 59 132 255 
10.4823 8.85915 3.96918 67 61 132 255 
12.475 10.551 4.55259 72 37 118 255 
10.4759 8.85975 3.68397 66 63 133 255 
11.033 9.31823 3.74827 72 37 118 255 
13.6968 11.5718 4.46397 72 33 115 255 
16.0939 13.5924 5.03023 72 35 116 255 
11.7272 9.90057 3.51507 71 44 122 255 
11.794 9.96442 3.40596 68 58 131 255 
11.7367 9.91222 3.22895 70 51 127 255 
12.08 10.1915 3.16673 71 47 125 255 
12.0395 10.1498 3.00391 71 45 123 255 
12.227 10.3303 2.92047 67 61 132 255 
12.4045 10.4725 2.8012 71 13 96 255 
11.8816 10.0171 2.52818 72 32 113 255 
11.7767 9.91075 2.36081 72 41 121 255 
12.5656 10.6126 2.38772 72 35 116 255 
12.5243 10.57 2.21872 69 53 129 255 
15.5529 13.0984 2.55793 72 35 116 255 
15.5984 13.1176 2.37618 72 36 117 255 
15.5688 13.149 2.21021 72 37 118 255 
12.7691 10.7651 1.65231 72 32 113 255 
15.3222 12.8994 1.79107 72 38 119 255 
15.3074 12.8593 1.60149 72 26 108 255 
14.8817 12.5643 1.40633 72 27 109 255 
15.4678 13.0357 1.26911 72 20 103 255 
15.4669 13.0074 1.07681 71 45 123 255 
15.3325 12.8712 0.877539 72 28 110 255 
0 0 0 68 2 86 255 
37.9641 31.972 1.31704 70 8 92 255 
0 0 0 68 2 86 255 
12.1006 10.151 0.124052 72 23 105 255 
12.2561 10.3366 -0.00279829 72 35 116 255 
17.4423 14.6788 -0.218842 71 17 100 255 
18.8436 15.8304 -0.463954 71 17 100 255 
15.2435 12.7784 -0.562556 71 17 100 255 
12.7441 10.7367 -0.605217 72 40 120 255 
11.5324 9.69841 -0.686885 70 52 128 255 
10.5633 8.87101 -0.759137 69 55 129 255 
9.78581 8.20039 -0.823398 71 44 122 255 
8.87527 7.47467 -0.841928 71 45 123 255 
8.17185 6.86742 -0.873835 69 55 129 255 
7.55617 6.33889 -0.901068 72 41 121 255 
7.03188 5.89263 -0.925435 71 45 123 255 
6.60602 5.55762 -0.94088 66 64 134 255 
6.19535 5.20458 -0.959107 63 71 136 255 
5.84987 4.90574 -0.978016 66 64 134 255 
5.52931 4.63022 -0.993044 57 86 140 255 
5.25185 4.41368 -1.00202 48 106 142 255 
4.98203 4.18233 -1.01165 60 79 138 255 
4.76959 3.99839 -1.027 58 84 140 255 
4.53815 3.80022 -1.03519 59 82 139 255 
4.33591 3.63877 -1.03889 58 84 140 255 
4.16207 3.49027 -1.04797 56 88 140 255 
3.99252 3.34696 -1.05711 55 91 141 255 
3.85067 3.22567 -1.07046 60 80 139 255 
3.70106 3.10269 -1.07157 60 79 138 255 
3.57369 2.99474 -1.07987 57 85 140 255 
3.43791 2.87999 -1.08416 61 77 138 255 
3.30219 2.76818 -1.08714 63 72 137 255 
3.18228 2.66307 -1.08475 62 73 137 255 
3.10863 2.60133 -1.09978 64 69 136 255 
2.99083 2.50458 -1.09947 65 66 135 255 
2.86883 2.4066 -1.09712 66 64 134 255 
10.2693 8.55668 4.01536 66 65 134 255 
10.274 8.57553 3.87028 61 78 138 255 
12.8227 10.7107 4.6554 72 24 106 255 
10.4959 8.76683 3.67204 71 47 125 255 
11.2491 9.38303 3.80204 68 57 131 255 
11.3498 9.47016 3.68004 71 44 122 255 
13.73 11.4524 4.26935 72 24 106 255 
11.7346 9.78411 3.49922 71 14 97 255 
11.8969 9.9269 3.41802 69 56 130 255 
11.7552 9.80492 3.21743 59 82 139 255 
20.8247 17.3516 5.43112 71 19 101 255 
12.122 10.0928 3.00897 72 27 109 255 
21.0741 17.5845 5.00774 72 22 104 255 
11.5913 9.66483 2.60412 66 65 134 255 
12.4935 10.4025 2.64475 72 23 105 255 
11.7651 9.77828 2.3464 72 40 120 255 
12.6009 10.5106 2.38212 68 58 131 255 
12.8782 10.734 2.2697 68 59 132 255 
15.5499 12.9335 2.54433 69 55 129 255 
12.6711 10.5238 1.92038 72 38 119 255 
15.4636 12.8985 2.18401 72 37 118 255 
15.5881 12.9789 2.00673 70 48 126 255 
15.3666 12.7765 1.78706 72 40 120 255 
15.3853 12.7645 1.60141 71 45 123 255 
14.9394 12.4568 1.40453 71 13 96 255 
21.7763 18.1249 1.77755 70 7 90 255 
15.5986 12.9557 1.08043 71 42 122 255 
0 0 0 68 2 86 255 
0 0 0 68 1 84 255 
40.2793 33.5015 1.3902 69 5 89 255 
29.3652 24.3811 0.652888 71 13 96 255 
12.0418 9.97635 0.122819 72 31 112 255 
12.1656 10.1332 -0.00276338 72 20 103 255 
12.2104 10.1486 -0.152416 72 22 104 255 
12.45 10.3295 -0.304968 72 35 116 255 
12.4843 10.3356 -0.458379 72 24 106 255 
12.9034 10.7363 -0.609645 72 36 117 255 
11.6808 9.7015 -0.692168 71 47 125 255 
10.636 8.82132 -0.760456 69 55 129 255 
9.85362 8.15483 -0.824878 71 45 123 255 
8.92327 7.42198 -0.842145 71 44 122 255 
8.22917 6.82988 -0.875467 70 48 126 255 
7.59569 6.29305 -0.901159 70 50 126 255 
7.06943 5.85064 -0.925636 70 50 126 255 
6.63693 5.51444 -0.940446 68 57 131 255 
6.22182 5.16203 -0.958283 64 69 136 255 
5.89438 4.88177 -0.980431 65 68 135 255 
5.55838 4.59684 -0.993181 56 88 140 255 
5.25447 4.36115 -0.997394 59 82 139 255 
5.00303 4.1479 -1.01073 59 82 139 255 
4.78948 3.96527 -1.02602 60 80 139 255 
4.55682 3.76854 -1.03415 61 77 138 255 
4.35134 3.60644 -1.03726 57 86 140 255 
4.19323 3.47281 -1.05043 57 86 140 255 
4.01449 3.32365 -1.05751 59 81 139 255 
3.87189 3.20323 -1.07088 57 85 140 255 
3.71702 3.07743 -1.0707 62 73 137 255 
3.57548 2.95909 -1.07491 62 76 138 255 
3.45702 2.86008 -1.08463 62 73 137 255 
3.31389 2.74354 -1.08543 66 64 134 255 
3.20975 2.65274 -1.08854 63 72 137 255 
3.1037 2.56499 -1.09245 66 65 134 255 
2.99502 2.47698 -1.0954 67 62 133 255 
2.90424 2.4061 -1.105 69 55 129 255 
10.3815 8.5428 4.03866 66 63 133 255 
10.3412 8.52455 3.87583 72 36 117 255 
11.7862 9.72277 4.25734 70 50 126 255 
11.8593 9.78267 4.12793 72 40 120 255 
11.5223 9.49169 3.87464 71 47 125 255 
11.5253 9.49722 3.71797 64 69 136 255 
13.8834 11.4365 4.29513 71 44 122 255 
16.3582 13.4699 4.85323 72 29 111 255 
21.2119 17.4798 6.06335 71 16 99 255 
11.803 9.72265 3.21414 62 73 137 255 
12.4025 10.2058 3.2182 71 17 100 255 
13.0008 10.6901 3.21078 72 33 115 255 
11.7159 9.65461 2.76988 72 36 117 255 
12.6424 10.4104 2.82585 70 48 126 255 
11.8679 9.75891 2.4996 71 44 122 255 
12.7043 10.4277 2.5209 68 57 131 255 
15.9382 13.1293 2.99772 72 35 116 255 
15.8848 13.0757 2.78541 72 37 118 255 
12.7301 10.4567 2.07241 72 27 109 255 
15.6307 12.8207 2.35696 72 29 111 255 
15.4949 12.7642 2.17733 72 36 117 255 
15.7366 12.9399 2.01559 70 48 126 255 
15.7888 12.9645 1.82688 68 57 131 255 
15.4487 12.6578 1.59989 72 33 115 255 
21.2605 17.5075 1.98868 70 7 90 255 
29.3535 24.1282 2.38393 70 7 90 255 
0 0 0 68 2 86 255 
0 0 0 68 2 86 255 
0 0 0 68 2 86 255 
0 0 0 68 2 86 255 
29.5452 24.2258 0.653572 71 13 96 255 
13.7776 11.2726 0.139815 72 22 104 255 
12.121 9.97068 -0.00273929 72 27 109 255 
12.2129 10.0246 -0.151676 72 41 121 255 
14.0165 11.4848 -0.341609 72 20 103 255 
12.6024 10.3038 -0.460386 72 24 106 255 
12.2255 10.046 -0.574693 71 47 125 255 
11.7857 9.66703 -0.694854 70 48 126 255 
10.666 8.73628 -0.758752 69 55 129 255 
9.92897 8.11505 -0.827002 70 52 128 255 
8.99716 7.39051 -0.844822 70 50 126 255 
8.25088 6.76283 -0.873346 70 48 126 255 
7.6542 6.26272 -0.903524 69 53 129 255 
7.12215 5.82101 -0.927844 70 48 126 255 
6.6376 5.4465 -0.935788 68 59 132 255 
6.24646 5.11809 -0.957224 66 63 133 255 
5.92499 4.84614 -0.980558 65 66 135 255 
5.58418 4.56077 -0.992772 55 91 141 255 
5.27271 4.32192 -0.995804 57 85 140 255 
5.03527 4.12275 -1.01211 57 85 140 255 
4.80684 3.93019 -1.02456 59 81 139 255 
4.58139 3.74175 -1.0345 61 78 138 255 
4.37567 3.58155 -1.0378 60 79 138 255 
4.20078 3.43582 -1.04702 59 81 139 255 
4.0424 3.30516 -1.0595 59 82 139 255 
3.89451 3.18189 -1.07172 60 79 138 255 
3.73659 3.05519 -1.07092 62 74 137 255 
3.58452 2.92969 -1.0722 60 80 139 255 
3.45343 2.82159 -1.07805 63 72 137 255 
3.34342 2.73358 -1.08958 64 69 136 255 
3.2417 2.64584 -1.09385 63 71 136 255 
3.11714 2.54407 -1.09166 66 65 134 255 
3.01911 2.46586 -1.09865 66 64 134 255 
2.92786 2.39552 -1.10837 68 59 132 255 
11.5791 9.4097 4.482 68 59 132 255 
11.671 9.50104 4.35229 72 37 118 255 
11.2989 9.2049 4.06086 72 36 117 255 
11.669 9.50598 4.04132 67 61 132 255 
11.4504 9.31514 3.83118 65 68 135 255 
11.8377 9.63335 3.79962 71 45 123 255 
13.9299 11.3321 4.28793 72 31 112 255 
14.1718 11.5243 4.18348 72 27 109 255 
13.1971 10.7399 3.75343 72 36 117 255 
13.6085 11.0704 3.68723 71 44 122 255 
12.6544 10.2835 3.26712 68 58 131 255 
12.7779 10.3761 3.13995 67 62 133 255 
11.6635 9.49188 2.74367 70 50 126 255 
11.6938 9.50942 2.60072 62 76 138 255 
11.8908 9.65604 2.49189 62 73 137 255 
12.7826 10.3614 2.52378 66 64 134 255 
15.8541 12.8976 2.96698 68 57 131 255 
15.8786 12.908 2.77039 72 36 117 255 
15.7182 12.7505 2.54608 72 31 112 255 
15.8666 12.8521 2.38058 72 26 108 255 
15.9269 12.9568 2.22682 72 37 118 255 
15.784 12.8174 2.01156 68 59 132 255 
16.032 13.0004 1.84576 72 37 118 255 
16.3916 13.2632 1.68909 71 42 122 255 
21.3536 17.3654 1.98738 72 27 109 255 
29.8055 24.1948 2.40854 70 8 92 255 
52.1873 42.2735 3.57852 69 4 87 255 
52.5307 42.4746 2.96129 69 5 89 255 
0 0 0 68 2 86 255 
0 0 0 68 2 86 255 
29.7096 24.0572 0.653931 70 8 92 255 
13.8729 11.2092 0.140082 71 45 123 255 
13.0807 10.6263 -0.0029414 71 19 101 255 
12.9539 10.5004 -0.160076 71 13 96 255 
12.3543 9.99668 -0.299596 72 26 108 255 
12.2602 9.89909 -0.445657 72 22 104 255 
12.6874 10.2957 -0.593421 70 48 126 255 
11.778 9.54046 -0.690938 70 51 127 255 
10.7411 8.68825 -0.760291 70 51 127 255 
9.99566 8.06777 -0.828418 69 56 130 255 
9.05008 7.34145 -0.845546 69 53 129 255 
8.29687 6.71584 -0.873835 71 46 124 255 
7.70875 6.22878 -0.905435 69 56 130 255 
7.18173 5.79657 -0.930955 70 48 126 255 
6.66549 5.40129 -0.935029 68 59 132 255 
6.28315 5.08404 -0.958048 65 68 135 255 
5.9415 4.7991 -0.978397 66 64 134 255 
5.60589 4.52144 -0.99168 57 86 140 255 
5.32066 4.30692 -0.999851 53 94 141 255 
5.07046 4.09986 -1.01411 56 89 140 255 
4.82856 3.89876 -1.02407 60 80 139 255 
4.61269 3.72038 -1.03639 64 69 136 255 
4.41286 3.567 -1.04141 61 77 138 255 
4.20345 3.39518 -1.04248 63 72 137 255 
4.05802 3.2766 -1.05831 58 83 139 255 
3.91852 3.16162 -1.07297 62 76 138 255 
3.7583 3.03466 -1.07179 60 79 138 255 
3.6229 2.92417 -1.07829 61 78 138 255 
3.46235 2.79364 -1.07547 62 73 137 255 
3.34881 2.70388 -1.08591 63 71 136 255 
3.24055 2.61194 -1.08803 65 66 135 255 
3.14847 2.53761 -1.09716 63 71 136 255 
3.02219 2.43762 -1.09431 65 68 135 255 
2.93802 2.37389 -1.10668 69 55 129 255 
11.6485 9.34807 4.4866 66 63 133 255 
11.4168 9.17826 4.23644 69 53 129 255 
11.428 9.19397 4.08689 68 59 132 255 
11.4426 9.20537 3.94329 70 52 128 255 
11.641 9.352 3.87564 72 26 108 255 
12.0206 9.66022 3.83924 70 51 127 255 
13.934 11.194 4.26796 72 35 116 255 
14.2422 11.4371 4.18348 72 26 108 255 
13.265 10.6605 3.75407 72 31 112 255 
13.3962 10.7618 3.61174 66 64 134 255 
12.7471 10.2295 3.27478 68 58 131 255 
12.8858 10.3331 3.15082 70 51 127 255 
14.1892 11.4033 3.32127 72 27 109 255 
11.9132 9.56707 2.63643 69 56 130 255 
11.8851 9.53102 2.4784 68 59 132 255 
12.9115 10.3353 2.53667 70 51 127 255 
12.9488 10.4027 2.41128 69 56 130 255 
16.16 12.9728 2.80554 72 33 115 255 
12.9132 10.3444 2.08139 72 41 121 255 
16.0747 12.8581 2.39992 72 40 120 255 
15.9557 12.8184 2.21981 71 46 124 255 
15.9004 12.7508 2.01638 70 48 126 255 
16.3105 13.0612 1.86856 72 28 110 255 
16.1145 12.8761 1.65236 71 44 122 255 
15.9453 12.8055 1.47669 72 31 112 255 
29.9822 24.0345 2.41085 70 8 92 255 
30.1413 24.1107 2.05663 69 5 89 255 
0 0 0 68 2 86 255 
0 0 0 68 2 86 255 
0 0 0 68 2 86 255 
0 0 0 68 2 86 255 
13.9789 11.1538 0.140459 72 36 117 255 
13.9647 11.2028 -0.00312466 72 33 115 255 
14.3671 11.5006 -0.176663 70 8 92 255 
14.2408 11.3793 -0.343645 72 28 110 255 
14.4451 11.5175 -0.522497 72 26 108 255 
13.2377 10.6082 -0.616105 72 32 113 255 
11.834 9.46614 -0.690801 71 45 123 255 
10.8285 8.6496 -0.762708 69 56 130 255 
10.0403 8.00255 -0.828032 70 52 128 255 
9.09963 7.28953 -0.84598 70 52 128 255 
8.34415 6.66978 -0.874488 69 53 129 255 
7.74682 6.18136 -0.905435 69 56 130 255 
7.2125 5.74867 -0.930353 70 50 126 255 
6.72179 5.37892 -0.93828 64 69 136 255 
6.33906 5.06523 -0.961814 63 71 136 255 
5.97548 4.76626 -0.97916 63 71 136 255 
5.63043 4.48449 -0.991135 57 86 140 255 
5.33926 4.26801 -0.998406 57 86 140 255 
