ply
format ascii 1.0
comment VTK generated PLY File
obj_info vtkPolyData points and polygons: vtk4.0
element vertex 1232
property float x
property float y
property float z
property uchar red
property uchar green
property uchar blue
property uchar alpha
element face 0
property list uchar int vertex_indices
end_header
6.17679 9.66217 1.66479 54 93 141 255 
6.38409 9.97846 1.60374 69 53 129 255 
16.4509 25.6543 3.83378 72 20 103 255 
6.54425 10.1894 1.41188 72 27 109 255 
6.51251 10.1873 1.31138 60 80 139 255 
18.6675 29.1441 3.42404 71 14 97 255 
17.776 27.7101 2.94397 71 13 96 255 
19.3294 30.0614 2.86298 70 8 92 255 
18.9267 29.595 2.53661 72 20 103 255 
18.9676 29.6013 2.20572 72 22 104 255 
36.4839 56.8075 3.59735 69 4 87 255 
36.5699 56.8306 2.96243 69 5 89 255 
10.625 16.6013 0.708964 70 10 93 255 
10.8166 16.8677 0.531712 70 11 94 255 
6.77786 10.5495 0.214494 70 8 92 255 
6.84343 10.6267 0.0992733 55 91 141 255 
6.76329 10.5634 -0.00218917 71 14 97 255 
6.76986 10.549 -0.120326 71 17 100 255 
6.79214 10.5636 -0.236755 71 14 97 255 
6.81158 10.5692 -0.355615 71 16 99 255 
6.72929 10.4982 -0.452887 70 48 126 255 
6.41054 9.98139 -0.540756 62 73 137 255 
6.0919 9.4709 -0.619728 62 76 138 255 
6.02929 9.35175 -0.717593 59 82 139 255 
6.00239 9.36058 -0.806829 55 91 141 255 
5.79896 9.02221 -0.877997 64 70 136 255 
5.39601 8.37938 -0.91053 67 62 133 255 
5.05112 7.83455 -0.940289 60 80 139 255 
4.69654 7.31572 -0.947489 63 71 136 255 
4.44162 6.90777 -0.973468 56 88 140 255 
4.16953 6.47232 -0.986275 58 83 139 255 
3.95139 6.12412 -1.00355 59 82 139 255 
3.73803 5.81597 -1.00982 51 99 141 255 
3.55523 5.52499 -1.02179 55 90 140 255 
3.36937 5.22823 -1.02635 54 92 141 255 
3.19044 4.94476 -1.02916 64 70 136 255 
3.05686 4.74887 -1.03654 55 91 141 255 
2.92895 4.54649 -1.04343 57 86 140 255 
2.79355 4.33473 -1.04637 61 77 138 255 
2.68501 4.163 -1.05567 67 62 133 255 
2.59607 4.0284 -1.06334 62 76 138 255 
2.50748 3.88927 -1.07175 61 77 138 255 
2.42235 3.75587 -1.0804 61 78 138 255 
2.32323 3.60483 -1.082 67 62 133 255 
2.24141 3.47141 -1.08019 65 68 135 255 
2.18099 3.37769 -1.09088 64 69 136 255 
2.10502 3.26259 -1.09431 62 73 137 255 
2.03885 3.166 -1.10331 64 69 136 255 
7.36366 11.3515 4.06455 72 38 119 255 
5.63454 8.7023 2.99821 54 93 141 255 
5.60364 8.66137 2.87446 71 46 124 255 
5.59048 8.64064 2.76336 53 94 141 255 
5.61974 8.67306 2.68233 66 64 134 255 
6.74885 10.4193 3.09057 62 74 137 255 
8.20082 12.6564 3.60115 72 36 117 255 
8.16695 12.5988 3.43872 71 16 99 255 
8.08941 12.4893 3.28253 70 51 127 255 
5.49619 8.48213 2.12439 46 110 142 255 
5.28282 8.14365 1.94495 58 84 140 255 
5.24135 8.07324 1.83615 52 96 141 255 
5.16622 7.97618 1.73386 48 105 142 255 
8.30398 12.8104 2.63422 71 47 125 255 
6.26238 9.6463 1.87097 60 80 139 255 
6.40984 9.85426 1.80305 71 46 124 255 
6.22035 9.6 1.66063 55 90 140 255 
6.20634 9.57077 1.54431 65 66 135 255 
6.55375 10.0836 1.51287 69 53 129 255 
6.65108 10.2173 1.42138 56 89 140 255 
6.60085 10.1872 1.31655 72 22 104 255 
20.7989 32.0372 3.77886 70 11 94 255 
19.7259 30.3386 3.23602 70 7 90 255 
19.1064 29.3176 2.80325 71 14 97 255 
19.1855 29.598 2.5469 71 19 101 255 
21.3146 32.819 2.45519 70 11 94 255 
20.3721 31.2966 1.98974 71 14 97 255 
0 0 0 68 2 86 255 
0 0 0 68 2 86 255 
0 0 0 69 4 87 255 
8.30796 12.7582 0.260433 70 7 90 255 
6.86423 10.5167 0.0986371 71 19 101 255 
6.81654 10.5041 -0.0021855 70 10 93 255 
6.83664 10.5106 -0.120364 70 11 94 255 
10.2981 15.8023 -0.355576 70 8 92 255 
8.83768 13.5299 -0.45705 71 19 101 255 
6.67108 10.2681 -0.444721 70 52 128 255 
6.32997 9.7242 -0.528916 60 80 139 255 
6.18698 9.49022 -0.623465 57 85 140 255 
6.10785 9.34716 -0.720103 57 85 140 255 
6.07657 9.3495 -0.809073 57 86 140 255 
5.85257 8.98396 -0.877752 68 59 132 255 
5.43426 8.3261 -0.908346 66 64 134 255 
5.10018 7.80508 -0.94049 65 68 135 255 
4.74405 7.29093 -0.948031 60 79 138 255 
4.4747 6.86624 -0.971467 55 90 140 255 
4.21134 6.44993 -0.986784 56 88 140 255 
3.98997 6.10142 -1.00382 55 90 140 255 
3.77797 5.79956 -1.01098 54 93 141 255 
3.5896 5.5039 -1.02194 57 85 140 255 
3.40786 5.21737 -1.0283 53 95 141 255 
3.20886 4.90695 -1.02537 64 69 136 255 
3.09132 4.73826 -1.03835 53 94 141 255 
2.94767 4.51446 -1.04021 58 83 139 255 
2.82277 4.32161 -1.04737 63 72 137 255 
2.72869 4.17428 -1.06275 64 69 136 255 
2.62181 4.01403 -1.06377 61 77 138 255 
2.52596 3.86566 -1.06949 63 72 137 255 
2.4512 3.74988 -1.08299 62 73 137 255 
2.34902 3.59619 -1.08371 65 66 135 255 
2.27379 3.47459 -1.08551 64 69 136 255 
2.20485 3.36909 -1.09245 62 73 137 255 
2.12395 3.24801 -1.09377 62 74 137 255 
2.06926 3.17031 -1.10921 65 66 135 255 
6.85233 10.4226 3.74694 69 55 129 255 
5.69995 8.68603 3.0046 61 78 138 255 
6.70889 10.2315 3.40914 72 38 119 255 
5.63121 8.5876 2.7574 60 79 138 255 
5.6431 8.59311 2.66826 68 59 132 255 
6.81266 10.3777 3.09057 72 29 111 255 
8.12135 12.3668 3.53286 72 38 119 255 
5.50481 8.37891 2.29613 71 42 122 255 
5.48108 8.34957 2.20329 64 69 136 255 
5.56801 8.47851 2.132 55 90 140 255 
5.42426 8.25036 1.97835 56 89 140 255 
5.40093 8.20833 1.87438 51 99 141 255 
5.34571 8.14335 1.7773 48 106 142 255 
5.58125 8.49544 1.75394 53 95 141 255 
6.35672 9.66129 1.8814 69 53 129 255 
6.85862 10.404 1.9113 72 31 112 255 
6.94513 10.5758 1.83676 72 31 112 255 
16.6461 25.3281 4.10326 70 7 90 255 
6.6548 10.1028 1.52185 52 96 141 255 
6.70982 10.1705 1.42057 51 99 141 255 
6.73418 10.2546 1.33057 60 79 138 255 
20.8852 31.7418 3.75907 70 10 93 255 
19.1143 29.0069 3.10643 71 19 101 255 
19.4936 29.5142 2.83343 72 20 103 255 
19.3536 29.4597 2.54518 70 10 93 255 
21.5551 32.7476 2.45969 72 22 104 255 
21.6086 32.7547 2.09084 70 11 94 255 
37.2679 56.3825 2.96269 69 4 87 255 
30.6376 46.6007 2.006 69 5 89 255 
0 0 0 69 4 87 255 
28.33 42.9268 0.879799 70 10 93 255 
10.706 16.1849 0.152413 69 5 89 255 
16.9868 25.8276 -0.00539534 70 7 90 255 
13.5643 20.5762 -0.236581 71 16 99 255 
10.7453 16.2694 -0.367563 72 29 111 255 
7.82802 11.8251 -0.401075 72 28 110 255 
6.8774 10.4449 -0.454194 68 59 132 255 
6.51109 9.86945 -0.53898 59 82 139 255 
6.24674 9.45458 -0.62363 64 69 136 255 
6.20145 9.36442 -0.724351 59 81 139 255 
6.15631 9.34619 -0.81204 57 85 140 255 
5.901 8.9379 -0.876773 70 52 128 255 
5.47756 8.28097 -0.907073 67 62 133 255 
5.1326 7.75041 -0.93768 64 70 136 255 
4.79198 7.26666 -0.948681 60 80 139 255 
4.51346 6.83369 -0.97076 58 83 139 255 
4.24864 6.42066 -0.986275 59 81 139 255 
4.02077 6.06691 -1.00218 57 85 140 255 
3.80639 5.76554 -1.0091 54 93 141 255 
3.6184 5.47435 -1.02056 55 90 140 255 
3.43709 5.19225 -1.02749 55 90 140 255 
3.24598 4.89784 -1.02761 64 70 136 255 
3.11654 4.71346 -1.03708 57 85 140 255 
2.96718 4.484 -1.03736 59 81 139 255 
2.84653 4.30012 -1.04637 63 72 137 255 
2.74885 4.1493 -1.06067 63 71 136 255 
2.6534 4.00845 -1.06659 61 78 138 255 
2.56577 3.87445 -1.07626 58 84 140 255 
2.45591 3.70722 -1.075 62 73 137 255 
2.37425 3.58656 -1.08518 65 68 135 255 
2.30683 3.47832 -1.09107 63 72 137 255 
2.23935 3.37641 -1.09926 59 82 139 255 
2.15128 3.24614 -1.09757 62 76 138 255 
2.07755 3.14074 -1.10331 66 64 134 255 
7.10095 10.6577 3.84706 67 62 133 255 
7.50701 11.2882 3.92056 71 45 123 255 
5.71324 8.59757 2.87634 69 55 129 255 
5.68968 8.56174 2.76025 64 70 136 255 
5.74398 8.63084 2.69087 72 33 115 255 
8.44355 12.6916 3.79503 68 58 131 255 
8.16259 12.2649 3.518 72 37 118 255 
8.19129 12.3029 3.38514 72 29 111 255 
5.50408 8.2735 2.19208 72 26 108 255 
5.58685 8.39449 2.11945 47 108 142 255 
5.46282 8.19897 1.97403 58 83 139 255 
5.45665 8.18321 1.87625 49 103 142 255 
5.43372 8.16773 1.78986 48 106 142 255 
5.6229 8.44545 1.75071 53 95 141 255 
6.81067 10.2142 1.99717 67 62 133 255 
5.83844 8.73926 1.61203 72 26 108 255 
6.47093 9.72314 1.69554 66 65 134 255 
17.1687 25.7772 4.19301 72 26 108 255 
17.1285 25.6591 3.88096 71 16 99 255 
17.9916 26.9104 3.77405 72 22 104 255 
6.77549 10.1808 1.32637 71 16 99 255 
21.01 31.5088 3.74667 71 13 96 255 
19.5823 29.3239 3.15319 71 13 96 255 
19.6993 29.4313 2.83703 72 20 103 255 
19.3494 29.0631 2.52112 70 7 90 255 
21.7584 32.6188 2.46001 72 20 103 255 
35.2867 52.7809 3.38293 69 5 89 255 
37.6309 56.1793 2.96409 69 5 89 255 
0 0 0 68 2 86 255 
27.2529 40.8251 1.3025 69 5 89 255 
27.2743 40.7808 0.839229 70 10 93 255 
8.78732 13.1087 0.12395 70 10 93 255 
17.1161 25.6796 -0.00538626 70 7 90 255 
13.2142 19.78 -0.228354 71 17 100 255 
11.579 17.2999 -0.392443 72 35 116 255 
9.17679 13.6794 -0.465871 72 23 105 255 
6.93082 10.3867 -0.453504 60 79 138 255 
6.54099 9.78364 -0.536475 62 73 137 255 
6.3313 9.4559 -0.626267 61 77 138 255 
6.26269 9.33199 -0.724801 60 79 138 255 
6.24677 9.35801 -0.816382 53 94 141 255 
5.94575 8.88661 -0.875304 69 53 129 255 
5.53603 8.25879 -0.908346 66 63 133 255 
5.18837 7.73116 -0.939185 61 78 138 255 
4.83317 7.23217 -0.948031 61 78 138 255 
4.56083 6.81412 -0.971937 56 89 140 255 
4.28409 6.38871 -0.985386 57 86 140 255 
4.04466 6.02239 -0.99891 59 82 139 255 
3.834 5.73056 -1.00708 57 85 140 255 
3.64533 5.44219 -1.01872 54 92 141 255 
3.46173 5.16041 -1.02537 53 94 141 255 
3.28696 4.89419 -1.03105 61 78 138 255 
3.14157 4.68853 -1.03582 58 84 140 255 
2.99628 4.46816 -1.03793 59 81 139 255 
2.88214 4.29641 -1.04975 62 76 138 255 
2.78462 4.14778 -1.06463 61 77 138 255 
2.68066 3.99615 -1.06767 62 73 137 255 
2.59004 3.85944 -1.07649 58 83 139 255 
2.48512 3.70177 -1.07782 64 70 136 255 
2.39135 3.56468 -1.08298 66 63 133 255 
2.31842 3.44964 -1.08652 62 74 137 255 
2.24818 3.34499 -1.0935 60 80 139 255 
2.1733 3.23608 -1.09865 63 71 136 255 
2.09945 3.13192 -1.10471 64 70 136 255 
7.32002 10.8418 3.92962 70 51 127 255 
7.82094 11.6051 4.04725 71 46 124 255 
7.98271 11.8543 3.98221 71 45 123 255 
7.45653 11.0725 3.58439 69 55 129 255 
5.83039 8.64519 2.70644 70 51 127 255 
8.45563 12.5422 3.7658 71 45 123 255 
8.1485 12.0823 3.47991 72 24 106 255 
8.29115 12.2887 3.39519 72 23 105 255 
9.65858 14.3269 3.81159 71 19 101 255 
5.55891 8.24241 2.08962 59 82 139 255 
8.50491 12.5966 3.04532 70 52 128 255 
5.58045 8.25863 1.90136 72 33 115 255 
5.49968 8.15789 1.79507 52 96 141 255 
5.59249 8.28907 1.72537 46 110 142 255 
5.75642 8.51937 1.67266 54 92 141 255 
5.77835 8.53548 1.58095 58 84 140 255 
6.47734 9.60449 1.68175 72 27 109 255 
17.1381 25.3921 4.1474 70 11 94 255 
18.2774 27.0196 4.10363 71 14 97 255 
18.2132 26.8833 3.78586 70 10 93 255 
20.8859 30.9693 4.05134 70 8 92 255 
20.9477 31.0016 3.70157 70 10 93 255 
19.7334 29.1611 3.14865 72 22 104 255 
20.1956 29.776 2.88214 70 10 93 255 
19.534 28.9538 2.52199 71 13 96 255 
22.1515 32.7708 2.48167 72 20 103 255 
22.2262 32.8079 2.11148 71 16 99 255 
37.9581 55.9226 2.96278 69 4 87 255 
27.4302 40.6272 1.76322 71 14 97 255 
27.4755 40.6165 1.3012 70 8 92 255 
27.602 40.7277 0.841607 71 13 96 255 
0 0 0 68 2 86 255 
17.1731 25.4257 -0.00535502 70 8 92 255 
13.36 19.735 -0.228777 71 19 101 255 
11.374 16.7701 -0.382001 72 29 111 255 
10.0361 14.7637 -0.504884 72 36 117 255 
6.99106 10.339 -0.453287 66 65 134 255 
6.58409 9.71851 -0.535109 60 79 138 255 
6.36622 9.38299 -0.624014 62 74 137 255 
6.34789 9.33465 -0.728019 59 81 139 255 
6.3186 9.34098 -0.818263 60 79 138 255 
6.01135 8.86646 -0.876936 69 53 129 255 
5.58828 8.22713 -0.908619 67 62 133 255 
5.24019 7.70576 -0.939988 63 71 136 255 
4.87578 7.1999 -0.947706 60 79 138 255 
4.58974 6.7671 -0.96923 58 84 140 255 
4.3182 6.35492 -0.984242 58 84 140 255 
4.07931 5.99418 -0.998364 58 83 139 255 
3.87242 5.71184 -1.00794 58 84 140 255 
3.68143 5.42381 -1.01948 56 89 140 255 
3.49444 5.1407 -1.0257 53 95 141 255 
3.30695 4.85927 -1.02795 62 74 137 255 
3.16862 4.66672 -1.03528 57 86 140 255 
3.02806 4.45619 -1.03945 62 76 138 255 
2.91065 4.28188 -1.05055 58 83 139 255 
2.81112 4.13224 -1.06505 62 74 137 255 
2.70732 3.98285 -1.06854 62 74 137 255 
2.60107 3.82495 -1.0713 60 80 139 255 
2.50614 3.68404 -1.07711 61 78 138 255 
2.40718 3.54112 -1.08029 64 69 136 255 
2.339 3.43455 -1.08626 60 80 139 255 
2.27084 3.33432 -1.09454 60 80 139 255 
2.19149 3.2203 -1.09784 60 79 138 255 
2.11809 3.11819 -1.10443 62 76 138 255 
7.54918 11.0346 4.01622 71 47 125 255 
6.76086 9.9005 3.46716 72 41 121 255 
8.64875 12.6748 4.27559 71 42 122 255 
7.52433 11.0265 3.58439 71 45 123 255 
5.67853 8.30957 2.61224 62 74 137 255 
5.6341 8.2474 2.48662 67 62 133 255 
5.75294 8.41837 2.43475 53 95 141 255 
9.72302 14.222 3.94572 72 40 120 255 
9.7474 14.269 3.81202 69 56 130 255 
5.59061 8.18067 2.08263 54 92 141 255 
8.60198 12.5733 3.05239 60 79 138 255 
5.63157 8.22505 1.90155 54 92 141 255 
5.56018 8.13943 1.79848 56 89 140 255 
5.57873 8.16024 1.70565 59 82 139 255 
6.9868 10.2048 2.01195 52 97 141 255 
6.53233 9.52281 1.77121 72 33 115 255 
17.2416 25.2301 4.43624 71 19 101 255 
17.4412 25.5025 4.18281 71 17 100 255 
18.3649 26.7932 4.08628 71 13 96 255 
21.5697 31.4207 4.4434 70 8 92 255 
21.8244 31.9363 4.19529 70 7 90 255 
20.8435 30.4431 3.65008 70 11 94 255 
18.3968 26.8298 2.90905 71 13 96 255 
21.4348 31.1893 3.03162 70 7 90 255 
22.3513 32.6951 2.85976 71 16 99 255 
22.3742 32.6664 2.48412 72 23 105 255 
22.5616 32.8668 2.12415 71 16 99 255 
0 0 0 69 4 87 255 
0 0 0 68 2 86 255 
0 0 0 68 2 86 255 
29.1368 42.4294 0.880448 70 8 92 255 
25.2177 36.639 0.349342 69 4 87 255 
17.3599 25.3653 -0.00536462 70 7 90 255 
13.4774 19.6477 -0.228719 71 14 97 255 
11.334 16.4924 -0.377252 72 33 115 255 
10.0652 14.6129 -0.501831 72 37 118 255 
7.38311 10.7757 -0.47441 67 61 132 255 
6.66225 9.70511 -0.536612 57 86 140 255 
6.47232 9.41452 -0.62874 61 78 138 255 
6.41863 9.31525 -0.729564 56 88 140 255 
6.38482 9.3152 -0.819421 57 85 140 255 
6.07863 8.8483 -0.878812 67 62 133 255 
5.64373 8.20007 -0.909438 66 64 134 255 
5.28116 7.66445 -0.938884 64 69 136 255 
4.93112 7.18625 -0.949873 55 90 140 255 
4.63117 6.73881 -0.96923 55 91 141 255 
4.36161 6.33484 -0.985259 56 88 140 255 
4.11826 5.9723 -0.99891 57 85 140 255 
3.90627 5.68634 -1.00766 62 74 137 255 
3.71072 5.39542 -1.01841 55 90 140 255 
3.52648 5.11998 -1.02586 53 94 141 255 
3.32832 4.82672 -1.02537 61 78 138 255 
3.18827 4.63423 -1.03239 61 77 138 255 
3.06592 4.45289 -1.04305 61 78 138 255 
2.94688 4.27847 -1.05413 57 85 140 255 
2.82865 4.10364 -1.06213 63 72 137 255 
2.7378 3.97501 -1.07092 61 77 138 255 
2.6267 3.81213 -1.0722 62 76 138 255 
2.53532 3.67819 -1.07993 62 74 137 255 
2.44371 3.54784 -1.08689 63 71 136 255 
2.36992 3.43447 -1.09082 59 81 139 255 
2.28413 3.31 -1.09114 60 79 138 255 
2.20411 3.19649 -1.09431 61 78 138 255 
2.13882 3.1075 -1.10528 60 79 138 255 
7.5971 10.9597 4.00586 67 62 133 255 
7.86001 11.3598 3.99502 67 62 133 255 
5.71659 8.2683 2.80092 51 98 141 255 
9.17371 13.268 4.33124 72 38 119 255 
5.80049 8.37723 2.64464 56 89 140 255 
9.30533 13.4436 4.07044 72 40 120 255 
5.73361 8.28055 2.40502 63 71 136 255 
5.70045 8.22927 2.29278 66 63 133 255 
9.96038 14.3904 3.86071 72 26 108 255 
10.0719 14.5457 3.7187 72 40 120 255 
6.26246 9.03422 2.20251 47 107 142 255 
10.4255 15.028 3.48904 72 20 103 255 
5.61001 8.10516 1.79848 49 103 142 255 
5.61467 8.1056 1.7014 67 62 133 255 
7.11567 10.2574 2.03089 72 22 104 255 
6.75874 9.72443 1.81639 68 58 131 255 
17.2997 24.9848 4.41168 70 10 93 255 
17.6126 25.4169 4.18644 72 27 109 255 
18.77 27.0272 4.13945 69 5 89 255 
18.8173 27.0541 3.84214 70 10 93 255 
18.5088 26.7309 3.52634 71 13 96 255 
18.655 26.8911 3.23787 71 17 100 255 
18.7083 26.9282 2.93212 70 11 94 255 
19.1782 27.5422 2.6885 71 16 99 255 
19.1314 27.6198 2.42606 70 7 90 255 
22.7603 32.7966 2.50459 71 13 96 255 
22.878 32.8934 2.13489 71 16 99 255 
0 0 0 68 2 86 255 
38.6455 55.7506 2.43998 69 4 87 255 
0 0 0 69 5 89 255 
29.7067 42.6955 0.889736 70 8 92 255 
0 0 0 68 2 86 255 
17.3853 25.0709 -0.00532483 69 5 89 255 
13.5892 19.5523 -0.228575 71 13 96 255 
11.4264 16.4102 -0.376969 72 28 110 255 
9.69647 13.8943 -0.479186 72 37 118 255 
7.33853 10.5709 -0.467369 64 69 136 255 
6.83119 9.8215 -0.545355 62 73 137 255 
6.56763 9.4287 -0.632367 60 80 139 255 
6.51851 9.33705 -0.734391 57 85 140 255 
6.48054 9.33156 -0.824342 58 84 140 255 
6.13907 8.81984 -0.87971 67 62 133 255 
5.69907 8.17264 -0.910257 65 66 135 255 
5.3298 7.63435 -0.939185 60 80 139 255 
4.97739 7.15912 -0.950306 58 83 139 255 
4.69116 6.73716 -0.973114 53 95 141 255 
4.4004 6.30796 -0.985259 61 78 138 255 
4.1537 5.9453 -0.998637 58 83 139 255 
3.93713 5.65658 -1.00664 60 79 138 255 
3.74488 5.37417 -1.01872 54 93 141 255 
3.55613 5.09581 -1.02537 57 86 140 255 
3.35448 4.80136 -1.02434 60 80 139 255 
3.2189 4.6178 -1.03311 60 80 139 255 
3.08813 4.42674 -1.04134 58 83 139 255 
2.96634 4.25067 -1.05174 61 77 138 255 
2.83642 4.06135 -1.05567 62 74 137 255 
2.74985 3.94052 -1.06615 63 71 136 255 
2.65395 3.80153 -1.07378 59 81 139 255 
2.5456 3.64504 -1.07476 63 72 137 255 
2.46544 3.53278 -1.08689 60 80 139 255 
2.39483 3.42541 -1.09259 60 80 139 255 
2.32762 3.32914 -1.10214 61 77 138 255 
2.22754 3.18843 -1.09621 61 77 138 255 
2.1562 3.09196 -1.10443 61 78 138 255 
5.78888 8.24265 3.02569 51 98 141 255 
7.93232 11.3153 3.99641 71 44 122 255 
5.75671 8.21807 2.79582 65 66 135 255 
5.77672 8.24629 2.70346 69 56 130 255 
5.83622 8.31929 2.63761 54 92 141 255 
9.58822 13.6723 4.1574 71 44 122 255 
9.79116 13.9568 4.071 72 40 120 255 
5.76764 8.21808 2.29948 53 95 141 255 
5.55857 7.92646 2.13565 72 40 120 255 
6.25823 8.92059 2.29038 71 47 125 255 
10.3718 14.768 3.61584 72 24 106 255 
6.30314 8.9678 2.09099 57 86 140 255 
6.02565 8.59251 1.91479 50 101 142 255 
5.68638 8.10246 1.70803 42 119 142 255 
7.02524 9.99553 1.98754 72 36 117 255 
6.78585 9.63671 1.80775 66 65 134 255 
6.99461 9.97053 1.76809 62 76 138 255 
17.762 25.2995 4.18496 70 7 90 255 
21.2238 30.1638 4.6397 70 11 94 255 
18.983 26.9381 3.84214 71 13 96 255 
18.6947 26.6486 3.53054 71 16 99 255 
18.9856 27.0122 3.26642 71 14 97 255 
19.2859 27.3994 2.99625 71 13 96 255 
19.9002 28.2084 2.7654 70 8 92 255 
20.7953 29.6319 2.61395 70 8 92 255 
23.011 32.7274 2.51004 71 13 96 255 
23.0121 32.6569 2.12867 72 23 105 255 
22.8632 32.3845 1.73774 69 5 89 255 
0 0 0 68 2 86 255 
30.0535 42.7119 1.38582 70 7 90 255 
29.9934 42.5484 0.890488 70 10 93 255 
24.6857 34.94 0.336006 69 4 87 255 
17.5014 24.9106 -0.00531348 70 8 92 255 
13.6202 19.3427 -0.227097 71 13 96 255 
11.4456 16.2246 -0.374311 72 28 110 255 
9.76596 13.8125 -0.478423 72 35 116 255 
7.4274 10.56 -0.468893 61 77 138 255 
7.13991 10.1322 -0.565027 61 77 138 255 
6.75144 9.56688 -0.644401 61 77 138 255 
6.64137 9.38976 -0.741728 58 83 139 255 
6.55834 9.32098 -0.826947 63 71 136 255 
6.18962 8.77711 -0.87922 67 62 133 255 
5.74049 8.12532 -0.908892 66 65 134 255 
5.38918 7.61938 -0.941393 63 71 136 255 
5.01435 7.11869 -0.949006 60 79 138 255 
4.73585 6.71312 -0.973821 56 88 140 255 
4.43158 6.27031 -0.983607 62 73 137 255 
4.19296 5.92374 -0.999319 55 90 140 255 
3.96777 5.62665 -1.00563 62 74 137 255 
3.77893 5.35271 -1.01902 54 92 141 255 
3.58164 5.06584 -1.02375 57 86 140 255 
3.38957 4.78873 -1.02606 60 79 138 255 
3.24263 4.59154 -1.03167 59 82 139 255 
3.1124 4.4037 -1.04039 59 82 139 255 
2.98558 4.22278 -1.04936 59 81 139 255 
2.85055 4.0287 -1.05171 62 76 138 255 
2.77116 3.91959 -1.06507 63 71 136 255 
2.6761 3.78358 -1.07333 63 72 137 255 
2.57634 3.64125 -1.07829 60 79 138 255 
2.48427 3.51363 -1.08567 64 69 136 255 
2.40965 3.40197 -1.08981 59 82 139 255 
2.33796 3.30062 -1.09742 61 77 138 255 
2.24539 3.17234 -1.0954 60 79 138 255 
2.1779 3.08259 -1.10584 61 78 138 255 
5.82769 8.19059 3.01965 62 76 138 255 
7.86476 11.0737 3.92806 70 48 126 255 
8.09673 11.409 3.8982 71 45 123 255 
5.82945 8.21384 2.7045 47 108 142 255 
5.89444 8.29358 2.64087 56 89 140 255 
6.00302 8.44922 2.58035 57 85 140 255 
5.84437 8.22305 2.40897 62 73 137 255 
5.72306 8.04907 2.26197 53 95 141 255 
5.72191 8.0538 2.17937 48 106 142 255 
5.68184 7.99422 2.06144 49 104 142 255 
6.31885 8.88079 2.18384 67 61 132 255 
6.37628 8.95456 2.09698 70 50 126 255 
7.02351 9.88584 2.21256 61 78 138 255 
5.716 8.0393 1.70208 57 85 140 255 
6.66565 9.36128 1.86952 62 73 137 255 
6.4281 9.0107 1.69768 60 80 139 255 
6.39636 8.99978 1.60287 50 100 142 255 
22.4889 31.6179 5.25287 70 7 90 255 
22.0449 30.9257 4.77762 70 10 93 255 
21.2596 29.7791 4.26587 70 7 90 255 
19.0456 26.7975 3.56569 71 19 101 255 
18.9853 26.6625 3.23816 71 14 97 255 
20.5779 28.857 3.1694 70 11 94 255 
20.2595 28.3469 2.79111 70 11 94 255 
20.4468 28.7583 2.54791 70 11 94 255 
23.2351 32.6189 2.51261 70 11 94 255 
23.28 32.6101 2.13489 71 16 99 255 
23.2527 32.5109 1.75214 70 11 94 255 
0 0 0 68 2 86 255 
24.0743 33.7721 1.10053 71 13 96 255 
23.7674 33.2806 0.699563 71 16 99 255 
23.831 33.295 0.321586 71 19 101 255 
17.6777 24.8361 -0.00532064 70 7 90 255 
13.7543 19.2807 -0.227356 71 14 97 255 
11.5112 16.1069 -0.373218 72 24 106 255 
9.83772 13.7344 -0.477801 72 31 112 255 
8.86532 12.4415 -0.55484 72 32 113 255 
7.31455 10.2459 -0.573862 69 55 129 255 
6.87622 9.61788 -0.650665 63 71 136 255 
6.78082 9.46321 -0.750802 63 72 137 255 
6.66809 9.35447 -0.833533 58 83 139 255 
6.21961 8.70572 -0.875875 69 56 130 255 
5.78676 8.08508 -0.908346 69 55 129 255 
5.42019 7.56433 -0.938683 61 77 138 255 
5.04465 7.06918 -0.946514 61 77 138 255 
4.76136 6.66212 -0.970643 55 90 140 255 
4.46881 6.24138 -0.983353 62 74 137 255 
4.23154 5.90112 -0.999865 56 89 140 255 
4.00798 5.61025 -1.00708 60 79 138 255 
3.80825 5.3246 -1.0181 56 88 140 255 
3.61495 5.04698 -1.0244 61 78 138 255 
3.41889 4.76784 -1.02606 62 73 137 255 
3.27647 4.57956 -1.03347 58 84 140 255 
3.1365 4.38053 -1.03945 59 81 139 255 
3.0063 4.19721 -1.04757 60 80 139 255 
2.88034 4.01828 -1.05358 61 78 138 255 
2.81619 3.93188 -1.07309 62 76 138 255 
2.70324 3.77264 -1.07491 59 81 139 255 
2.5975 3.62379 -1.07782 61 78 138 255 
2.50126 3.49201 -1.08371 60 80 139 255 
2.43273 3.39026 -1.09082 58 83 139 255 
2.36773 3.29954 -1.10187 60 79 138 255 
2.28164 3.18197 -1.10354 60 80 139 255 
2.19621 3.06839 -1.10556 62 73 137 255 
5.88736 8.16789 3.02454 51 99 141 255 
5.84549 8.12448 2.89458 72 40 120 255 
5.84195 8.12569 2.78857 69 53 129 255 
5.86734 8.16067 2.69879 54 92 141 255 
5.50521 7.64613 2.44542 63 71 136 255 
5.96971 8.29409 2.54411 59 82 139 255 
5.74468 7.97865 2.34766 72 38 119 255 
5.75183 7.98533 2.25393 62 73 137 255 
5.70733 7.92977 2.15525 50 100 142 255 
5.67475 7.88138 2.04129 52 97 141 255 
5.79415 8.03848 1.98542 56 89 140 255 
7.22587 10.017 2.35613 63 72 137 255 
7.07369 9.82819 2.20933 66 63 133 255 
5.30216 7.36119 1.56537 62 76 138 255 
6.69005 9.27457 1.86037 59 81 139 255 
5.31202 7.35039 1.39098 55 90 140 255 
6.4237 8.92182 1.59598 54 93 141 255 
17.5996 24.4252 4.07575 70 10 93 255 
17.7401 24.5664 3.81194 70 7 90 255 
17.6963 24.4689 3.52067 70 11 94 255 
17.6198 24.472 3.27057 70 10 93 255 
17.7426 24.5965 3.0004 71 19 101 255 
19.4072 26.8651 2.96365 71 19 101 255 
19.3522 26.7291 2.64347 71 13 96 255 
20.6246 28.6348 2.54813 71 17 100 255 
20.979 29.0725 2.2493 71 14 97 255 
23.4018 32.3591 2.12782 71 17 100 255 
0 0 0 68 2 86 255 
32.7867 45.487 2.01686 69 5 89 255 
23.9241 33.1294 1.08435 72 20 103 255 
23.9658 33.1268 0.699409 70 10 93 255 
24.0161 33.1222 0.321335 69 4 87 255 
17.8163 24.7086 -0.00531662 70 7 90 255 
13.887 19.2162 -0.227596 71 14 97 255 
11.5518 15.9558 -0.371352 72 20 103 255 
9.92651 13.6803 -0.478027 72 31 112 255 
8.92804 12.3682 -0.554005 72 41 121 255 
8.32096 11.5057 -0.647268 72 40 120 255 
7.15474 9.87876 -0.671271 67 62 133 255 
7.38335 10.1717 -0.810591 66 64 134 255 
6.90345 9.56 -0.855605 60 80 139 255 
6.27232 8.66659 -0.875794 69 53 129 255 
5.82223 8.03007 -0.906163 68 58 131 255 
5.45189 7.5108 -0.936174 61 78 138 255 
5.07396 7.01876 -0.943914 61 77 138 255 
4.79865 6.62795 -0.969936 57 85 140 255 
4.51168 6.22027 -0.98437 59 82 139 255 
4.26708 5.87425 -0.999728 57 85 140 255 
4.03768 5.57914 -1.00592 60 79 138 255 
3.82636 5.28112 -1.01426 57 86 140 255 
3.63774 5.01352 -1.02212 63 72 137 255 
3.45213 4.75235 -1.02726 63 71 136 255 
3.32528 4.58804 -1.03997 59 82 139 255 
3.16909 4.36915 -1.04134 59 82 139 255 
3.03603 4.18424 -1.04896 59 81 139 255 
2.92161 4.02349 -1.05963 62 73 137 255 
2.83224 3.90346 -1.07005 62 74 137 255 
2.73034 3.7615 -1.07649 60 79 138 255 
2.62197 3.61093 -1.07876 58 83 139 255 
2.51866 3.4711 -1.082 65 68 135 255 
2.45577 3.3784 -1.09183 59 82 139 255 
2.38794 3.28495 -1.10187 59 82 139 255 
2.28415 3.14455 -1.0954 61 78 138 255 
2.21218 3.05097 -1.10415 66 65 134 255 
10.6164 14.5399 5.40809 72 24 106 255 
5.87825 8.06517 2.88625 69 55 129 255 
5.88659 8.08269 2.78615 62 76 138 255 
5.9264 8.13701 2.70294 63 72 137 255 
5.54004 7.59579 2.44015 55 91 141 255 
5.76552 7.9076 2.43637 62 76 138 255 
5.64794 7.74365 2.28866 59 82 139 255 
5.74958 7.8798 2.23406 61 78 138 255 
5.73977 7.87251 2.14922 52 96 141 255 
5.73973 7.86934 2.04725 46 110 142 255 
5.85609 8.0202 1.98974 48 105 142 255 
5.86326 8.02384 1.89574 54 93 141 255 
5.39748 7.40304 1.67158 71 44 122 255 
5.4146 7.42087 1.58509 53 95 141 255 
6.68394 9.14728 1.84303 61 78 138 255 
5.36227 7.32484 1.39235 54 93 141 255 
5.34991 7.3351 1.31799 50 100 142 255 
20.6317 28.266 4.7377 71 17 100 255 
17.8899 24.4563 3.81181 72 22 104 255 
17.8719 24.3951 3.52577 71 19 101 255 
17.7591 24.3489 3.26863 71 17 100 255 
17.8884 24.4807 2.99962 71 19 101 255 
17.9142 24.4805 2.71266 72 22 104 255 
19.4875 26.5713 2.63963 71 14 97 255 
21.0621 28.867 2.58025 71 13 96 255 
21.1523 28.9368 2.2488 72 23 105 255 
37.5636 51.2759 3.38681 70 8 92 255 
37.284 50.7996 2.76225 70 7 90 255 
0 0 0 69 4 87 255 
31.1987 42.6492 1.40219 69 4 87 255 
0 0 0 68 1 84 255 
0 0 0 68 2 86 255 
17.9699 24.602 -0.00531732 69 5 89 255 
14.0472 19.1887 -0.228287 70 11 94 255 
11.6495 15.8846 -0.371352 72 23 105 255 
10.0067 13.6143 -0.477857 72 29 111 255 
8.99727 12.3043 -0.553606 71 44 122 255 
8.37014 11.4254 -0.645628 72 38 119 255 
7.42903 10.1261 -0.691163 70 48 126 255 
7.45331 10.1366 -0.811427 67 62 133 255 
6.97847 9.54 -0.857631 61 77 138 255 
6.34542 8.65527 -0.878568 70 51 127 255 
5.86609 7.98698 -0.905344 70 50 126 255 
5.49021 7.46679 -0.934869 62 74 137 255 
5.12045 6.9923 -0.944564 62 74 137 255 
4.83982 6.59918 -0.970054 56 89 140 255 
4.55153 6.19487 -0.984751 53 95 141 255 
4.28896 5.8288 -0.996455 58 83 139 255 
4.08062 5.56623 -1.00809 60 80 139 255 
3.85518 5.25277 -1.01334 59 81 139 255 
3.66084 4.98077 -1.02 63 71 136 255 
3.48999 4.74298 -1.02985 62 73 137 255 
3.35512 4.56992 -1.04051 56 89 140 255 
3.20805 4.36624 -1.04532 59 82 139 255 
3.06977 4.17659 -1.05174 60 80 139 255 
2.95204 4.01336 -1.06171 63 71 136 255 
2.83937 3.8632 -1.06377 62 73 137 255 
2.74991 3.73996 -1.07513 58 84 140 255 
2.65732 3.61279 -1.08416 59 81 139 255 
2.53359 3.44699 -1.07931 61 78 138 255 
2.47932 3.36717 -1.09309 58 84 140 255 
2.39775 3.25625 -1.09716 61 78 138 255 
2.30854 3.13745 -1.09784 64 69 136 255 
2.22973 3.03579 -1.10359 64 69 136 255 
10.8461 14.6647 5.47915 72 40 120 255 
5.92535 8.02586 2.88514 70 50 126 255 
5.89661 7.99293 2.76763 72 22 104 255 
10.2031 13.8298 4.61468 72 37 118 255 
5.66937 7.67376 2.47632 71 42 122 255 
5.81797 7.87754 2.43806 46 110 142 255 
5.75257 7.78629 2.31166 66 65 134 255 
5.84591 7.90944 2.25259 59 81 139 255 
5.93822 8.04059 2.20501 58 84 140 255 
6.35605 8.60297 2.24821 66 64 134 255 
5.81773 7.86587 1.96027 53 94 141 255 
7.29274 9.8526 2.33833 71 46 124 255 
5.79989 7.85329 1.78125 72 35 116 255 
6.51608 8.81634 1.89167 54 92 141 255 
5.41521 7.31629 1.48078 68 59 132 255 
5.42478 7.31562 1.3969 44 114 142 255 
6.52388 8.83038 1.59382 57 86 140 255 
6.6431 8.98493 1.51278 46 110 142 255 
18.0438 24.3517 3.81269 71 14 97 255 
18.1462 24.4533 3.5502 70 10 93 255 
17.8762 24.1963 3.26281 71 19 101 255 
17.9045 24.1897 2.97737 71 13 96 255 
17.6666 23.834 2.65298 72 22 104 255 
23.4671 31.5891 3.15236 70 7 90 255 
22.5134 30.4618 2.73509 71 17 100 255 
23.047 31.1261 2.42989 70 11 94 255 
37.6317 50.7132 3.36484 69 5 89 255 
37.7935 50.8369 2.77683 70 7 90 255 
0 0 0 68 2 86 255 
33.0114 44.5509 1.47134 69 4 87 255 
20.6905 27.8727 0.593796 70 8 92 255 
20.6747 27.7898 0.272043 69 4 87 255 
18.1479 24.5283 -0.00532535 70 10 93 255 
14.173 19.1134 -0.228422 71 13 96 255 
11.7354 15.7976 -0.370994 72 23 105 255 
10.1062 13.5743 -0.478621 72 31 112 255 
9.07141 12.2473 -0.553533 72 37 118 255 
8.46569 11.4083 -0.647587 71 42 122 255 
7.90613 10.6389 -0.729464 71 47 125 255 
7.40568 9.94345 -0.799586 69 53 129 255 
7.04994 9.51463 -0.859223 61 78 138 255 
6.40851 8.62977 -0.879955 70 50 126 255 
5.94292 7.98838 -0.90962 68 59 132 255 
5.53592 7.43296 -0.934869 61 77 138 255 
5.17807 6.98071 -0.947272 57 85 140 255 
4.87252 6.559 -0.968524 55 91 141 255 
4.58116 6.15568 -0.982972 59 82 139 255 
4.32582 5.80397 -0.996728 56 88 140 255 
4.11587 5.54268 -1.00838 57 86 140 255 
3.89972 5.24567 -1.01656 60 80 139 255 
3.6931 4.96059 -1.02049 59 82 139 255 
3.52962 4.7357 -1.03295 61 78 138 255 
3.37253 4.53504 -1.03726 57 86 140 255 
3.23126 4.34175 -1.04418 62 76 138 255 
3.10353 4.16868 -1.05453 59 82 139 255 
2.9731 3.99047 -1.06046 66 64 134 255 
2.86185 3.84414 -1.06334 62 74 137 255 
2.76989 3.71911 -1.074 61 78 138 255 
2.67712 3.5933 -1.08322 59 81 139 255 
2.56627 3.44694 -1.0842 64 70 136 255 
2.49588 3.34646 -1.09132 59 82 139 255 
2.42518 3.25153 -1.10057 61 78 138 255 
2.32832 3.124 -1.09811 63 71 136 255 
2.23571 3.00512 -1.0974 68 59 132 255 
8.88078 11.8546 4.44949 70 50 126 255 
10.6735 14.2731 5.15435 72 38 119 255 
5.93055 7.93653 2.76065 71 47 125 255 
11.1474 14.9174 5.0003 72 32 113 255 
8.67108 11.5873 3.75631 72 27 109 255 
5.75808 7.69717 2.39312 51 99 141 255 
5.99372 8.00939 2.38877 50 102 142 255 
5.82949 7.78681 2.22781 53 95 141 255 
5.75932 7.69905 2.121 66 64 134 255 
5.97131 7.9793 2.09477 69 56 130 255 
5.82591 7.77666 1.94691 53 94 141 255 
5.99369 7.99451 1.90604 72 31 112 255 
6.71067 8.97081 2.04402 70 51 127 255 
6.89014 9.20376 1.98383 70 52 128 255 
5.44993 7.2695 1.47805 54 92 141 255 
6.51789 8.67794 1.66463 71 45 123 255 
6.53406 8.73155 1.58319 50 101 142 255 
5.42157 7.23943 1.22447 42 119 142 255 
17.8415 23.7723 3.73905 72 23 105 255 
17.816 23.7031 3.4571 70 8 92 255 
17.7974 23.7829 3.22173 71 19 101 255 
17.7911 23.7306 2.93424 72 23 105 255 
17.8179 23.7323 2.65379 70 10 93 255 
20.303 26.9825 2.70503 70 7 90 255 
20.3831 27.2282 2.45594 70 8 92 255 
23.4083 31.2117 2.44774 71 19 101 255 
37.9416 50.4806 3.36478 69 4 87 255 
38.1131 50.6152 2.77744 70 7 90 255 
37.9511 50.6593 2.27679 70 7 90 255 
0 0 0 69 4 87 255 
0 0 0 68 2 86 255 
18.4966 24.5462 0.241398 69 4 87 255 
18.2855 24.3996 -0.00532168 70 11 94 255 
14.296 19.0341 -0.228518 71 13 96 255 
11.8393 15.7348 -0.37122 72 22 104 255 
10.1772 13.4961 -0.478055 72 27 109 255 
9.13919 12.1818 -0.553098 72 36 117 255 
8.53313 11.353 -0.647404 72 40 120 255 
7.97306 10.5926 -0.729629 72 41 121 255 
7.48579 9.92332 -0.801645 70 48 126 255 
7.0112 9.34197 -0.8475 62 74 137 255 
6.46074 8.58949 -0.879873 71 45 123 255 
5.98164 7.93825 -0.908073 67 61 132 255 
5.6 7.42347 -0.937981 58 84 140 255 
5.22618 6.95596 -0.948247 59 82 139 255 
4.90372 6.51708 -0.966758 55 90 140 255 
4.62004 6.12904 -0.983226 55 91 141 255 
4.36016 5.77573 -0.996455 57 85 140 255 
4.14624 5.51258 -1.00751 54 92 141 255 
3.93659 5.22795 -1.01779 59 82 139 255 
3.72109 4.93468 -1.01984 58 84 140 255 
3.54852 4.70058 -1.03002 61 77 138 255 
3.39023 4.50091 -1.03419 60 80 139 255 
3.26316 4.3289 -1.04589 60 80 139 255 
3.12374 4.14251 -1.05274 62 76 138 255 
3.01049 3.98933 -1.06505 64 69 136 255 
2.8942 3.8382 -1.06659 57 85 140 255 
2.80146 3.71371 -1.07739 59 82 139 255 
2.69384 3.56982 -1.08111 60 80 139 255 
2.61365 3.46596 -1.09521 64 70 136 255 
2.5117 3.32491 -1.0893 59 81 139 255 
2.43927 3.22889 -1.09795 62 73 137 255 
2.34687 3.10889 -1.09784 67 62 133 255 
2.26104 3.00054 -1.10078 65 68 135 255 
8.83352 11.6419 4.38994 70 52 128 255 
10.7412 14.1813 5.14491 71 45 123 255 
10.881 14.3767 5.02393 72 35 116 255 
10.3744 13.7066 4.61572 71 19 101 255 
10.3154 13.6097 4.43236 71 47 125 255 
6.04019 7.97184 2.49 70 50 126 255 
6.04804 7.97944 2.39086 61 77 138 255 
5.86774 7.73846 2.22424 55 90 140 255 
5.79466 7.648 2.11669 48 106 142 255 
5.87474 7.75066 2.04417 51 99 141 255 
5.80654 7.6525 1.92471 49 103 142 255 
5.80442 7.64388 1.8309 63 72 137 255 
6.93491 9.15294 2.09518 61 78 138 255 
6.93517 9.14639 1.9806 68 59 132 255 
6.92698 9.12253 1.86342 58 84 140 255 
7.06354 9.28522 1.7894 60 79 138 255 
5.50195 7.25904 1.3223 47 107 142 255 
5.47487 7.21787 1.22648 43 117 142 255 
5.62361 7.398 1.16901 49 103 142 255 
17.7903 23.3689 3.42421 71 14 97 255 
17.7286 23.3904 3.18323 72 20 103 255 
17.7697 23.4015 2.90697 70 10 93 255 
25.7942 33.9206 3.81069 70 10 93 255 
20.4247 26.8003 2.69928 70 10 93 255 
20.0894 26.4955 2.40092 71 17 100 255 
20.3888 26.841 2.11474 72 22 104 255 
20.273 26.6311 1.78335 70 8 92 255 
20.2611 26.5665 1.46459 69 5 89 255 
38.2377 50.3944 2.27538 70 10 93 255 
0 0 0 69 4 87 255 
18.7836 24.6656 0.530342 71 16 99 255 
0 0 0 68 2 86 255 
18.2807 24.0839 -0.00527718 69 5 89 255 
14.4804 19.0352 -0.229593 71 13 96 255 
11.9435 15.6722 -0.371465 72 20 103 255 
10.2465 13.4159 -0.477433 72 28 110 255 
9.22767 12.1438 -0.553932 72 37 118 255 
8.61352 11.3147 -0.648224 71 45 123 255 
8.0373 10.5427 -0.729574 72 41 121 255 
7.52291 9.84628 -0.799135 70 50 126 255 
7.06356 9.29242 -0.846921 62 74 137 255 
6.48433 8.51163 -0.875957 71 47 125 255 
6.0115 7.87685 -0.905253 67 61 132 255 
5.63759 7.37869 -0.936676 56 88 140 255 
5.27478 6.93168 -0.949331 59 82 139 255 
4.9382 6.47976 -0.965699 56 88 140 255 
4.65455 6.09664 -0.982591 58 84 140 255 
4.40815 5.7654 -0.999319 55 91 141 255 
4.19257 5.50356 -1.01055 54 92 141 255 
3.962 5.19506 -1.0161 56 89 140 255 
3.75789 4.92039 -1.02163 59 82 139 255 
3.58807 4.69281 -1.03312 61 77 138 255 
3.40824 4.46751 -1.03131 60 80 139 255 
3.29741 4.31894 -1.04835 61 78 138 255 
3.15326 4.12872 -1.05413 62 73 137 255 
3.04263 3.98088 -1.06776 57 86 140 255 
2.92422 3.8289 -1.06897 59 81 139 255 
2.80704 3.674 -1.07085 60 79 138 255 
2.71629 3.554 -1.08134 60 79 138 255 
2.6278 3.44061 -1.09228 60 79 138 255 
2.53559 3.31404 -1.09082 56 88 140 255 
2.45552 3.20926 -1.09638 62 73 137 255 
2.37993 3.11278 -1.10435 61 77 138 255 
2.28115 2.9889 -1.10162 67 62 133 255 
8.87561 11.5495 4.37555 68 58 131 255 
10.4895 13.6739 4.98405 72 33 115 255 
10.9609 14.2989 5.02017 71 44 122 255 
10.3972 13.563 4.58875 72 35 116 255 
10.404 13.553 4.43462 71 45 123 255 
8.74861 11.4004 3.57761 71 47 125 255 
5.98494 7.79636 2.34696 55 91 141 255 
6.02672 7.84765 2.26621 48 105 142 255 
6.41159 8.35524 2.32327 65 66 135 255 
6.59199 8.58698 2.27536 71 42 122 255 
5.8492 7.61129 1.92334 49 103 142 255 
5.82426 7.57309 1.82247 62 73 137 255 
7.40238 9.64638 2.21848 68 57 131 255 
5.69832 7.42018 1.61434 72 40 120 255 
7.13747 9.28094 1.90468 68 57 131 255 
6.88812 8.94025 1.73104 70 50 126 255 
5.5036 7.16941 1.3121 55 91 141 255 
5.4768 7.12914 1.21709 44 115 142 255 
5.62532 7.30675 1.16002 66 64 134 255 
17.9194 23.2412 3.42154 72 20 103 255 
17.8833 23.2962 3.18528 71 14 97 255 
20.4391 26.5768 3.31692 71 17 100 255 
20.2483 26.2911 2.96748 70 11 94 255 
20.3104 26.3139 2.66279 70 11 94 255 
20.2655 26.3899 2.40258 71 14 97 255 
20.331 26.4267 2.09189 71 19 101 255 
20.383 26.4374 1.77872 72 20 103 255 
20.417 26.433 1.46411 71 17 100 255 
20.3826 26.5232 1.20319 70 11 94 255 
20.4231 26.5271 0.888352 70 10 93 255 
17.7915 23.0678 0.498324 70 10 93 255 
0 0 0 68 2 86 255 
17.4523 22.702 -0.00499775 69 5 89 255 
14.553 18.8889 -0.228902 70 11 94 255 
12.0291 15.5852 -0.371145 72 20 103 255 
10.3378 13.3646 -0.477857 72 29 111 255 
9.32578 12.1178 -0.555348 72 36 117 255 
8.68522 11.2648 -0.648406 71 42 122 255 
8.10428 10.4963 -0.729793 72 40 120 255 
7.60272 9.82519 -0.801194 71 45 123 255 
7.12653 9.25681 -0.847645 64 69 136 255 
6.53583 8.47089 -0.875875 71 46 124 255 
6.04937 7.82643 -0.903706 69 56 130 255 
5.65962 7.31406 -0.932862 63 72 137 255 
5.32449 6.90863 -0.950631 56 88 140 255 
4.9809 6.45327 -0.966287 56 89 140 255 
4.69915 6.07738 -0.984115 60 79 138 255 
4.43981 5.73354 -0.998501 56 88 140 255 
4.23533 5.48948 -1.01271 49 103 142 255 
3.98716 5.16205 -1.01441 58 83 139 255 
3.78921 4.8988 -1.02195 58 84 140 255 
3.62403 4.68005 -1.03519 62 74 137 255 
3.4386 4.45041 -1.03221 59 81 139 255 
3.32204 4.29629 -1.04778 61 77 138 255 
3.18573 4.1186 -1.05652 61 78 138 255 
3.0664 3.96136 -1.06755 60 79 138 255 
2.95841 3.82479 -1.07287 59 82 139 255 
2.82834 3.65517 -1.07039 60 79 138 255 
2.7309 3.52804 -1.07852 57 85 140 255 
2.637 3.40909 -1.08738 61 78 138 255 
2.55943 3.30301 -1.09233 58 83 139 255 
2.47339 3.19185 -1.09559 62 74 137 255 
2.37423 3.06615 -1.09296 62 74 137 255 
2.3059 2.9832 -1.10471 67 61 132 255 
9.14278 11.7473 4.47164 64 70 136 255 
10.9981 14.1562 5.18436 72 36 117 255 
10.9096 14.0526 4.9571 72 40 120 255 
10.6229 13.6828 4.65125 71 42 122 255 
10.5357 13.5516 4.45522 72 40 120 255 
10.8394 13.9469 4.39754 72 27 109 255 
6.03267 7.75949 2.34696 53 95 141 255 
6.12683 7.87747 2.28563 59 82 139 255 
6.62813 8.52855 2.38273 71 44 122 255 
12.137 15.6109 4.15621 72 20 103 255 
5.90001 7.58067 1.92471 49 103 142 255 
7.03135 9.02744 2.1828 71 42 122 255 
7.686 9.88974 2.28525 72 40 120 255 
6.87689 8.84202 1.93282 71 42 122 255 
7.08693 9.09914 1.87626 68 58 131 255 
6.91427 8.86119 1.72391 48 106 142 255 
5.54506 7.13238 1.31152 53 95 141 255 
5.61537 7.21741 1.23802 41 122 142 255 
5.62002 7.20794 1.14978 72 27 109 255 
17.7083 22.6783 3.35461 70 11 94 255 
17.6915 22.7559 3.12619 71 14 97 255 
20.2441 25.9916 3.25933 71 14 97 255 
20.3841 26.1342 2.96383 69 5 89 255 
26.4311 33.8128 3.43798 70 8 92 255 
26.2998 33.8162 3.09332 71 17 100 255 
26.4607 33.9608 2.70108 71 16 99 255 
26.4219 33.8386 2.28755 69 5 89 255 
0 0 0 69 4 87 255 
20.5664 26.4252 1.20444 71 13 96 255 
20.6223 26.4486 0.889944 71 17 100 255 
20.5836 26.3519 0.571989 71 16 99 255 
16.6086 21.2166 0.211623 69 4 87 255 
16.7466 21.5095 -0.00475777 70 7 90 255 
14.7621 18.9191 -0.230361 71 16 99 255 
12.1202 15.5056 -0.371013 72 20 103 255 
10.44 13.3269 -0.47879 72 27 109 255 
9.39075 12.0486 -0.554803 72 35 116 255 
8.73758 11.19 -0.647177 71 45 123 255 
8.17037 10.4488 -0.729958 72 40 120 255 
7.67764 9.7972 -0.802739 69 53 129 255 
7.1881 9.2192 -0.848224 65 66 135 255 
6.60547 8.45341 -0.878241 70 52 128 255 
6.09175 7.7821 -0.902888 68 57 131 255 
5.71053 7.28703 -0.933866 66 63 133 255 
5.37045 6.88053 -0.951281 55 90 140 255 
5.03263 6.43823 -0.968642 53 94 141 255 
4.74002 6.05312 -0.984878 58 83 139 255 
4.47246 5.70307 -0.997955 53 95 141 255 
4.26223 5.45482 -1.01112 51 99 141 255 
4.01145 5.12815 -1.01257 60 80 139 255 
3.7906 4.83895 -1.0143 62 74 137 255 
3.65025 4.65463 -1.0345 62 76 138 255 
3.47008 4.43465 -1.03347 62 76 138 255 
3.36348 4.29516 -1.05252 58 83 139 255 
3.20369 4.08972 -1.05413 60 80 139 255 
3.08522 3.93555 -1.06567 59 82 139 255 
2.9746 3.79734 -1.07027 59 82 139 255 
2.86153 3.65155 -1.07446 61 78 138 255 
2.7507 3.50892 -1.07782 59 82 139 255 
2.65308 3.38673 -1.08543 60 80 139 255 
2.58502 3.2941 -1.09461 58 84 140 255 
2.49948 3.18496 -1.09847 61 77 138 255 
2.40369 3.06516 -1.09784 63 72 137 255 
2.32594 2.97126 -1.10556 66 65 134 255 
9.23069 11.7113 4.47941 69 56 130 255 
9.28253 11.7979 4.34146 71 17 100 255 
11.1349 14.1626 5.01991 72 32 113 255 
11.2284 14.2809 4.8779 72 27 109 255 
10.8138 13.7346 4.53712 70 48 126 255 
11.3353 14.4017 4.56278 72 33 115 255 
6.11567 7.76742 2.36066 70 52 128 255 
6.17746 7.84279 2.28653 72 28 110 255 
6.34514 8.06184 2.26317 69 56 130 255 
6.78283 8.61462 2.30457 49 103 142 255 
5.87054 7.44807 1.90016 53 94 141 255 
5.9198 7.5049 1.82341 62 74 137 255 
7.00182 8.89618 2.06556 68 57 131 255 
5.80359 7.36827 1.61842 47 107 142 255 
5.89565 7.47455 1.5487 54 93 141 255 
6.96054 8.80852 1.72194 55 91 141 255 
5.66586 7.19619 1.32962 64 69 136 255 
5.66629 7.19138 1.2395 47 107 142 255 
5.68013 7.19356 1.15303 54 93 141 255 
15.485 19.5821 2.91062 71 19 101 255 
15.4803 19.6615 2.71408 71 17 100 255 
17.9183 22.7165 2.86238 71 13 96 255 
16.649 21.0775 2.4019 72 24 106 255 
26.5001 33.4757 3.42018 70 11 94 255 
26.439 33.568 3.0854 71 19 101 255 
26.4843 33.5644 2.68242 72 20 103 255 
0 0 0 68 2 86 255 
39.4021 49.7382 2.78156 70 8 92 255 
0 0 0 68 2 86 255 
0 0 0 69 4 87 255 
33.2589 42.0451 0.917033 70 10 93 255 
0 0 0 68 2 86 255 
0 0 -0 68 2 86 255 
14.8921 18.8462 -0.230582 71 13 96 255 
12.2101 15.4247 -0.370862 71 19 101 255 
10.4917 13.225 -0.477433 72 28 110 255 
9.4744 12.0033 -0.555384 72 36 117 255 
8.8067 11.137 -0.647222 70 48 126 255 
8.23619 10.4008 -0.730123 72 38 119 255 
7.75808 9.7757 -0.804863 71 45 123 255 
7.27543 9.21406 -0.851842 64 70 136 255 
6.63681 8.38693 -0.875549 70 52 128 255 
6.14124 7.74692 -0.903161 67 61 132 255 
5.75575 7.25263 -0.933966 65 68 135 255 
5.40702 6.84043 -0.950306 57 86 140 255 
5.05108 6.38076 -0.964639 56 88 140 255 
4.77029 6.01537 -0.98348 59 82 139 255 
4.50429 5.67164 -0.997273 52 97 141 255 
4.28887 5.42002 -1.00953 50 101 142 255 
4.05941 5.12435 -1.01672 58 83 139 255 
3.82084 4.81637 -1.01447 62 73 137 255 
3.66036 4.609 -1.02933 64 70 136 255 
3.49723 4.41327 -1.03347 59 81 139 255 
3.38489 4.26828 -1.051 58 84 140 255 
3.22324 4.06307 -1.05234 58 83 139 255 
3.10749 3.91424 -1.06505 60 80 139 255 
3.0033 3.7859 -1.07222 61 78 138 255 
2.89479 3.64766 -1.07852 58 83 139 255 
2.77762 3.49883 -1.07993 57 86 140 255 
2.66899 3.36431 -1.08347 62 76 138 255 
2.59194 3.26151 -1.08905 61 77 138 255 
2.51778 3.16805 -1.09795 61 77 138 255 
2.42784 3.05714 -1.10028 62 73 137 255 
2.35367 2.96896 -1.11006 67 62 133 255 
9.18169 11.5032 4.42129 65 66 135 255 
9.417 11.8188 4.37035 72 40 120 255 
9.02431 11.3343 4.03697 72 37 118 255 
10.8688 13.6504 4.68522 72 32 113 255 
8.88606 11.1448 3.69954 71 46 124 255 
11.3817 14.2796 4.54611 72 28 110 255 
9.00712 11.2965 3.44995 71 45 123 255 
7.44722 9.33642 2.73526 72 35 116 255 
6.81811 8.55425 2.4131 69 53 129 255 
7.07838 8.87738 2.38644 71 44 122 255 
6.08129 7.61881 1.9532 68 58 131 255 
5.94735 7.44541 1.81779 56 88 140 255 
5.84037 7.32754 1.70963 58 83 139 255 
5.84439 7.32713 1.61723 50 100 142 255 
5.93339 7.42821 1.54661 42 120 142 255 
6.9879 8.73246 1.71542 50 100 142 255 
5.72224 7.17677 1.3325 62 73 137 255 
5.71773 7.16577 1.24111 44 113 142 255 
5.74956 7.19034 1.15815 44 113 142 255 
5.71012 7.13057 1.06505 72 24 106 255 
16.5167 20.715 2.87345 72 27 109 255 
16.6114 20.796 2.63318 71 13 96 255 
18.107 22.6363 2.59215 71 13 96 255 
27.0087 33.6913 3.45906 70 8 92 255 
26.7558 33.5448 3.09829 71 14 97 255 
26.777 33.5104 2.69119 71 14 97 255 
33.3709 41.6736 2.84468 69 4 87 255 
39.7941 49.6046 2.78769 70 8 92 255 
39.6362 49.6579 2.28538 70 8 92 255 
39.8779 49.87 1.69437 69 4 87 255 
33.7257 42.1016 0.922762 70 10 93 255 
15.1443 18.8644 0.190002 69 5 89 255 
15.513 19.4285 -0.00433924 70 7 90 255 
15.0063 18.7529 -0.230562 70 11 94 255 
12.2576 15.2909 -0.369448 72 22 104 255 
10.5432 13.1237 -0.476105 72 27 109 255 
9.57907 11.9839 -0.557199 72 31 112 255 
8.90359 11.1186 -0.649317 71 44 122 255 
8.30923 10.3617 -0.730947 71 42 122 255 
7.79916 9.70458 -0.802932 71 45 123 255 
7.31688 9.15055 -0.850105 61 77 138 255 
6.68067 8.33671 -0.87457 70 48 126 255 
6.19864 7.72152 -0.904616 68 58 131 255 
5.7964 7.21253 -0.933364 66 63 133 255 
5.43585 6.79083 -0.948031 58 83 139 255 
5.09573 6.35662 -0.965699 53 94 141 255 
4.80277 5.98057 -0.982591 58 83 139 255 
4.5359 5.64004 -0.996591 53 95 141 255 
4.32019 5.39129 -1.0091 50 101 142 255 
4.09015 5.09857 -1.01656 55 91 141 255 
3.85712 4.8013 -1.01626 59 81 139 255 
3.69104 4.58952 -1.03002 61 78 138 255 
3.53655 4.40707 -1.03708 58 83 139 255 
3.40425 4.23901 -1.04892 55 90 140 255 
3.25302 4.04933 -1.05393 59 81 139 255 
3.14186 3.90806 -1.06859 58 84 140 255 
3.0277 3.76892 -1.07265 60 80 139 255 
2.92993 3.64578 -1.08326 54 93 141 255 
2.80512 3.48929 -1.08228 57 85 140 255 
2.70963 3.37282 -1.09154 60 79 138 255 
2.62586 3.26288 -1.09486 61 77 138 255 
2.5408 3.15706 -1.09952 61 78 138 255 
2.44113 3.03543 -1.09784 65 68 135 255 
2.36643 2.94773 -1.10753 66 63 133 255 
10.3261 12.7755 4.93454 72 31 112 255 
10.8918 13.499 5.01628 70 48 126 255 
10.832 13.4347 4.80866 72 29 111 255 
8.98039 11.1377 3.84164 66 65 134 255 
8.93056 11.0607 3.68974 58 83 139 255 
9.09706 11.2706 3.60587 62 73 137 255 
10.5134 13.0209 3.99622 72 40 120 255 
7.63115 9.44752 2.78147 66 65 134 255 
6.82876 8.46058 2.39845 62 73 137 255 
6.63844 8.22161 2.22106 61 77 138 255 
6.99453 8.65351 2.22942 57 86 140 255 
5.96141 7.36983 1.80823 47 108 142 255 
5.88337 7.28927 1.70909 47 107 142 255 
5.89109 7.29343 1.61774 50 101 142 255 
5.88823 7.27962 1.52317 70 50 126 255 
7.04695 8.69633 1.71678 59 81 139 255 
6.99152 8.65914 1.61566 57 86 140 255 
5.76532 7.13518 1.24191 61 77 138 255 
5.8223 7.1904 1.16389 41 122 142 255 
15.5096 19.126 2.8709 72 23 105 255 
16.6972 20.6798 2.88272 71 17 100 255 
18.2339 22.5421 2.86838 70 11 94 255 
18.2449 22.524 2.59206 71 16 99 255 
31.1496 38.3719 3.95917 69 5 89 255 
26.8934 33.2962 3.09051 71 14 97 255 
26.6933 32.9886 2.66238 70 7 90 255 
34.1618 42.1289 2.89001 70 7 90 255 
40.104 49.3673 2.78813 69 4 87 255 
39.9609 49.4395 2.28656 70 7 90 255 
0 0 0 69 4 87 255 
34.0231 41.9428 0.92384 69 5 89 255 
14.5716 17.9246 0.181433 69 4 87 255 
15.0177 18.5732 -0.00416872 70 8 92 255 
15.0235 18.5401 -0.229074 70 7 90 255 
12.3645 15.2317 -0.369844 71 19 101 255 
10.6091 13.041 -0.475454 72 29 111 255 
9.65683 11.9304 -0.557453 72 35 116 255 
8.98423 11.0793 -0.650228 71 44 122 255 
8.39719 10.3408 -0.73309 70 51 127 255 
7.85604 9.65345 -0.802675 70 50 126 255 
7.36222 9.0923 -0.848875 66 65 134 255 
6.73609 8.30098 -0.875141 69 55 129 255 
6.25658 7.69647 -0.906163 70 51 127 255 
5.80789 7.1367 -0.928145 67 61 132 255 
5.46802 6.74576 -0.946406 59 82 139 255 
5.13651 6.32754 -0.966052 50 100 142 255 
4.83687 5.94791 -0.982082 57 85 140 255 
4.58606 5.63131 -1 52 96 141 255 
4.35319 5.36468 -1.0091 49 104 142 255 
4.12572 5.07875 -1.01764 56 88 140 255 
3.89211 4.78443 -1.01772 57 85 140 255 
3.73033 4.58054 -1.03312 61 77 138 255 
3.57966 4.40513 -1.04178 54 92 141 255 
3.41595 4.20052 -1.04456 57 86 140 255 
3.28585 4.03918 -1.05652 58 84 140 255 
3.15961 3.88112 -1.0665 59 81 139 255 
3.04953 3.74876 -1.07222 59 81 139 255 
2.9424 3.61564 -1.07965 59 82 139 255 
2.82955 3.47579 -1.08346 56 89 140 255 
2.7217 3.3456 -1.08812 63 71 136 255 
2.644 3.24446 -1.0941 61 78 138 255 
2.56195 3.14365 -1.1003 61 78 138 255 
2.45059 3.0092 -1.09377 62 73 137 255 
2.38024 2.92794 -1.10556 69 56 130 255 
11.2651 13.7635 5.34278 72 37 118 255 
11.3094 13.8418 5.16935 72 31 112 255 
10.8947 13.3441 4.80007 71 42 122 255 
10.7662 13.1861 4.57086 71 46 124 255 
9.07668 11.1016 3.72189 69 56 130 255 
9.16605 11.2146 3.60587 64 69 136 255 
10.5765 12.9359 3.98995 70 48 126 255 
10.7722 13.1701 3.89683 72 33 115 255 
7.69627 9.41658 2.6828 62 73 137 255 
6.91114 8.45271 2.2949 50 101 142 255 
5.98801 7.31598 1.89426 64 70 136 255 
6.02768 7.35895 1.8146 52 97 141 255 
5.95226 7.28274 1.71609 50 100 142 255 
5.9713 7.30063 1.62743 46 109 142 255 
7.17113 8.75525 1.8411 56 88 140 255 
15.1108 18.4154 3.6537 72 40 120 255 
5.84058 7.14355 1.33954 48 105 142 255 
5.81276 7.10427 1.24272 54 93 141 255 
16.0652 19.5931 3.18737 71 16 99 255 
16.8394 20.5074 3.0937 71 14 97 255 
15.6961 19.1977 2.6895 72 28 110 255 
15.8268 19.3227 2.47103 72 32 113 255 
15.8984 19.3828 2.24176 72 23 105 255 
16.1087 19.5967 2.03213 72 26 108 255 
26.9848 32.9931 3.07769 71 14 97 255 
26.8939 32.8226 2.66226 70 11 94 255 
0 0 0 68 2 86 255 
40.4176 49.1342 2.78892 69 5 89 255 
40.3065 49.2459 2.28901 70 7 90 255 
35.5861 43.4 1.48927 69 4 87 255 
34.5216 42.0276 0.930356 70 8 92 255 
0 0 0 68 2 86 255 
