ply
format ascii 1.0
comment VTK generated PLY File
obj_info vtkPolyData points and polygons: vtk4.0
element vertex 1226
property float x
property float y
property float z
property uchar red
property uchar green
property uchar blue
property uchar alpha
element face 0
property list uchar int vertex_indices
end_header
7.16986 6.80608 -0.903161 70 51 127 255 
6.6703 6.32507 -0.927242 68 58 131 255 
6.22687 5.92757 -0.936979 66 65 134 255 
5.8631 5.57332 -0.958872 62 76 138 255 
5.54164 5.25864 -0.978652 66 65 134 255 
5.24505 4.97011 -0.994954 54 92 141 255 
4.99426 4.74924 -1.00664 53 94 141 255 
4.74413 4.5065 -1.01764 55 91 141 255 
4.51472 4.28266 -1.02684 57 85 140 255 
4.30086 4.07542 -1.03622 59 82 139 255 
4.12388 3.91609 -1.04376 56 88 140 255 
3.94875 3.74703 -1.05025 59 82 139 255 
3.79683 3.60168 -1.06188 59 82 139 255 
3.63781 3.44833 -1.06817 58 84 140 255 
3.51658 3.3359 -1.07547 56 89 140 255 
3.37696 3.20221 -1.07784 56 88 140 255 
3.25837 3.08873 -1.08534 61 78 138 255 
3.13326 2.97213 -1.08958 62 74 137 255 
3.02493 2.86451 -1.08905 64 69 136 255 
2.94256 2.78639 -1.09952 66 63 133 255 
2.82603 2.67797 -1.0973 66 63 133 255 
2.73326 2.59451 -1.10415 66 63 133 255 
11.7341 11.0645 4.84478 71 47 125 255 
9.7951 9.25206 3.89667 72 23 105 255 
11.4879 10.8588 4.4047 72 36 117 255 
9.94771 9.40257 3.67541 68 59 132 255 
10.019 9.45721 3.57593 64 69 136 255 
11.5746 10.9291 3.96317 72 31 112 255 
10.5341 9.94331 3.45901 66 64 134 255 
10.629 10.029 3.34697 69 53 129 255 
7.99757 7.55175 2.42646 60 79 138 255 
7.92292 7.47844 2.28997 65 68 135 255 
7.90716 7.45588 2.17756 47 108 142 255 
7.94566 7.48668 2.08256 53 94 141 255 
7.97459 7.53005 2.00112 68 58 131 255 
8.00454 7.55284 1.89898 50 101 142 255 
8.03845 7.57437 1.79678 65 68 135 255 
8.13952 7.65596 1.7139 54 92 141 255 
8.15444 7.69719 1.62787 51 98 141 255 
9.46219 8.92512 1.76097 57 86 140 255 
11.6072 10.9256 2.00526 70 48 126 255 
11.0017 10.3409 1.76034 66 64 134 255 
11.6303 10.9781 1.73459 71 45 123 255 
11.6644 10.9908 1.58556 71 47 125 255 
11.5634 10.8806 1.41984 72 38 119 255 
11.5913 10.8837 1.2737 71 45 123 255 
11.6497 10.9926 1.15656 68 58 131 255 
11.6669 10.9893 1.00556 66 64 134 255 
11.6767 10.9756 0.853872 70 52 128 255 
11.6925 10.971 0.702846 69 55 129 255 
11.688 11.021 0.577833 69 53 129 255 
11.6968 11.0098 0.426245 71 47 125 255 
11.6687 10.9643 0.273894 71 46 124 255 
11.686 10.9573 0.125819 71 46 124 255 
11.6793 11.009 -0.00280125 71 46 124 255 
11.7013 11.0063 -0.154211 70 51 127 255 
11.694 10.9804 -0.302404 71 45 123 255 
11.6717 10.9362 -0.452357 71 45 123 255 
11.6257 10.947 -0.579956 72 40 120 255 
10.8834 10.2298 -0.680874 72 41 121 255 
10.0066 9.39269 -0.75529 70 51 127 255 
9.34012 8.74849 -0.825329 70 50 126 255 
8.41359 7.91965 -0.838382 72 40 120 255 
7.7738 7.30186 -0.873101 71 47 125 255 
7.21584 6.76605 -0.903706 69 53 129 255 
6.70753 6.28266 -0.927041 66 63 133 255 
6.27181 5.89743 -0.93828 66 63 133 255 
5.90226 5.542 -0.959696 65 68 135 255 
5.56512 5.2164 -0.977127 64 69 136 255 
5.27327 4.9358 -0.994545 57 85 140 255 
5.03196 4.72663 -1.00838 55 91 141 255 
4.77601 4.48136 -1.01856 56 88 140 255 
4.54379 4.25758 -1.02749 57 85 140 255 
4.31932 4.04289 -1.03467 58 84 140 255 
4.14998 3.89273 -1.0443 58 84 140 255 
3.98027 3.73079 -1.05252 56 88 140 255 
3.81242 3.57228 -1.0601 60 80 139 255 
3.66176 3.42861 -1.06901 58 83 139 255 
3.53343 3.31092 -1.07439 61 78 138 255 
3.39868 3.18343 -1.07852 58 83 139 255 
3.26307 3.05539 -1.08064 63 71 136 255 
3.14366 2.94556 -1.08689 63 72 137 255 
3.0368 2.8406 -1.08702 63 71 136 255 
2.9596 2.76829 -1.09952 67 62 133 255 
2.84101 2.65926 -1.09675 67 61 132 255 
2.73793 2.56719 -1.09965 67 61 132 255 
11.5726 10.7789 4.7507 71 42 122 255 
11.5683 10.7934 4.57566 72 32 113 255 
11.636 10.8644 4.43583 72 32 113 255 
9.98616 9.32356 3.66841 72 27 109 255 
10.2369 9.54473 3.63271 72 32 113 255 
10.3727 9.67447 3.53122 72 40 120 255 
10.5387 9.82609 3.44066 72 38 119 255 
10.5827 9.86328 3.31326 72 29 111 255 
10.5739 9.86239 3.18968 70 52 128 255 
7.96508 7.42635 2.28894 70 50 126 255 
7.93985 7.39519 2.17402 65 68 135 255 
7.98067 7.42775 2.07975 52 96 141 255 
7.95446 7.41924 1.98461 56 89 140 255 
8.08461 7.53516 1.90697 53 95 141 255 
8.105 7.54373 1.80128 58 83 139 255 
8.15376 7.5756 1.70708 60 79 138 255 
8.20586 7.65106 1.62873 60 80 139 255 
9.51678 8.86689 1.76097 55 90 140 255 
11.6537 10.8353 2.00176 72 29 111 255 
11.0468 10.2563 1.75744 72 29 111 255 
14.5253 13.5432 2.15393 72 27 109 255 
14.6462 13.6317 1.97946 72 35 116 255 
14.7773 13.7347 1.80408 72 33 115 255 
11.8048 10.9486 1.28975 72 36 117 255 
11.7323 10.9352 1.15808 71 46 124 255 
11.7319 10.9155 1.00537 68 58 131 255 
11.7811 10.9384 0.856586 69 55 129 255 
11.7794 10.9174 0.704028 72 41 121 255 
11.7429 10.9375 0.577221 69 55 129 255 
11.7459 10.9208 0.425581 71 47 125 255 
11.7474 10.9034 0.274167 71 47 125 255 
11.7794 10.9098 0.126102 72 38 119 255 
11.7451 10.9357 -0.0028009 70 48 126 255 
11.7408 10.9085 -0.153846 71 42 122 255 
11.7428 10.8914 -0.301933 71 46 124 255 
11.7429 10.8684 -0.452527 72 37 118 255 
11.6743 10.8584 -0.579048 71 45 123 255 
10.9562 10.1724 -0.681512 70 52 128 255 
10.0809 9.34673 -0.756554 69 53 129 255 
9.3797 8.67814 -0.824106 72 38 119 255 
8.48029 7.88485 -0.840191 72 40 120 255 
7.82503 7.26012 -0.873835 71 47 125 255 
7.26161 6.72571 -0.904252 69 55 129 255 
6.75107 6.24611 -0.927744 67 61 132 255 
6.32099 5.87101 -0.94023 63 72 137 255 
5.92596 5.49622 -0.958048 65 68 135 255 
5.60648 5.19091 -0.978779 64 69 136 255 
5.31001 4.90941 -0.995773 58 83 139 255 
5.0645 4.69903 -1.0091 51 98 141 255 
4.8056 4.45399 -1.01902 50 101 142 255 
4.56693 4.22694 -1.02684 56 88 140 255 
4.3491 4.021 -1.03588 57 85 140 255 
4.16801 3.86184 -1.04286 58 84 140 255 
4.01317 3.71564 -1.05517 53 94 141 255 
3.82132 3.53684 -1.05652 57 86 140 255 
3.69278 3.41538 -1.07192 59 81 139 255 
3.55582 3.29117 -1.07504 59 82 139 255 
3.40813 3.15325 -1.07536 59 82 139 255 
3.27319 3.02739 -1.07782 61 77 138 255 
3.15385 2.91897 -1.0842 66 64 134 255 
3.04849 2.81667 -1.085 62 73 137 255 
2.96874 2.74287 -1.09664 64 69 136 255 
2.8396 2.62544 -1.08997 67 62 133 255 
2.74095 2.5386 -1.09459 66 64 134 255 
10.1112 9.30251 4.12727 72 31 112 255 
12.1472 11.1949 4.77735 71 46 124 255 
10.1991 9.4063 3.86599 72 41 121 255 
11.7393 10.8263 4.28794 72 31 112 255 
10.2717 9.4601 3.62442 62 76 138 255 
10.4825 9.65732 3.54837 70 51 127 255 
15.6135 14.3796 5.06855 72 22 104 255 
10.4558 9.62584 3.25499 72 28 110 255 
12.6753 11.6778 3.8019 72 37 118 255 
12.8465 11.8311 3.67078 72 23 105 255 
12.0166 11.0553 3.27164 72 29 111 255 
8.06369 7.41321 2.08949 58 83 139 255 
8.03384 7.40162 1.99305 56 89 140 255 
8.38372 7.71835 1.96631 51 99 141 255 
9.57602 8.80385 2.11616 64 69 136 255 
8.2132 7.53746 1.70981 63 72 137 255 
8.21262 7.56369 1.62083 64 69 136 255 
11.6025 10.6779 2.13474 72 40 120 255 
14.6159 13.4232 2.4964 69 53 129 255 
14.7968 13.5699 2.34075 70 50 126 255 
14.5657 13.4148 2.14768 69 55 129 255 
14.6761 13.4924 1.97228 69 53 129 255 
12.1392 11.1447 1.47363 72 36 117 255 
11.9313 10.9305 1.29622 72 41 121 255 
14.4987 13.3484 1.42304 69 53 129 255 
14.5786 13.3981 1.24225 72 22 104 255 
23.8388 21.8628 1.72349 70 10 93 255 
0 0 0 68 2 86 255 
11.8444 10.8971 0.578911 72 24 106 255 
11.8443 10.8776 0.426722 72 32 113 255 
11.8731 10.8851 0.275536 72 38 119 255 
11.8882 10.8758 0.12655 72 33 115 255 
11.823 10.8736 -0.00280352 71 45 123 255 
11.834 10.8606 -0.154191 71 45 123 255 
11.8183 10.8273 -0.302159 71 45 123 255 
11.8419 10.8258 -0.453771 71 44 122 255 
11.7547 10.7994 -0.579738 70 51 127 255 
11.0295 10.1151 -0.682195 72 28 110 255 
10.1439 9.29009 -0.756994 70 50 126 255 
9.41804 8.60696 -0.822819 72 38 119 255 
8.5454 7.84819 -0.841855 71 42 122 255 
7.85547 7.19918 -0.872285 70 48 126 255 
7.31596 6.69312 -0.90589 69 56 130 255 
6.79734 6.21196 -0.928848 68 58 131 255 
6.3547 5.8301 -0.939905 66 65 134 255 
5.96323 5.46311 -0.958636 63 72 137 255 
5.63969 5.15775 -0.979033 64 70 136 255 
5.32247 4.8607 -0.992499 60 79 138 255 
5.09469 4.66921 -1.00939 53 95 141 255 
4.83138 4.42308 -1.01872 53 94 141 255 
4.58331 4.19018 -1.02472 57 86 140 255 
4.36497 3.98626 -1.03381 58 84 140 255 
4.20397 3.84748 -1.04593 57 86 140 255 
4.03227 3.68763 -1.05422 57 86 140 255 
3.86393 3.5325 -1.06228 56 89 140 255 
3.70717 3.38672 -1.07005 60 80 139 255 
3.57523 3.26863 -1.07482 58 83 139 255 
3.4454 3.14871 -1.081 58 84 140 255 
3.29171 3.00725 -1.07782 63 72 137 255 
3.17098 2.89891 -1.08396 64 69 136 255 
3.08286 2.81356 -1.09107 63 71 136 255 
2.97624 2.71614 -1.09323 65 66 135 255 
2.88053 2.63069 -1.09947 65 68 135 255 
2.75577 2.52109 -1.09431 67 61 132 255 
10.1497 9.22354 4.11979 64 69 136 255 
10.2784 9.35667 4.01974 68 59 132 255 
10.2759 9.36106 3.87324 58 83 139 255 
12.0797 11.0038 4.38752 71 17 100 255 
10.3403 9.40667 3.62819 64 69 136 255 
10.5358 9.58759 3.54644 71 47 125 255 
10.5535 9.60046 3.40675 72 37 118 255 
10.4779 9.52806 3.2436 72 33 115 255 
10.7078 9.74438 3.19377 72 33 115 255 
12.9108 11.7448 3.66851 72 28 110 255 
12.6328 11.4799 3.42016 71 47 125 255 
11.753 10.6726 3.02846 72 33 115 255 
10.9713 9.98412 2.70652 66 65 134 255 
8.44769 7.68202 1.97022 52 96 141 255 
9.58602 8.70511 2.10652 71 47 125 255 
11.7306 10.6336 2.42842 72 31 112 255 
8.27278 7.52581 1.62356 72 40 120 255 
9.89765 8.9974 1.81088 72 20 103 255 
14.7921 13.4186 2.51238 70 51 127 255 
12.0868 10.9488 1.90139 72 40 120 255 
14.8485 13.5078 2.17711 71 47 125 255 
15.1748 13.7801 2.0279 72 24 106 255 
12.0642 10.9402 1.45635 72 41 121 255 
14.585 13.198 1.5757 72 29 111 255 
14.5907 13.2686 1.42405 70 48 126 255 
23.9575 21.7479 2.03002 70 10 93 255 
14.6364 13.2588 1.05228 71 19 101 255 
51.2503 46.3438 3.02891 70 11 94 255 
51.152 46.4845 2.48614 69 4 87 255 
37.385 33.9132 1.33937 69 5 89 255 
0 0 0 69 4 87 255 
19.515 17.6344 0.206581 69 5 89 255 
11.9132 10.8224 -0.00280911 72 23 105 255 
11.9427 10.826 -0.154739 72 27 109 255 
11.9534 10.817 -0.303912 72 32 113 255 
11.9392 10.7811 -0.454958 72 33 115 255 
11.8222 10.7284 -0.579811 72 38 119 255 
11.1232 10.0761 -0.684153 72 40 120 255 
10.2044 9.23103 -0.757268 69 53 129 255 
9.44845 8.52895 -0.820888 72 36 117 255 
8.60078 7.80231 -0.842579 71 45 123 255 
7.90245 7.15352 -0.872612 69 53 129 255 
7.3628 6.65345 -0.906618 69 56 130 255 
6.82573 6.16146 -0.927543 70 52 128 255 
6.39256 5.793 -0.94023 63 71 136 255 
6.00474 5.43375 -0.959931 64 69 136 255 
5.67786 5.12903 -0.980176 63 71 136 255 
5.34852 4.82463 -0.991817 61 77 138 255 
5.12691 4.64118 -1.01011 52 97 141 255 
4.85696 4.39203 -1.01841 56 89 140 255 
4.62285 4.17454 -1.02782 53 94 141 255 
4.38642 3.95677 -1.03312 59 82 139 255 
4.24355 3.83613 -1.0499 53 94 141 255 
4.06211 3.6694 -1.05612 56 88 140 255 
3.8899 3.51267 -1.06348 57 86 140 255 
3.71553 3.35277 -1.0665 61 78 138 255 
3.58652 3.23878 -1.07222 58 83 139 255 
3.46104 3.12424 -1.07987 56 88 140 255 
3.31875 2.99481 -1.08064 59 81 139 255 
3.18943 2.88005 -1.0842 65 66 135 255 
3.09216 2.78746 -1.08829 62 73 137 255 
3.00361 2.70752 -1.09716 65 66 135 255 
2.89519 2.61167 -1.09892 66 65 134 255 
2.78329 2.51507 -1.09909 69 53 129 255 
9.35082 8.3934 3.77456 60 80 139 255 
10.3428 9.29985 4.02252 62 76 138 255 
10.3439 9.3075 3.87726 55 90 140 255 
10.4619 9.41336 3.77888 66 63 133 255 
10.4821 9.41873 3.65758 66 64 134 255 
10.5208 9.4566 3.5218 72 40 120 255 
15.7432 14.146 5.05392 71 45 123 255 
10.5978 9.51895 3.26258 72 28 110 255 
10.7935 9.702 3.20153 71 44 122 255 
16.1586 14.519 4.56595 72 37 118 255 
11.7668 10.5619 3.16811 72 27 109 255 
10.7836 9.67223 2.76331 65 68 135 255 
11.0396 9.92319 2.70831 72 40 120 255 
8.54818 7.67811 1.98264 59 81 139 255 
9.72301 8.72126 2.12483 65 66 135 255 
11.7845 10.5515 2.42615 71 47 125 255 
15.8433 14.2361 3.09211 72 29 111 255 
14.2352 12.7818 2.59008 72 35 116 255 
14.883 13.3356 2.51387 72 40 120 255 
12.1375 10.8599 1.89884 71 44 122 255 
15.133 13.5978 2.20655 71 44 122 255 
15.0013 13.4555 1.99364 72 31 112 255 
12.0866 10.8261 1.45101 70 48 126 255 
14.6419 13.087 1.57314 71 47 125 255 
14.3409 12.8816 1.39192 71 46 124 255 
14.4276 12.9363 1.21576 68 57 131 255 
14.7823 13.2267 1.05691 70 52 128 255 
15.1674 13.5471 0.891466 71 16 99 255 
51.4422 46.1751 2.48642 70 10 93 255 
37.4011 33.5118 1.33255 70 8 92 255 
27.9374 24.9888 0.641172 70 8 92 255 
14.0753 12.5629 0.14818 71 17 100 255 
19.6054 17.5919 -0.00459737 70 7 90 255 
13.7022 12.2687 -0.176557 72 20 103 255 
13.6566 12.2066 -0.345303 72 37 118 255 
14.2267 12.6891 -0.539148 71 16 99 255 
11.9444 10.7064 -0.582569 71 46 124 255 
11.1714 9.99564 -0.683333 71 44 122 255 
10.2758 9.18154 -0.758367 69 56 130 255 
9.50657 8.47612 -0.821403 72 33 115 255 
8.64627 7.74739 -0.842362 71 47 125 255 
7.94843 7.10689 -0.872856 71 46 124 255 
7.37377 6.58162 -0.902979 69 55 129 255 
6.85301 6.1102 -0.926138 69 56 130 255 
6.41465 5.74173 -0.93828 66 64 134 255 
6.02983 5.38952 -0.958636 62 74 137 255 
5.7181 5.10202 -0.981701 64 69 136 255 
5.38246 4.79568 -0.992635 62 73 137 255 
5.14939 4.60436 -1.00896 50 102 142 255 
4.88971 4.36741 -1.01964 56 89 140 255 
4.64764 4.14544 -1.02765 56 88 140 255 
4.43047 3.94747 -1.03777 60 80 139 255 
4.25086 3.79561 -1.04593 55 91 141 255 
4.06257 3.6248 -1.05043 57 86 140 255 
3.88797 3.46786 -1.05711 58 83 139 255 
3.73385 3.32796 -1.06588 57 86 140 255 
3.58812 3.20047 -1.0668 57 86 140 255 
3.46705 3.09128 -1.07581 59 82 139 255 
3.34868 2.98474 -1.0844 61 77 138 255 
3.19691 2.85139 -1.08078 64 69 136 255 
3.12077 2.77873 -1.09233 62 74 137 255 
3.01079 2.6807 -1.09376 65 66 135 255 
2.90685 2.59002 -1.0973 66 63 133 255 
2.80655 2.50497 -1.10218 68 58 131 255 
10.0364 8.89816 4.02917 72 29 111 255 
10.3041 9.15137 3.98557 67 61 132 255 
12.2037 10.8462 4.54937 72 36 117 255 
10.4783 9.31242 3.7641 62 73 137 255 
10.3703 9.20389 3.59879 66 63 133 255 
10.6396 9.44599 3.54209 69 53 129 255 
15.6885 13.9238 5.00886 71 42 122 255 
16.3764 14.5287 5.01397 72 20 103 255 
11.6335 10.3287 3.43181 70 51 127 255 
11.6809 10.3668 3.28264 72 40 120 255 
11.8042 10.4654 3.16084 67 62 133 255 
10.8427 9.60589 2.76331 72 40 120 255 
11.0444 9.80563 2.69467 67 61 132 255 
8.61946 7.64709 1.98825 66 63 133 255 
9.78743 8.67126 2.12724 56 89 140 255 
11.9868 10.6008 2.45435 72 41 121 255 
11.576 10.274 2.24693 60 79 138 255 
15.7457 13.9645 2.84927 72 36 117 255 
11.8358 10.475 1.98828 71 42 122 255 
12.151 10.7385 1.89062 69 53 129 255 
15.26 13.5436 2.21291 71 44 122 255 
12.227 10.8324 1.61608 70 52 128 255 
15.0674 13.3303 1.799 71 46 124 255 
14.9596 13.2067 1.59854 71 47 125 255 
14.5689 12.9257 1.40633 71 42 122 255 
14.5201 12.8595 1.21689 70 51 127 255 
14.9073 13.1748 1.06005 72 33 115 255 
0 0 0 68 1 84 255 
52.5524 46.5925 2.52622 69 5 89 255 
0 0 0 68 2 86 255 
27.29 24.1099 0.622906 71 13 96 255 
13.9031 12.2568 0.145572 70 11 94 255 
14.1234 12.5173 -0.00329379 71 17 100 255 
13.787 12.193 -0.176682 72 28 110 255 
17.9982 15.8897 -0.452608 71 14 97 255 
12.0706 10.6338 -0.454958 71 14 97 255 
12.1139 10.725 -0.587614 69 56 130 255 
11.2138 9.91037 -0.682195 71 42 122 255 
10.3469 9.13153 -0.759466 70 50 126 255 
9.59809 8.45259 -0.824814 72 37 118 255 
8.69439 7.69485 -0.842434 70 51 127 255 
8.00085 7.0659 -0.873835 70 50 126 255 
7.41178 6.53428 -0.902706 70 50 126 255 
6.90456 6.08053 -0.928045 68 58 131 255 
6.44231 5.69568 -0.937196 65 66 135 255 
6.06129 5.35111 -0.958401 64 70 136 255 
5.74558 5.06356 -0.981066 64 69 136 255 
5.41402 4.76452 -0.993044 60 79 138 255 
5.16642 4.56285 -1.00679 50 100 142 255 
4.91123 4.33275 -1.01856 56 88 140 255 
4.67817 4.12141 -1.02879 56 89 140 255 
4.45757 3.92281 -1.03846 59 82 139 255 
4.25858 3.75579 -1.04214 57 85 140 255 
4.07147 3.58812 -1.04702 55 91 141 255 
3.91947 3.45301 -1.0599 57 85 140 255 
3.75713 3.30757 -1.06671 61 78 138 255 
3.60842 3.17903 -1.06702 59 82 139 255 
3.48303 3.06737 -1.07491 57 85 140 255 
3.36474 2.96221 -1.08369 63 71 136 255 
3.23908 2.85351 -1.0891 64 70 136 255 
3.13558 2.75762 -1.09158 61 78 138 255 
3.04095 2.67429 -1.09873 64 70 136 255 
2.9328 2.58104 -1.10109 63 71 136 255 
2.82186 2.4877 -1.10218 67 61 132 255 
10.2039 8.93547 4.07433 72 40 120 255 
10.3753 9.10128 3.99141 67 62 133 255 
10.4653 9.18685 3.88021 71 46 124 255 
10.491 9.20909 3.74828 69 55 129 255 
10.4113 9.12669 3.59352 69 56 130 255 
15.8885 13.9326 5.26096 72 35 116 255 
10.6669 9.35072 3.38724 64 69 136 255 
21.6909 19.007 6.6053 70 7 90 255 
11.7084 10.2674 3.43526 64 69 136 255 
11.7274 10.2801 3.2779 65 66 135 255 
11.7177 10.261 3.12076 64 69 136 255 
11.8337 10.3549 2.9996 71 44 122 255 
11.8403 10.383 2.87326 69 55 129 255 
8.69883 7.62264 1.99573 71 44 122 255 
9.8917 8.65589 2.13831 67 62 133 255 
9.84213 8.59708 2.00438 61 77 138 255 
11.6515 10.2139 2.24937 68 58 131 255 
11.7716 10.3116 2.11864 72 28 110 255 
11.6668 10.1984 1.94934 62 76 138 255 
12.3387 10.7702 1.90949 72 32 113 255 
12.3091 10.7903 1.77535 69 56 130 255 
12.2812 10.7467 1.6145 72 24 106 255 
15.0814 13.1786 1.79098 70 51 127 255 
14.9359 13.0236 1.58744 69 53 129 255 
14.6562 12.8433 1.40712 72 41 121 255 
14.8113 12.9561 1.23461 72 20 103 255 
15.2414 13.3044 1.07798 71 16 99 255 
0 0 0 69 4 87 255 
0 0 0 68 1 84 255 
37.811 33.0516 1.33261 69 4 87 255 
26.6961 23.2951 0.606076 71 13 96 255 
13.9841 12.1765 0.145635 71 14 97 255 
17.163 15.0242 -0.0039811 72 28 110 255 
13.869 12.1148 -0.176778 71 19 101 255 
17.3901 15.1639 -0.434965 72 37 118 255 
15.1045 13.1428 -0.566259 72 23 105 255 
12.3133 10.7675 -0.594074 71 47 125 255 
11.3354 9.89459 -0.685883 72 40 120 255 
10.3937 9.06 -0.758807 70 48 126 255 
9.63396 8.37978 -0.823462 72 40 120 255 
8.73769 7.63808 -0.842072 71 45 123 255 
8.03129 7.00554 -0.872448 71 47 125 255 
7.44197 6.48018 -0.901523 70 48 126 255 
6.97777 6.06939 -0.932862 69 56 130 255 
6.47115 5.65081 -0.936329 64 69 136 255 
6.11796 5.3347 -0.962167 63 72 137 255 
5.78028 5.03147 -0.981701 62 73 137 255 
5.44464 4.73251 -0.993317 56 89 140 255 
5.17792 4.51675 -1.00361 53 95 141 255 
4.92655 4.2928 -1.01626 58 83 139 255 
4.69891 4.08874 -1.02782 55 90 140 255 
4.48081 3.89474 -1.03829 56 88 140 255 
4.28081 3.72894 -1.04196 55 91 141 255 
4.10082 3.56951 -1.04892 55 90 140 255 
3.94133 3.42954 -1.0601 58 83 139 255 
3.78326 3.28959 -1.06838 61 78 138 255 
3.63375 3.16196 -1.06875 59 82 139 255 
3.50179 3.04594 -1.07491 60 80 139 255 
3.37772 2.93704 -1.08205 61 77 138 255 
3.2558 2.83295 -1.08885 63 71 136 255 
3.15098 2.73705 -1.09107 63 72 137 255 
3.02015 2.6233 -1.08538 66 64 134 255 
2.95149 2.56552 -1.10218 65 66 135 255 
2.83563 2.46908 -1.10162 67 61 132 255 
10.2665 8.87958 4.0775 63 72 137 255 
10.5115 9.10727 4.02224 70 48 126 255 
10.3788 8.99878 3.8276 71 46 124 255 
10.5415 9.13948 3.74621 71 45 123 255 
16.1924 14.0197 5.5591 71 16 99 255 
15.9641 13.8266 5.25782 72 31 112 255 
10.7315 9.29146 3.38956 67 62 133 255 
11.5466 9.99334 3.49744 70 7 90 255 
9.46522 8.19809 2.76229 71 16 99 255 
11.8109 10.2259 3.28366 70 51 127 255 
11.7308 10.146 3.1076 72 33 115 255 
11.7855 10.1857 2.97149 72 40 120 255 
11.6294 10.0725 2.80703 71 42 122 255 
11.705 10.1306 2.67112 68 59 132 255 
12.1095 10.4661 2.60381 71 47 125 255 
9.91341 8.55267 2.00817 70 50 126 255 
11.7095 10.1383 2.24851 66 63 133 255 
11.6802 10.1056 2.091 66 64 134 255 
11.7246 10.1228 1.94859 65 66 135 255 
11.8937 10.2539 1.83086 72 41 121 255 
12.584 10.8955 1.80533 71 47 125 255 
15.4196 13.3267 2.01628 72 38 119 255 
15.1695 13.0923 1.79187 72 41 121 255 
14.9808 12.9017 1.58376 72 35 116 255 
14.7513 12.7675 1.40871 72 38 119 255 
15.9116 13.7471 1.31926 72 24 106 255 
49.4184 42.6064 3.47668 69 4 87 255 
0 0 0 68 2 86 255 
38.3417 33.162 1.8234 70 7 90 255 
37.7823 32.6197 1.32452 69 5 89 255 
25.9751 22.3867 0.586578 70 8 92 255 
14.145 12.1648 0.14653 70 8 92 255 
17.2549 14.9186 -0.0039811 72 29 111 255 
13.7872 11.8949 -0.174801 71 14 97 255 
13.8282 11.9095 -0.344041 72 24 106 255 
13.8817 11.9299 -0.517662 72 27 109 255 
12.4677 10.7682 -0.598321 72 40 120 255 
11.4125 9.8392 -0.686885 72 37 118 255 
10.4559 9.00192 -0.759302 70 50 126 255 
9.69503 8.32897 -0.824299 71 45 123 255 
8.79345 7.59214 -0.842941 71 47 125 255 
8.08167 6.96263 -0.873264 71 46 124 255 
7.48536 6.43764 -0.901978 71 45 123 255 
7.00583 6.01868 -0.931658 69 55 129 255 
6.51248 5.61684 -0.937304 65 68 135 255 
6.1423 5.28993 -0.960873 59 81 139 255 
5.80127 4.9875 -0.980049 62 74 137 255 
5.47358 4.69902 -0.993317 56 89 140 255 
5.20179 4.48167 -1.00289 57 86 140 255 
4.94681 4.25733 -1.01503 57 86 140 255 
4.71268 4.05019 -1.02537 56 89 140 255 
4.49266 3.85691 -1.03553 60 80 139 255 
4.30808 3.70645 -1.04304 55 90 140 255 
4.12786 3.54876 -1.05025 56 88 140 255 
3.95561 3.39954 -1.05831 59 81 139 255 
3.79447 3.25866 -1.06588 61 77 138 255 
3.66715 3.1517 -1.07287 58 84 140 255 
3.52041 3.0244 -1.07491 61 77 138 255 
3.38683 2.90866 -1.07923 62 74 137 255 
3.28783 2.82556 -1.09374 62 74 137 255 
3.19268 2.73909 -1.09967 58 83 139 255 
3.05669 2.62231 -1.09271 68 59 132 255 
2.96571 2.54611 -1.10164 66 64 134 255 
2.85582 2.45602 -1.10359 66 63 133 255 
10.3201 8.8158 4.07721 63 71 136 255 
10.4292 8.92456 3.96974 72 41 121 255 
12.691 10.8679 4.65567 72 32 113 255 
12.9742 11.1099 4.58642 72 38 119 255 
13.4989 11.5435 4.60997 72 26 108 255 
15.9366 13.6325 5.2211 72 41 121 255 
15.9821 13.6668 5.0214 72 36 117 255 
13.5913 11.6178 4.09508 72 28 110 255 
11.7682 10.0671 3.4163 67 62 133 255 
11.6868 9.99359 3.23204 71 45 123 255 
12.0575 10.2999 3.17734 72 31 112 255 
12.033 10.2714 3.01796 66 63 133 255 
13.9135 11.9022 3.34065 72 24 106 255 
11.6554 9.96322 2.64578 71 45 123 255 
11.6029 9.90457 2.48177 72 32 113 255 
12.4838 10.6374 2.5156 72 35 116 255 
11.9046 10.1801 2.27394 72 37 118 255 
12.457 10.6447 2.21832 69 55 129 255 
12.2101 10.4118 2.01861 72 36 117 255 
15.5358 13.2286 2.37896 68 59 132 255 
15.6374 13.3722 2.23156 72 37 118 255 
15.0363 12.8352 1.95583 72 41 121 255 
15.0532 12.8317 1.7688 70 50 126 255 
16.0984 13.6931 1.693 72 20 103 255 
14.8475 12.6923 1.41043 72 26 108 255 
15.2122 12.9807 1.25464 70 50 126 255 
16.1235 13.7294 1.12837 72 31 112 255 
15.3133 13.0161 0.880999 71 14 97 255 
0 0 0 68 2 86 255 
37.9019 32.3192 1.32173 69 5 89 255 
36.6098 31.1628 0.8224 69 4 87 255 
12.1814 10.3467 0.125529 72 32 113 255 
17.7567 15.1631 -0.00407534 72 24 106 255 
22.5396 19.2061 -0.28427 71 13 96 255 
18.8802 16.0597 -0.467272 71 17 100 255 
15.1382 12.8491 -0.561567 72 24 106 255 
12.1952 10.4029 -0.58217 72 40 120 255 
11.478 9.77352 -0.687204 71 46 124 255 
10.536 8.95894 -0.761115 68 57 131 255 
9.74368 8.26739 -0.824106 71 45 123 255 
8.83607 7.53481 -0.842579 71 47 125 255 
8.125 6.91356 -0.873346 70 52 128 255 
7.52093 6.38836 -0.901523 71 47 125 255 
7.032 5.96657 -0.930253 70 51 127 255 
6.53774 5.56904 -0.936004 67 61 132 255 
6.15649 5.2367 -0.958048 64 69 136 255 
5.82193 4.94347 -0.978397 64 70 136 255 
5.49173 4.65637 -0.991408 57 86 140 255 
5.22391 4.44518 -1.00187 53 95 141 255 
4.96982 4.22434 -1.01441 60 80 139 255 
4.71864 4.00523 -1.0213 60 80 139 255 
4.52451 3.83628 -1.03743 58 84 140 255 
4.30826 3.66084 -1.03762 58 84 140 255 
4.1533 3.52655 -1.05119 56 88 140 255 
3.98909 3.38598 -1.06169 56 88 140 255 
3.83006 3.24861 -1.07026 59 81 139 255 
3.67451 3.11903 -1.0694 58 83 139 255 
3.5389 3.00274 -1.07491 59 81 139 255 
3.41128 2.89349 -1.08134 61 78 138 255 
3.3051 2.80533 -1.09374 61 77 138 255 
3.18655 2.70006 -1.09183 62 74 137 255 
3.06536 2.59727 -1.09009 66 65 134 255 
2.97394 2.52164 -1.09892 65 68 135 255 
2.86718 2.43534 -1.10218 67 62 133 255 
10.259 8.65535 4.03204 68 58 131 255 
10.4787 8.85605 3.96779 67 62 133 255 
12.4486 10.5286 4.54293 72 40 120 255 
10.4611 8.84728 3.67878 68 59 132 255 
11.0744 9.3532 3.76234 72 37 118 255 
13.6605 11.5411 4.45214 72 35 116 255 
16.108 13.6043 5.03464 72 35 116 255 
11.7861 9.95024 3.53271 71 46 124 255 
11.8141 9.98144 3.41178 69 55 129 255 
11.7082 9.88823 3.22113 70 51 127 255 
12.1115 10.2181 3.17498 71 44 122 255 
12.0621 10.1688 3.00953 70 51 127 255 
12.2549 10.3538 2.92711 66 63 133 255 
12.4022 10.4706 2.80069 71 16 99 255 
11.8808 10.0164 2.52802 72 32 113 255 
11.785 9.91775 2.36247 71 42 122 255 
12.5929 10.6356 2.39289 72 37 118 255 
12.5243 10.57 2.21872 68 58 131 255 
15.5438 13.0907 2.55644 72 40 120 255 
15.5939 13.1138 2.37549 72 35 116 255 
15.565 13.1458 2.20968 72 35 116 255 
12.7144 10.719 1.64522 72 31 112 255 
15.2848 12.868 1.78671 72 36 117 255 
15.3074 12.8593 1.60149 72 24 106 255 
14.8878 12.5694 1.4069 72 29 111 255 
15.377 12.9591 1.26166 72 23 105 255 
15.4684 13.0087 1.07692 72 40 120 255 
15.3393 12.877 0.877933 72 31 112 255 
55.3787 46.722 2.60616 69 4 87 255 
37.945 31.9559 1.31637 70 10 93 255 
0 0 0 68 2 86 255 
12.0669 10.1227 0.123707 72 23 105 255 
12.2202 10.3063 -0.00279008 72 37 118 255 
17.3872 14.6325 -0.218151 72 20 103 255 
18.7701 15.7686 -0.462145 71 17 100 255 
15.291 12.8182 -0.564309 71 13 96 255 
12.7105 10.7084 -0.60362 72 29 111 255 
11.5714 9.7312 -0.689208 70 50 126 255 
10.5656 8.87293 -0.759302 69 53 129 255 
9.76515 8.18309 -0.82166 71 42 122 255 
8.88061 7.47917 -0.842434 71 44 122 255 
8.19321 6.88537 -0.87612 70 52 128 255 
7.55541 6.33825 -0.900977 71 46 124 255 
7.0395 5.89902 -0.926439 71 46 124 255 
6.57407 5.53074 -0.936329 66 63 133 255 
6.19079 5.20075 -0.958401 64 69 136 255 
5.84151 4.89873 -0.976619 65 66 135 255 
5.52779 4.62895 -0.992772 55 90 140 255 
5.25563 4.41686 -1.00274 47 108 142 255 
4.99338 4.19186 -1.01395 59 81 139 255 
4.73632 3.9705 -1.01984 57 86 140 255 
4.55325 3.81287 -1.03863 56 88 140 255 
4.34947 3.65015 -1.04214 58 83 139 255 
4.16884 3.49595 -1.04968 57 86 140 255 
4.00754 3.35956 -1.06109 57 86 140 255 
3.83942 3.21625 -1.06734 61 78 138 255 
3.69283 3.09579 -1.06919 62 73 137 255 
3.56025 2.98347 -1.07581 59 82 139 255 
3.42897 2.8725 -1.08134 62 73 137 255 
3.29327 2.7607 -1.0842 63 72 137 255 
3.19044 2.6699 -1.08753 65 68 135 255 
3.09975 2.5939 -1.09664 65 68 135 255 
2.98345 2.4984 -1.09675 68 57 131 255 
2.88501 2.42017 -1.10331 68 59 132 255 
10.281 8.56649 4.01996 68 59 132 255 
10.2858 8.58537 3.87472 62 73 137 255 
12.8323 10.7188 4.65889 72 24 106 255 
10.5011 8.77116 3.67385 70 52 128 255 
11.2126 9.35265 3.78973 68 59 132 255 
11.4101 9.52051 3.6996 71 42 122 255 
13.7315 11.4536 4.26982 72 24 106 255 
11.6642 9.72543 3.47824 71 14 97 255 
11.9149 9.94192 3.42319 69 53 129 255 
11.7138 9.77044 3.20612 60 80 139 255 
20.8157 17.3441 5.42877 71 14 97 255 
12.1001 10.0745 3.00354 72 28 110 255 
21.0922 17.5996 5.01205 72 20 103 255 
11.608 9.67871 2.60787 68 58 131 255 
12.4647 10.3785 2.63865 72 20 103 255 
11.8449 9.84462 2.36232 71 44 122 255 
12.6176 10.5246 2.38528 67 62 133 255 
12.9056 10.7569 2.27453 65 68 135 255 
15.5705 12.9507 2.5477 67 61 132 255 
12.6826 10.5334 1.92211 72 37 118 255 
15.4117 12.8552 2.17668 72 38 119 255 
15.5032 12.9082 1.99581 71 42 122 255 
15.3957 12.8007 1.79045 72 36 117 255 
15.3983 12.7753 1.60277 71 42 122 255 
14.9424 12.4593 1.40482 71 13 96 255 
21.7579 18.1095 1.77605 70 7 90 255 
15.637 12.9876 1.08309 72 40 120 255 
51.6409 42.8138 2.94053 69 4 87 255 
0 0 0 68 1 84 255 
40.2516 33.4785 1.38924 70 7 90 255 
29.3845 24.397 0.653315 70 11 94 255 
12.0449 9.9789 0.122851 72 29 111 255 
12.1357 10.1082 -0.00275657 72 23 105 255 
12.2673 10.1959 -0.153126 72 24 106 255 
12.4399 10.3212 -0.304723 72 37 118 255 
12.4882 10.3388 -0.45852 72 26 108 255 
12.9457 10.7715 -0.611641 72 35 116 255 
11.6509 9.67661 -0.690392 71 45 123 255 
10.6121 8.80156 -0.758752 69 55 129 255 
9.81979 8.12683 -0.822047 71 44 122 255 
8.92327 7.42198 -0.842145 71 47 125 255 
8.20309 6.80824 -0.872693 71 45 123 255 
7.60106 6.29749 -0.901796 70 50 126 255 
7.07327 5.85382 -0.926138 71 46 124 255 
6.61476 5.49602 -0.937304 69 55 129 255 
6.2287 5.16773 -0.959342 66 65 134 255 
5.86382 4.85647 -0.975348 67 62 133 255 
5.56296 4.60063 -0.993999 54 92 141 255 
5.27883 4.38137 -1.00202 56 89 140 255 
5.0076 4.15168 -1.01165 59 81 139 255 
4.75984 3.94073 -1.01968 59 81 139 255 
4.56669 3.7767 -1.03639 62 74 137 255 
4.37709 3.62778 -1.0434 57 85 140 255 
4.17735 3.45966 -1.04646 57 86 140 255 
4.0243 3.33178 -1.0601 59 82 139 255 
3.85758 3.19139 -1.06692 59 82 139 255 
3.71251 3.0737 -1.0694 61 78 138 255 
3.59049 2.97151 -1.07942 60 79 138 255 
3.45252 2.85636 -1.08322 62 74 137 255 
3.29671 2.72931 -1.0798 65 66 135 255 
3.21646 2.65829 -1.09082 65 68 135 255 
3.12602 2.58344 -1.1003 64 70 136 255 
3.00614 2.48618 -1.09947 65 66 135 255 
2.89019 2.39446 -1.09965 69 56 130 255 
10.3379 8.5069 4.02169 68 57 131 255 
10.3612 8.54104 3.88334 72 40 120 255 
11.7862 9.72277 4.25734 70 50 126 255 
11.8682 9.79004 4.13104 72 40 120 255 
11.5111 9.48246 3.87087 70 48 126 255 
11.5125 9.48673 3.71386 64 69 136 255 
13.8564 11.4143 4.28677 72 40 120 255 
16.3944 13.4997 4.86395 72 32 113 255 
21.1938 17.4649 6.05818 71 14 97 255 
11.8166 9.73385 3.21784 63 71 136 255 
12.429 10.2276 3.22508 72 20 103 255 
12.9826 10.6751 3.20628 72 32 113 255 
11.6499 9.60018 2.75426 72 36 117 255 
12.5595 10.3421 2.80732 70 48 126 255 
11.8367 9.7332 2.49301 71 42 122 255 
12.6913 10.4171 2.51832 68 57 131 255 
15.9786 13.1627 3.00534 72 36 117 255 
15.855 13.0511 2.78018 72 33 115 255 
12.7447 10.4687 2.07478 72 28 110 255 
12.7339 10.4446 1.92015 72 28 110 255 
15.4788 12.7509 2.17506 72 35 116 255 
15.7435 12.9456 2.01648 71 45 123 255 
15.7964 12.9708 1.82777 69 55 129 255 
15.5142 12.7115 1.60668 72 27 109 255 
21.3406 17.5734 1.99617 69 5 89 255 
30.7783 25.2993 2.49964 70 10 93 255 
0 0 0 68 2 86 255 
0 0 0 68 2 86 255 
0 0 0 68 2 86 255 
0 0 0 68 2 86 255 
29.597 24.2682 0.654718 71 13 96 255 
13.8139 11.3023 0.140184 71 19 101 255 
12.1125 9.96369 -0.00273737 72 27 109 255 
12.189 10.0049 -0.151379 71 42 122 255 
13.9686 11.4455 -0.340441 71 17 100 255 
12.6814 10.3683 -0.46327 72 27 109 255 
12.1908 10.0174 -0.57306 70 52 128 255 
11.7193 9.61255 -0.690938 70 50 126 255 
10.6744 8.74324 -0.759357 69 56 130 255 
9.90038 8.09169 -0.824621 71 45 123 255 
8.98406 7.37975 -0.843592 71 47 125 255 
8.25782 6.76852 -0.87408 70 51 127 255 
7.65728 6.26524 -0.903888 70 48 126 255 
7.10597 5.80779 -0.925736 70 48 126 255 
6.64836 5.45533 -0.937304 67 62 133 255 
6.25799 5.12753 -0.958989 63 71 136 255 
5.90887 4.83295 -0.977889 66 64 134 255 
5.59109 4.56641 -0.993999 56 88 140 255 
5.2972 4.342 -1.00043 55 91 141 255 
5.04139 4.12776 -1.01334 58 83 139 255 
4.7992 3.92395 -1.02293 60 79 138 255 
4.58444 3.74425 -1.03519 61 77 138 255 
4.40003 3.60148 -1.04358 60 80 139 255 
4.17646 3.41593 -1.04096 59 81 139 255 
4.05378 3.31447 -1.06248 59 82 139 255 
3.868 3.16023 -1.06442 59 81 139 255 
3.74793 3.06446 -1.07417 62 73 137 255 
3.61168 2.95189 -1.08032 60 80 139 255 
3.47676 2.84066 -1.08534 61 77 138 255 
3.32991 2.72254 -1.08518 64 70 136 255 
3.23796 2.64278 -1.09259 65 66 135 255 
3.12237 2.54834 -1.0935 67 62 133 255 
3.03476 2.47864 -1.10435 66 65 134 255 
2.91597 2.3858 -1.10387 68 58 131 255 
11.5731 9.40487 4.4797 66 64 134 255 
11.6903 9.51681 4.35952 72 40 120 255 
11.2989 9.2049 4.06086 72 32 113 255 
11.6615 9.49988 4.03872 66 64 134 255 
11.4647 9.32675 3.83595 67 62 133 255 
11.8663 9.65662 3.8088 71 46 124 255 
13.9163 11.3211 4.28375 72 37 118 255 
14.1619 11.5163 4.18058 72 28 110 255 
13.2478 10.7812 3.76786 72 32 113 255 
13.5629 11.0334 3.67489 72 40 120 255 
12.6833 10.307 3.27459 68 59 132 255 
12.7688 10.3686 3.1377 67 62 133 255 
11.6742 9.50057 2.74618 69 53 129 255 
11.6876 9.50445 2.59936 62 73 137 255 
11.8801 9.64733 2.48964 61 77 138 255 
12.7596 10.3427 2.51923 63 72 137 255 
15.8726 12.9126 2.97042 69 55 129 255 
15.9048 12.9292 2.77495 72 35 116 255 
15.7382 12.7667 2.54932 72 27 109 255 
15.8635 12.8496 2.38012 72 31 112 255 
15.8537 12.8972 2.21658 72 35 116 255 
15.8041 12.8337 2.01412 67 61 132 255 
15.9384 12.9245 1.83498 72 36 117 255 
16.3544 13.2331 1.68525 72 40 120 255 
21.2739 17.3006 1.97997 72 27 109 255 
29.8481 24.2294 2.41198 70 8 92 255 
52.3999 42.4458 3.5931 69 4 87 255 
52.4141 42.3803 2.95472 69 5 89 255 
52.1205 42.3556 2.41572 69 4 87 255 
52.1726 42.3212 1.78262 69 4 87 255 
29.7943 24.1258 0.655795 70 10 93 255 
13.8892 11.2224 0.140247 72 40 120 255 
12.9659 10.533 -0.00291557 72 20 103 255 
12.9019 10.4582 -0.159433 71 14 97 255 
12.3177 9.96712 -0.29871 72 26 108 255 
12.2991 9.93049 -0.447071 71 19 101 255 
12.7254 10.3265 -0.5952 70 48 126 255 
11.7874 9.548 -0.691485 70 51 127 255 
10.7349 8.68323 -0.759851 69 53 129 255 
9.97314 8.04959 -0.826552 70 51 127 255 
9.02684 7.3226 -0.843375 70 50 126 255 
8.31546 6.73089 -0.875794 69 53 129 255 
7.71495 6.23379 -0.906163 70 50 126 255 
7.13141 5.75595 -0.924432 71 44 122 255 
6.67475 5.4088 -0.936329 68 59 132 255 
6.27775 5.07967 -0.957224 63 72 137 255 
5.94613 4.80284 -0.97916 65 68 135 255 
5.62594 4.53761 -0.995227 54 92 141 255 
5.31836 4.30505 -0.999417 53 95 141 255 
5.0743 4.10296 -1.01487 58 83 139 255 
4.82319 3.89442 -1.02293 61 78 138 255 
4.60196 3.71172 -1.03398 63 71 136 255 
4.41975 3.57256 -1.04304 62 76 138 255 
4.22026 3.40875 -1.04665 65 66 135 255 
4.07404 3.28953 -1.06248 59 81 139 255 
3.89036 3.13889 -1.06525 61 77 138 255 
3.76818 3.04263 -1.0746 62 74 137 255 
3.62972 2.92967 -1.08032 59 82 139 255 
3.4911 2.81683 -1.0844 61 77 138 255 
3.35711 2.71058 -1.08861 64 70 136 255 
3.24131 2.61254 -1.08829 65 68 135 255 
3.12067 2.5152 -1.08747 66 65 134 255 
3.04766 2.45816 -1.10354 65 66 135 255 
2.95295 2.38596 -1.11231 69 56 130 255 
11.6635 9.36006 4.49235 66 63 133 255 
11.482 9.23062 4.26061 70 50 126 255 
11.4228 9.18974 4.08502 69 55 129 255 
11.4283 9.19387 3.93837 69 55 129 255 
11.5429 9.2732 3.84299 72 27 109 255 
12.0282 9.6663 3.84166 70 51 127 255 
13.9772 11.2288 4.2812 72 35 116 255 
14.1882 11.3938 4.16763 72 20 103 255 
13.284 10.6758 3.75946 72 33 115 255 
13.3504 10.725 3.5994 67 62 133 255 
12.7463 10.2289 3.27459 68 59 132 255 
12.8643 10.3159 3.14557 71 46 124 255 
14.226 11.4328 3.32988 72 28 110 255 
11.8994 9.55596 2.63337 68 59 132 255 
11.8428 9.49706 2.46957 69 55 129 255 
12.8945 10.3217 2.53333 71 46 124 255 
12.9288 10.3866 2.40754 69 56 130 255 
12.8294 10.2991 2.22731 72 32 113 255 
12.8915 10.327 2.0779 72 36 117 255 
16.1732 12.9369 2.41463 71 46 124 255 
15.924 12.7929 2.21539 71 45 123 255 
15.9276 12.7726 2.01983 69 55 129 255 
16.2747 13.0325 1.86446 72 24 106 255 
16.0599 12.8325 1.64677 72 41 121 255 
15.9383 12.7998 1.47604 72 33 115 255 
30.0243 24.0683 2.41424 70 7 90 255 
30.3448 24.2735 2.07051 69 5 89 255 
52.8707 42.2157 2.9658 69 4 87 255 
0 0 0 68 1 84 255 
0 0 0 68 2 86 255 
0 0 0 68 2 86 255 
14.0297 11.1943 0.14097 72 33 115 255 
13.978 11.2135 -0.00312763 72 35 116 255 
14.2937 11.4418 -0.175761 70 8 92 255 
14.2626 11.3968 -0.344173 72 28 110 255 
14.4732 11.5399 -0.523514 72 29 111 255 
13.2283 10.6007 -0.61567 72 27 109 255 
11.8933 9.51356 -0.694262 71 45 123 255 
10.7973 8.62468 -0.760511 70 51 127 255 
10.0223 7.98825 -0.826552 69 55 129 255 
9.10741 7.29576 -0.846704 70 48 126 255 
8.36283 6.68472 -0.876446 69 53 129 255 
7.75772 6.19006 -0.906709 70 50 126 255 
7.18682 5.72821 -0.927041 70 52 128 255 
6.70394 5.36464 -0.935788 66 65 134 255 
6.32276 5.05221 -0.959342 65 66 135 255 
5.97626 4.76688 -0.979287 65 68 135 255 
5.65058 4.50054 -0.994681 56 88 140 255 
5.3439 4.27172 -0.999273 57 86 140 255 
5.1017 4.0736 -1.01534 59 81 139 255 
4.83234 3.85307 -1.01984 57 85 140 255 
4.62542 3.68402 -1.03415 62 74 137 255 
4.43313 3.53862 -1.04105 58 84 140 255 
4.25568 3.39442 -1.05025 61 78 138 255 
4.09644 3.2663 -1.06308 57 85 140 255 
3.91643 3.12045 -1.06713 63 71 136 255 
3.77456 3.00971 -1.07114 60 80 139 255 
3.64687 2.90674 -1.0801 58 83 139 255 
3.48931 2.78021 -1.07852 62 76 138 255 
3.3752 2.69114 -1.0891 66 64 134 255 
3.24668 2.58417 -1.08475 62 76 138 255 
3.16247 2.51704 -1.09664 63 71 136 255 
3.04236 2.42323 -1.09621 63 71 136 255 
2.95553 2.35822 -1.10781 68 58 131 255 
11.2673 8.92904 4.31859 62 73 137 255 
11.6904 9.28065 4.31673 67 62 133 255 
11.4706 9.11289 4.08206 72 35 116 255 
11.79 9.36628 4.04313 72 29 111 255 
11.9082 9.44703 3.94523 67 62 133 255 
13.7922 10.9453 4.38353 72 35 116 255 
17.4573 13.8491 5.32101 72 20 103 255 
16.86 13.37 4.92825 72 36 117 255 
13.3562 10.5996 3.7614 72 32 113 255 
12.9368 10.2628 3.47084 72 23 105 255 
13.0701 10.3576 3.34138 72 36 117 255 
12.8342 10.163 3.1229 72 35 116 255 
12.109 9.60977 2.82049 70 51 127 255 
12.0319 9.54155 2.64969 64 70 136 255 
12.078 9.56454 2.50634 62 73 137 255 
12.9747 10.2559 2.53667 69 53 129 255 
12.9853 10.3015 2.40625 65 68 135 255 
17.019 13.4915 2.94023 72 24 106 255 
16.4431 13.0072 2.63744 72 35 116 255 
16.3512 12.9156 2.42934 72 41 121 255 
16.1377 12.8024 2.23415 71 45 123 255 
15.8309 12.5362 1.99778 70 52 128 255 
15.8669 12.5469 1.80888 71 42 122 255 
16.0429 12.6584 1.63702 72 33 115 255 
16.0103 12.6968 1.47547 71 42 122 255 
0 0 0 68 1 84 255 
30.436 24.0417 2.06663 70 7 90 255 
0 0 0 68 2 86 255 
0 0 0 68 2 86 255 
0 0 0 68 2 86 255 
26.7868 21.1516 0.583841 70 11 94 255 
14.0974 11.1074 0.140962 71 44 122 255 
14.2182 11.2635 -0.00316585 72 36 117 255 
14.366 11.3558 -0.175789 72 33 115 255 
12.4878 9.85361 -0.299879 72 23 105 255 
15.8208 12.4563 -0.569482 71 14 97 255 
12.5698 9.94698 -0.58217 72 33 115 255 
11.982 9.46455 -0.696038 72 37 118 255 
10.854 8.56136 -0.760785 69 55 129 255 
10.0563 7.91487 -0.825329 69 55 129 255 
9.16139 7.24717 -0.847572 71 47 125 255 
8.39978 6.63019 -0.876038 62 73 137 255 
7.81198 6.15528 -0.908619 69 53 129 255 
7.21871 5.68154 -0.92664 70 51 127 255 
6.74375 5.32895 -0.936763 66 65 134 255 
6.363 5.0207 -0.960755 66 63 133 255 
6.01241 4.73565 -0.980431 56 88 140 255 
5.67264 4.46149 -0.993727 58 83 139 255 
5.36146 4.23211 -0.997683 55 90 140 255 
5.12194 4.03855 -1.01441 58 83 139 255 
4.85744 3.82457 -1.02016 60 79 138 255 
4.64948 3.65679 -1.0345 63 71 136 255 
4.44781 3.50588 -1.03943 56 88 140 255 
4.27103 3.364 -1.04892 59 81 139 255 
4.08407 3.21564 -1.05473 58 83 139 255 
3.93704 3.09757 -1.06755 62 74 137 255 
3.78759 2.98227 -1.06962 57 86 140 255 
3.6608 2.88129 -1.07897 60 80 139 255 
3.50172 2.75515 -1.07711 62 73 137 255 
3.38555 2.66558 -1.08714 68 59 132 255 
3.28073 2.57855 -1.09082 61 77 138 255 
3.19531 2.51131 -1.10266 62 73 137 255 
3.06928 2.41403 -1.10055 66 65 134 255 
2.98804 2.35429 -1.11455 68 58 131 255 
11.3332 8.86859 4.3229 70 48 126 255 
11.3812 8.9219 4.18227 71 45 123 255 
11.38 8.92758 4.03026 66 65 134 255 
13.2789 10.4168 4.5317 72 32 113 255 
12.8902 10.0978 4.24997 71 45 123 255 
11.7419 9.20134 3.71386 69 56 130 255 
17.5021 13.7106 5.30894 72 37 118 255 
16.9141 13.2447 4.92021 72 29 111 255 
13.3349 10.45 3.73727 72 38 119 255 
13.3747 10.4771 3.57102 71 47 125 255 
12.572 9.8379 3.19856 72 37 118 255 
11.8548 9.26963 2.87068 71 45 123 255 
11.8309 9.27133 2.74241 63 71 136 255 
13.026 10.2003 2.85476 72 29 111 255 
14.8462 11.6091 3.06593 71 19 101 255 
15.8074 12.3381 3.07563 72 24 106 255 
16.0187 12.5487 2.95405 72 24 106 255 
17.0921 13.3795 2.93862 72 31 112 255 
16.5304 12.9122 2.63869 70 50 126 255 
16.5054 12.8737 2.44045 71 47 125 255 
16.0461 12.5701 2.21075 70 48 126 255 
15.9459 12.4689 2.0026 71 46 124 255 
16.2105 12.6577 1.83917 72 26 108 255 
15.9253 12.4078 1.61722 72 29 111 255 
15.9568 12.4957 1.46344 72 36 117 255 
16.0472 12.5435 1.27787 71 16 99 255 
0 0 0 69 4 87 255 
0 0 0 68 2 86 255 
36.3897 28.4761 1.66204 70 7 90 255 
0 0 0 68 2 86 255 
26.9295 20.9973 0.584132 71 16 99 255 
27.0686 21.0596 0.269365 71 14 97 255 
12.6172 9.86984 -0.00279584 70 10 93 255 
12.6705 9.88983 -0.154297 70 11 94 255 
12.5669 9.79155 -0.300331 72 36 117 255 
12.6542 9.83801 -0.453319 71 17 100 255 
13.2755 10.3736 -0.611895 71 16 99 255 
12.0485 9.39761 -0.696539 69 53 129 255 
10.9181 8.5038 -0.761609 68 59 132 255 
10.1409 7.88119 -0.828289 69 55 129 255 
9.1994 7.18591 -0.846993 70 48 126 255 
8.44659 6.58343 -0.876691 66 64 134 255 
7.85589 6.11213 -0.909347 70 52 128 255 
7.26836 5.64874 -0.928547 69 55 129 255 
6.77475 5.28624 -0.936546 66 63 133 255 
6.39212 4.98034 -0.960519 62 76 138 255 
6.03979 4.69745 -0.980176 61 77 138 255 
5.69912 4.426 -0.99359 58 84 140 255 
5.38577 4.19791 -0.997394 56 89 140 255 
5.13103 3.9949 -1.01134 61 78 138 255 
4.8886 3.80075 -1.02179 59 82 139 255 
4.66405 3.62215 -1.03278 60 79 138 255 
4.46923 3.47852 -1.03943 57 85 140 255 
4.28849 3.33531 -1.04816 55 91 141 255 
4.11765 3.20135 -1.05831 57 85 140 255 
3.96524 3.08055 -1.07005 62 76 138 255 
3.79965 2.95418 -1.06789 61 77 138 255 
3.68226 2.86177 -1.0801 59 82 139 255 
3.51856 2.73361 -1.07711 62 76 138 255 
3.39725 2.64119 -1.08567 66 65 134 255 
3.31177 2.57023 -1.09588 62 74 137 255 
3.1855 2.47213 -1.09402 64 69 136 255 
3.06275 2.37863 -1.09296 68 58 131 255 
3.00319 2.3365 -1.11484 68 58 131 255 
11.5776 8.94586 4.39511 66 63 133 255 
11.4106 8.83249 4.1731 67 62 133 255 
11.4034 8.8334 4.01925 60 79 138 255 
13.2128 10.2346 4.48762 72 36 117 255 
12.8799 9.96288 4.22635 70 51 127 255 
11.881 9.19326 3.73995 72 41 121 255 
12.6466 9.78235 3.81784 72 20 103 255 
17.4678 13.5062 5.05706 72 27 109 255 
17.0116 13.1636 4.74499 72 24 106 255 
12.619 9.76077 3.35319 64 69 136 255 
11.9548 9.2372 3.02705 72 27 109 255 
11.871 9.1655 2.86094 66 64 134 255 
11.9187 9.22265 2.74959 61 78 138 255 
14.8065 11.4487 3.22952 71 46 124 255 
14.9031 11.507 3.06304 69 56 130 255 
15.958 12.2988 3.09018 72 38 119 255 
12.8477 9.93796 2.35798 71 17 100 255 
16.389 12.6677 2.80433 72 37 118 255 
13.0849 10.0922 2.07877 72 38 119 255 
16.6155 12.7964 2.44509 72 37 118 255 
17.238 13.334 2.36365 72 20 103 255 
16.2112 12.5168 2.02623 69 53 129 255 
16.138 12.4425 1.82225 71 46 124 255 
16.8552 12.9669 1.70354 72 36 117 255 
16.0347 12.3987 1.46358 72 22 104 255 
16.0417 12.3814 1.27136 72 20 103 255 
0 0 0 68 2 86 255 
36.8396 28.3207 2.03694 69 4 87 255 
36.782 28.4209 1.67196 70 8 92 255 
0 0 0 68 2 86 255 
27.0903 20.8567 0.584833 69 5 89 255 
29.3352 22.5354 0.290539 70 7 90 255 
12.6467 9.7684 -0.00278904 72 27 109 255 
17.8925 13.79 -0.216855 72 36 117 255 
18.2 14.002 -0.432892 72 20 103 255 
15.9407 12.2369 -0.568351 72 35 116 255 
13.706 10.5752 -0.628736 72 26 108 255 
12.1424 9.35155 -0.698634 70 48 126 255 
10.9701 8.43665 -0.761609 69 53 129 255 
10.1811 7.81274 -0.827646 70 51 127 255 
9.25043 7.13481 -0.847645 70 48 126 255 
8.46708 6.51628 -0.874651 71 46 124 255 
7.89167 6.06259 -0.909165 69 56 130 255 
7.29814 5.6004 -0.927944 69 56 130 255 
6.80942 5.2464 -0.936871 68 57 131 255 
6.41233 4.93316 -0.958989 62 73 137 255 
6.06692 4.65909 -0.979922 59 82 139 255 
5.7191 4.38552 -0.992362 57 85 140 255 
5.41456 4.1672 -0.997972 57 86 140 255 
5.1531 3.96154 -1.01088 59 81 139 255 
4.91496 3.77308 -1.02244 58 83 139 255 
4.68776 3.59467 -1.03312 62 74 137 255 
4.49985 3.45822 -1.0416 56 88 140 255 
4.29174 3.29578 -1.04399 58 83 139 255 
4.14887 3.18498 -1.06129 58 84 140 255 
3.95768 3.03593 -1.06296 62 74 137 255 
3.81693 2.93021 -1.06767 60 79 138 255 
3.69821 2.83793 -1.07965 59 81 139 255 
3.53758 2.71374 -1.07782 63 71 136 255 
3.40416 2.61321 -1.08273 66 63 133 255 
3.32364 2.54692 -1.09461 61 77 138 255 
3.18222 2.43845 -1.08773 66 65 134 255 
3.09562 2.37384 -1.09947 68 58 131 255 
3.00224 2.30634 -1.10921 67 61 132 255 
11.5965 8.84735 4.38159 68 58 131 255 
11.4654 8.76289 4.17338 69 55 129 255 
12.7903 9.78274 4.48683 72 32 113 255 
13.1204 10.0348 4.43523 71 46 124 255 
12.8939 9.84783 4.21103 71 44 122 255 
13.6405 10.4216 4.27361 71 45 123 255 
12.7203 9.71519 3.82202 70 52 128 255 
12.7955 9.76867 3.68698 72 41 121 255 
12.8336 9.80532 3.56278 72 37 118 255 
12.6755 9.68078 3.35237 66 64 134 255 
11.8616 9.04949 2.98933 71 47 125 255 
13.048 9.94706 3.12983 71 45 123 255 
12.0774 9.22758 2.77311 63 72 137 255 
11.9713 9.13967 2.59885 62 76 138 255 
15.015 11.447 3.07155 72 33 115 255 
22.6216 17.2143 4.36003 70 11 94 255 
12.9273 9.87336 2.36143 69 56 130 255 
25.8903 19.7591 4.40927 70 7 90 255 
13.1955 10.049 2.08651 67 62 133 255 
16.6842 12.687 2.4437 72 28 110 255 
17.3116 13.2219 2.36257 72 24 106 255 
16.3898 12.4949 2.03893 72 28 110 255 
16.4494 12.5224 1.8487 72 29 111 255 
16.6367 12.6371 1.6736 72 31 112 255 
16.3246 12.4635 1.48303 72 37 118 255 
16.1721 12.3245 1.27568 69 5 89 255 
0 0 0 68 2 86 255 
0 0 0 68 2 86 255 
36.7793 28.0601 1.66398 70 7 90 255 
0 0 0 68 2 86 255 
27.9676 21.26 0.600945 70 7 90 255 
29.5143 22.3864 0.290948 70 10 93 255 
12.7565 9.72882 -0.00280003 72 22 104 255 
17.9784 13.6812 -0.216874 72 26 108 255 
18.2975 13.8991 -0.433175 72 20 103 255 
16.0139 12.1376 -0.568295 71 42 122 255 
13.7866 10.503 -0.629462 72 31 112 255 
12.2107 9.28533 -0.699271 71 45 123 255 
11.0359 8.38005 -0.762599 68 57 131 255 
10.2098 7.73566 -0.826101 68 57 131 255 
9.31466 7.09363 -0.849526 71 45 123 255 
8.52198 6.47566 -0.876202 70 51 127 255 
7.89301 5.98698 -0.905071 69 53 129 255 
7.32285 5.54831 -0.92674 67 61 132 255 
6.85019 5.21114 -0.938063 67 62 133 255 
6.44247 4.89372 -0.958989 63 71 136 255 
6.09144 4.61878 -0.979287 59 82 139 255 
5.74827 4.35214 -0.992772 57 86 140 255 
5.44003 4.1339 -0.997972 58 84 140 255 
5.17259 3.92626 -1.00996 62 76 138 255 
4.94117 3.74524 -1.02309 59 82 139 255 
4.71129 3.56702 -1.03347 61 77 138 255 
4.53117 3.43828 -1.04394 59 82 139 255 
4.31266 3.26998 -1.04418 61 78 138 255 
4.14959 3.14525 -1.05652 60 80 139 255 
3.98092 3.01513 -1.06421 60 80 139 255 
3.83484 2.90674 -1.06767 61 77 138 255 
3.70157 2.8046 -1.07558 59 82 139 255 
3.56269 2.69844 -1.0804 63 72 137 255 
3.40777 2.5829 -1.07882 65 68 135 255 
3.32995 2.51948 -1.09158 60 79 138 255 
3.22483 2.43984 -1.09716 66 65 134 255 
3.10936 2.35422 -1.0992 66 63 133 255 
3.01481 2.28671 -1.10865 66 64 134 255 
11.9382 8.99269 4.48977 72 33 115 255 
11.9775 9.03841 4.33951 67 62 133 255 
12.9884 9.80857 4.53515 70 51 127 255 
12.9143 9.75215 4.34525 67 62 133 255 
12.9803 9.78834 4.21957 71 45 123 255 
13.6833 10.3219 4.26708 68 58 131 255 
12.8193 9.66682 3.83387 70 51 127 255 
12.8575 9.69174 3.68765 71 45 123 255 
17.7519 13.3914 4.90526 72 24 106 255 
13.1722 9.93278 3.46755 69 53 129 255 
11.9412 8.99482 2.99542 63 72 137 255 
14.1283 10.6342 3.37324 71 46 124 255 
12.1582 9.17167 2.77867 69 55 129 255 
12.0075 9.05121 2.5946 62 74 137 255 
14.831 11.1635 3.01985 72 37 118 255 
21.8188 16.393 4.18584 71 19 101 255 
23.416 17.6578 4.25752 70 7 90 255 
16.6311 12.5319 2.81922 71 13 96 255 
13.2443 9.95829 2.08451 71 17 100 255 
13.2008 9.91088 1.92455 71 16 99 255 
16.3819 12.3534 2.22531 72 29 111 255 
16.5202 12.4348 2.04562 72 22 104 255 
16.6573 12.52 1.86339 72 24 106 255 
17.3017 12.9756 1.73245 72 31 112 255 
16.4119 12.3715 1.48404 72 31 112 255 
17.4038 13.0951 1.36648 72 31 112 255 
0 0 0 68 2 86 255 
0 0 0 68 2 86 255 
0 0 0 68 2 86 255 
37.5576 28.2389 1.24688 69 4 87 255 
28.4486 21.3515 0.608453 70 10 93 255 
29.6503 22.2043 0.29094 70 8 92 255 
12.891 9.70691 -0.00281644 72 27 109 255 
18.082 13.5856 -0.217114 72 37 118 255 
13.5601 10.1699 -0.319538 70 11 94 255 
13.7591 10.2963 -0.486028 70 11 94 255 
13.8396 10.4098 -0.628954 72 24 106 255 
12.3074 9.24022 -0.701548 72 36 117 255 
11.0776 8.30499 -0.761939 70 52 128 255 
10.2491 7.66689 -0.825457 69 55 129 255 
9.34685 7.02795 -0.848513 71 44 122 255 
8.55996 6.42205 -0.876038 71 46 124 255 
7.91127 5.9247 -0.902979 70 51 127 255 
7.34083 5.49135 -0.924733 70 51 127 255 
6.88442 5.1708 -0.938388 68 59 132 255 
6.48033 4.86005 -0.960166 63 71 136 255 
6.11252 4.57597 -0.978143 56 88 140 255 
5.77804 4.31916 -0.993317 56 88 140 255 
5.47242 4.10579 -0.999273 58 84 140 255 
5.19658 3.89445 -1.00996 62 76 138 255 
4.95774 3.71012 -1.02179 59 82 139 255 
4.73546 3.53982 -1.03398 61 78 138 255 
