ply
format ascii 1.0
comment VTK generated PLY File
obj_info vtkPolyData points and polygons: vtk4.0
element vertex 1222
property float x
property float y
property float z
property uchar red
property uchar green
property uchar blue
property uchar alpha
element face 0
property list uchar int vertex_indices
end_header
10.3372 14.0122 4.85188 72 22 104 255 
10.2163 13.8477 4.62065 72 38 119 255 
5.73609 7.76406 2.50546 72 37 118 255 
5.81566 7.87442 2.43709 46 110 142 255 
5.78147 7.82541 2.32327 63 71 136 255 
5.8604 7.92904 2.25817 60 80 139 255 
5.87209 7.95104 2.18045 61 78 138 255 
6.39094 8.65019 2.26055 65 66 135 255 
5.79616 7.8367 1.953 55 90 140 255 
7.28572 9.84312 2.33608 71 42 122 255 
5.70171 7.72034 1.7511 72 36 117 255 
6.50964 8.80763 1.8898 56 88 140 255 
6.79807 9.18464 1.85892 67 61 132 255 
5.41006 7.29577 1.39311 46 111 142 255 
6.5327 8.84232 1.59598 53 95 141 255 
6.63544 8.97457 1.51103 50 100 142 255 
18.0166 24.315 3.80694 71 17 100 255 
18.0325 24.3002 3.52797 70 8 92 255 
17.8118 24.1092 3.25106 71 19 101 255 
17.869 24.1417 2.97146 71 13 96 255 
17.6488 23.81 2.65031 71 16 99 255 
23.4243 31.5315 3.14661 70 7 90 255 
22.5774 30.5484 2.74287 71 13 96 255 
23.1272 31.2344 2.43834 70 11 94 255 
21.3687 28.7968 1.91068 69 5 89 255 
0 0 0 69 4 87 255 
0 0 0 69 4 87 255 
0 0 0 69 4 87 255 
20.6357 27.7989 0.592222 70 7 90 255 
20.661 27.7714 0.271863 69 4 87 255 
18.2104 24.6127 -0.00534367 69 5 89 255 
14.1843 19.1287 -0.228604 71 14 97 255 
11.7122 15.7663 -0.370259 72 24 106 255 
10.1229 13.5967 -0.479412 72 31 112 255 
9.0732 12.2497 -0.553642 72 35 116 255 
8.44426 11.3794 -0.645947 72 40 120 255 
7.90077 10.6317 -0.728969 71 47 125 255 
7.43489 9.98267 -0.802739 70 52 128 255 
7.04162 9.50341 -0.85821 61 77 138 255 
6.41385 8.63697 -0.880689 69 55 129 255 
5.93163 7.9732 -0.907891 69 56 130 255 
5.5484 7.44971 -0.936977 63 71 136 255 
5.168 6.96714 -0.94543 61 78 138 255 
4.88081 6.57016 -0.970172 54 92 141 255 
4.5782 6.1517 -0.982336 56 88 140 255 
4.33648 5.81826 -0.999183 54 92 141 255 
4.1141 5.5403 -1.00794 59 82 139 255 
3.88085 5.22029 -1.01165 59 81 139 255 
3.67307 4.93368 -1.01495 59 82 139 255 
3.51961 4.72227 -1.03002 62 76 138 255 
3.34964 4.50426 -1.03022 59 81 139 255 
3.22071 4.32757 -1.04077 61 78 138 255 
3.09826 4.1616 -1.05274 59 82 139 255 
2.96551 3.98027 -1.05775 65 68 135 255 
2.8706 3.85588 -1.06659 63 72 137 255 
2.7664 3.71443 -1.07265 58 84 140 255 
2.6684 3.5816 -1.0797 61 78 138 255 
2.56801 3.44927 -1.08494 61 77 138 255 
2.49588 3.34646 -1.09132 59 82 139 255 
2.42287 3.24844 -1.09952 61 78 138 255 
2.32487 3.11937 -1.09648 62 73 137 255 
2.24774 3.02129 -1.10331 68 59 132 255 
8.88767 11.8638 4.45294 69 53 129 255 
10.6557 14.2493 5.14574 72 35 116 255 
5.95535 7.96971 2.7722 71 42 122 255 
11.1544 14.9266 5.00341 72 31 112 255 
10.3082 13.775 4.46552 72 26 108 255 
5.76796 7.71038 2.39723 50 100 142 255 
6.00654 8.02653 2.39388 49 104 142 255 
5.80379 7.75247 2.21799 53 95 141 255 
5.76926 7.71234 2.12466 64 69 136 255 
6.04226 8.07411 2.11965 71 47 125 255 
5.80357 7.74684 1.93945 51 98 141 255 
6.02315 8.03381 1.91541 72 35 116 255 
6.7036 8.96136 2.04187 67 62 133 255 
6.88246 9.19351 1.98162 69 55 129 255 
5.44401 7.2616 1.47644 55 90 140 255 
6.48939 8.64 1.65736 72 38 119 255 
6.52636 8.72125 1.58132 50 101 142 255 
5.40969 7.22357 1.22179 42 118 142 255 
17.8314 23.7588 3.73692 72 22 104 255 
17.8483 23.746 3.46335 70 11 94 255 
17.8075 23.7964 3.22356 72 22 104 255 
17.8395 23.7951 2.94222 72 20 103 255 
20.4259 27.2059 3.04221 70 8 92 255 
20.2047 26.8519 2.69194 70 7 90 255 
20.3974 27.2474 2.45767 70 8 92 255 
23.3286 31.1055 2.43941 71 19 101 255 
0 0 0 69 4 87 255 
38.1594 50.6767 2.78082 69 5 89 255 
38.0242 50.7568 2.28117 69 5 89 255 
0 0 0 69 4 87 255 
20.7656 27.6182 0.591076 69 4 87 255 
18.6904 24.8034 0.243926 69 4 87 255 
18.3215 24.4476 -0.00533216 70 7 90 255 
14.3513 19.1077 -0.229401 71 17 100 255 
11.8423 15.7388 -0.371314 72 20 103 255 
10.1821 13.5024 -0.478281 72 31 112 255 
9.16258 12.213 -0.554513 72 28 110 255 
8.51812 11.333 -0.646266 72 38 119 255 
7.97786 10.599 -0.730068 71 44 122 255 
7.48218 9.91854 -0.801259 69 53 129 255 
7.04592 9.38824 -0.851697 62 74 137 255 
6.46134 8.59029 -0.879955 70 50 126 255 
5.96905 7.92155 -0.906163 66 64 134 255 
5.58681 7.406 -0.935773 60 79 138 255 
5.20528 6.92815 -0.944455 59 82 139 255 
4.91685 6.53453 -0.969348 55 90 140 255 
4.62422 6.13459 -0.984115 58 83 139 255 
4.36136 5.77731 -0.996728 56 89 140 255 
4.15635 5.52602 -1.00997 55 91 141 255 
3.92945 5.21848 -1.01595 60 80 139 255 
3.71931 4.93232 -1.01935 59 82 139 255 
3.55624 4.71081 -1.03226 63 72 137 255 
3.39023 4.50091 -1.03419 60 80 139 255 
3.25961 4.32419 -1.04475 61 77 138 255 
3.12374 4.14251 -1.05274 61 78 138 255 
3.00401 3.98074 -1.06275 62 74 137 255 
2.89538 3.83976 -1.06702 60 80 139 255 
2.79442 3.70438 -1.07468 59 82 139 255 
2.70614 3.58611 -1.08604 58 84 140 255 
2.60139 3.4497 -1.09007 64 69 136 255 
2.5187 3.33417 -1.09233 58 84 140 255 
2.43403 3.22196 -1.09559 62 76 138 255 
2.35325 3.11734 -1.10082 63 71 136 255 
2.27143 3.01433 -1.10584 64 70 136 255 
8.84105 11.6518 4.39368 70 51 127 255 
10.7365 14.1752 5.14268 72 40 120 255 
10.9194 14.4274 5.04165 72 38 119 255 
10.3773 13.7105 4.61702 72 22 104 255 
10.323 13.6197 4.43562 71 44 122 255 
6.06657 8.00664 2.50087 66 63 133 255 
6.05861 7.99339 2.39504 58 83 139 255 
5.82592 7.68331 2.20839 55 91 141 255 
5.81235 7.67135 2.12315 47 108 142 255 
5.89483 7.77717 2.05116 51 98 141 255 
5.80891 7.65563 1.9255 51 98 141 255 
5.81808 7.66188 1.83521 60 79 138 255 
6.93431 9.15215 2.095 60 79 138 255 
6.92862 9.13776 1.97873 68 59 132 255 
6.92639 9.12175 1.86326 57 86 140 255 
7.03302 9.2451 1.78167 59 81 139 255 
5.45592 7.19831 1.31123 51 98 141 255 
5.47667 7.22024 1.22689 43 117 142 255 
5.62301 7.39721 1.16888 47 107 142 255 
17.777 23.3515 3.42166 71 19 101 255 
17.6944 23.3452 3.17709 71 19 101 255 
17.7017 23.3119 2.89585 70 7 90 255 
25.7598 33.8754 3.80561 70 8 92 255 
20.3745 26.7345 2.69265 70 8 92 255 
20.1159 26.5304 2.40409 71 17 100 255 
20.3315 26.7655 2.10879 71 14 97 255 
20.2857 26.6478 1.78447 70 7 90 255 
38.4508 50.4169 2.77946 69 5 89 255 
38.2558 50.4183 2.27646 70 8 92 255 
33.8393 44.5157 1.48378 69 4 87 255 
18.8054 24.6942 0.530958 71 16 99 255 
17.6962 23.1867 0.22909 69 4 87 255 
18.0642 23.7987 -0.00521469 69 5 89 255 
14.484 19.0399 -0.22965 71 13 96 255 
11.9157 15.6357 -0.370598 72 20 103 255 
10.2702 13.4469 -0.478536 72 26 108 255 
9.26032 12.1868 -0.555892 72 40 120 255 
8.61049 11.3107 -0.647996 72 41 121 255 
8.06151 10.5745 -0.731772 71 47 125 255 
7.52957 9.855 -0.799843 72 41 121 255 
7.07382 9.30592 -0.848151 61 77 138 255 
6.50547 8.53938 -0.878812 70 52 128 255 
6.00727 7.87131 -0.904616 68 57 131 255 
5.63578 7.37632 -0.936375 57 85 140 255 
5.2501 6.89924 -0.944889 58 83 139 255 
4.95084 6.49634 -0.968171 56 89 140 255 
4.66478 6.11004 -0.984751 55 90 140 255 
4.39251 5.74494 -0.995773 55 90 140 255 
4.19617 5.50828 -1.01141 53 95 141 255 
3.9644 5.1982 -1.01672 61 78 138 255 
3.74471 4.90313 -1.01805 58 84 140 255 
3.58089 4.68342 -1.03105 61 77 138 255 
3.43091 4.49723 -1.03817 60 79 138 255 
3.28966 4.30879 -1.04589 58 83 139 255 
3.15683 4.1334 -1.05532 61 77 138 255 
3.04204 3.9801 -1.06755 61 78 138 255 
2.91711 3.81959 -1.06637 59 81 139 255 
2.82183 3.69336 -1.07649 60 80 139 255 
2.72337 3.56326 -1.08416 61 78 138 255 
2.62074 3.43137 -1.08934 60 79 138 255 
2.54617 3.32788 -1.09537 59 82 139 255 
2.45376 3.20696 -1.09559 62 74 137 255 
2.3735 3.10437 -1.10137 61 78 138 255 
2.29338 3.00492 -1.10753 67 61 132 255 
8.88903 11.567 4.38217 68 59 132 255 
10.4263 13.5915 4.95404 72 35 116 255 
10.962 14.3005 5.02071 70 48 126 255 
10.393 13.5577 4.58694 72 33 115 255 
10.4122 13.5638 4.43814 71 46 124 255 
8.76988 11.4281 3.5863 70 48 126 255 
5.9885 7.80099 2.34835 49 103 142 255 
6.03682 7.8608 2.27001 48 105 142 255 
6.23265 8.12206 2.25843 67 62 133 255 
6.59199 8.58698 2.27536 72 41 121 255 
5.85757 7.62217 1.92609 46 110 142 255 
5.80929 7.55362 1.81779 62 73 137 255 
7.40238 9.64638 2.21848 68 57 131 255 
5.66231 7.37328 1.60413 72 38 119 255 
7.1477 9.29424 1.90741 66 65 134 255 
6.88209 8.93242 1.72952 71 44 122 255 
5.47106 7.12702 1.30434 55 91 141 255 
5.48827 7.14407 1.21964 44 113 142 255 
5.62471 7.30596 1.15989 63 72 137 255 
17.9473 23.2774 3.42687 71 19 101 255 
17.8064 23.196 3.17159 71 13 96 255 
20.4136 26.5436 3.31279 71 17 100 255 
20.368 26.4466 2.98503 71 16 99 255 
20.2751 26.2681 2.65816 71 13 96 255 
20.2783 26.4065 2.40409 70 11 94 255 
20.2866 26.3689 2.08732 71 17 100 255 
20.3409 26.3828 1.77505 71 19 101 255 
20.439 26.4614 1.46569 71 16 99 255 
20.399 26.5446 1.20416 71 13 96 255 
20.3975 26.4939 0.887238 70 11 94 255 
17.7616 23.029 0.497486 70 7 90 255 
16.908 21.8743 0.217145 69 4 87 255 
17.4932 22.7551 -0.00500944 69 5 89 255 
14.603 18.9539 -0.229689 71 14 97 255 
12.0456 15.6066 -0.371654 71 19 101 255 
10.3164 13.3369 -0.476868 72 26 108 255 
9.33005 12.1234 -0.555602 72 36 117 255 
8.66814 11.2426 -0.647131 72 36 117 255 
8.13601 10.5374 -0.732651 72 40 120 255 
7.61799 9.84492 -0.802803 71 44 122 255 
7.1101 9.23547 -0.845691 65 68 135 255 
6.54435 8.48194 -0.877017 70 48 126 255 
6.04754 7.82406 -0.903433 68 58 131 255 
5.6791 7.33924 -0.936074 62 76 138 255 
5.31114 6.89131 -0.948247 55 91 141 255 
4.98393 6.4572 -0.966876 57 86 140 255 
4.69066 6.06639 -0.982336 58 84 140 255 
4.43556 5.72806 -0.997546 56 89 140 255 
4.23533 5.48948 -1.01271 50 100 142 255 
3.99259 5.16909 -1.0158 60 79 138 255 
3.77473 4.88006 -1.01805 57 86 140 255 
3.60352 4.65357 -1.02933 62 74 137 255 
3.46145 4.47998 -1.03907 62 76 138 255 
3.30583 4.27532 -1.04267 60 80 139 255 
3.18273 4.11472 -1.05552 62 74 137 255 
3.07 3.966 -1.0688 61 78 138 255 
2.9369 3.79699 -1.06507 62 76 138 255 
2.84325 3.67443 -1.07604 60 80 139 255 
2.74161 3.54187 -1.08275 62 76 138 255 
2.63819 3.41062 -1.08787 62 74 137 255 
2.56298 3.3076 -1.09385 58 84 140 255 
2.47162 3.18956 -1.0948 62 76 138 255 
2.38779 3.08366 -1.0992 62 76 138 255 
2.31647 2.99686 -1.10977 67 62 133 255 
9.15219 11.7594 4.47624 65 66 135 255 
11.08 14.2616 5.22297 72 32 113 255 
10.9728 14.134 4.98582 72 40 120 255 
10.569 13.6134 4.62765 71 46 124 255 
10.5054 13.5126 4.44241 72 36 117 255 
11.0336 14.1967 4.47629 71 19 101 255 
6.04401 7.77408 2.35137 52 97 141 255 
6.11665 7.86439 2.28184 58 83 139 255 
6.62873 8.52933 2.38294 71 44 122 255 
12.0145 15.4533 4.11425 71 16 99 255 
5.92109 7.60775 1.93159 49 104 142 255 
7.01686 9.00885 2.17831 71 44 122 255 
7.65702 9.85245 2.27664 72 38 119 255 
6.89141 8.86069 1.9369 72 41 121 255 
7.07055 9.07811 1.87193 68 58 131 255 
6.91852 8.86665 1.72497 49 103 142 255 
5.53777 7.12301 1.3098 48 105 142 255 
5.61476 7.21662 1.23789 42 118 142 255 
5.62124 7.2095 1.15003 71 17 100 255 
15.3475 19.6549 2.90737 70 10 93 255 
17.6592 22.7143 3.12048 71 16 99 255 
20.2612 26.0135 3.26209 70 11 94 255 
20.3455 26.0847 2.95822 70 7 90 255 
26.4489 33.8356 3.4403 70 10 93 255 
26.2613 33.7666 3.08878 70 10 93 255 
26.3711 33.8459 2.69194 71 14 97 255 
26.417 33.8323 2.28712 70 7 90 255 
39.1503 50.0483 2.78541 70 7 90 255 
20.5523 26.4071 1.20362 70 11 94 255 
20.5596 26.3682 0.887238 71 14 97 255 
20.5706 26.3354 0.57163 71 14 97 255 
16.5994 21.2048 0.211506 69 5 89 255 
16.7921 21.5679 -0.00477068 70 10 93 255 
14.7141 18.8576 -0.229612 71 14 97 255 
12.146 15.5387 -0.371804 72 20 103 255 
10.4054 13.2828 -0.477207 72 32 113 255 
9.39873 12.0588 -0.555275 72 33 115 255 
8.75049 11.2066 -0.648133 72 38 119 255 
8.19067 10.4747 -0.731772 72 38 119 255 
7.6721 9.79013 -0.80216 70 52 128 255 
7.17461 9.20189 -0.846631 65 66 135 255 
6.58707 8.42985 -0.875794 69 53 129 255 
6.09912 7.79151 -0.903979 69 55 129 255 
5.71789 7.29643 -0.93507 65 66 135 255 
5.37779 6.88993 -0.952581 54 92 141 255 
5.0204 6.42258 -0.966287 55 90 140 255 
4.72718 6.03672 -0.982209 60 80 139 255 
4.47368 5.70463 -0.998228 54 92 141 255 
4.26101 5.45326 -1.01084 50 100 142 255 
4.02423 5.14449 -1.0158 58 84 140 255 
3.79304 4.84205 -1.01495 62 74 137 255 
3.64174 4.64377 -1.03209 62 74 137 255 
3.48705 4.45634 -1.03853 62 76 138 255 
3.33926 4.26423 -1.04494 60 80 139 255 
3.20188 4.0874 -1.05353 57 86 140 255 
3.09608 3.9494 -1.06942 59 82 139 255 
2.98242 3.80733 -1.07309 59 82 139 255 
2.86874 3.66075 -1.07716 60 80 139 255 
2.7597 3.5204 -1.08134 59 82 139 255 
2.66863 3.40658 -1.09179 59 81 139 255 
2.59219 3.30323 -1.09765 60 80 139 255 
2.49114 3.17433 -1.0948 63 72 137 255 
2.40488 3.06668 -1.09838 63 72 137 255 
2.32239 2.96672 -1.10387 67 62 133 255 
9.22536 11.7045 4.47682 66 63 133 255 
9.24629 11.7518 4.32451 71 19 101 255 
11.1545 14.1876 5.02876 72 31 112 255 
11.2284 14.2809 4.8779 72 26 108 255 
10.7905 13.705 4.52732 71 47 125 255 
11.3227 14.3857 4.55771 72 33 115 255 
6.1277 7.7827 2.36531 65 68 135 255 
6.15997 7.82058 2.28005 72 26 108 255 
6.41037 8.14472 2.28644 70 48 126 255 
6.78223 8.61385 2.30437 50 100 142 255 
5.8584 7.43267 1.89623 54 93 141 255 
5.90277 7.4833 1.81816 61 78 138 255 
7.03832 8.94257 2.07633 67 62 133 255 
5.81273 7.37988 1.62097 46 109 142 255 
5.88831 7.46525 1.54677 59 82 139 255 
6.96299 8.81162 1.72255 55 91 141 255 
5.66035 7.1892 1.32833 60 79 138 255 
5.66568 7.1906 1.23936 48 105 142 255 
5.67582 7.18811 1.15216 53 94 141 255 
15.4474 19.5346 2.90355 71 19 101 255 
15.4864 19.6693 2.71516 71 19 101 255 
17.9158 22.7134 2.86198 71 14 97 255 
16.6336 21.0579 2.39967 72 23 105 255 
26.5274 33.5101 3.42369 71 13 96 255 
26.4013 33.5202 3.081 71 17 100 255 
26.4478 33.5181 2.67873 72 20 103 255 
0 0 0 68 2 86 255 
39.3922 49.7257 2.78086 70 7 90 255 
39.2769 49.8319 2.28225 69 5 89 255 
35.0098 44.3372 1.49906 69 5 89 255 
33.3017 42.0992 0.918213 70 8 92 255 
0 0 0 68 2 86 255 
0 0 -0 68 2 86 255 
14.8233 18.7591 -0.229516 71 17 100 255 
12.2381 15.4599 -0.37171 72 22 104 255 
10.5085 13.2461 -0.478197 72 26 108 255 
9.48803 12.0205 -0.556183 72 35 116 255 
8.81041 11.1417 -0.647495 71 47 125 255 
8.24177 10.4078 -0.730618 72 40 120 255 
7.71714 9.72411 -0.800615 71 47 125 255 
7.25195 9.18431 -0.849092 66 65 134 255 
6.64238 8.39396 -0.876283 68 57 131 255 
6.15176 7.76019 -0.904707 68 57 131 255 
5.73658 7.22847 -0.930855 65 66 135 255 
5.40826 6.84199 -0.950523 56 89 140 255 
5.06218 6.39477 -0.966758 54 92 141 255 
4.77214 6.0177 -0.983861 58 83 139 255 
4.4969 5.66234 -0.995636 54 92 141 255 
4.28764 5.41847 -1.00925 53 95 141 255 
4.05695 5.12125 -1.0161 58 84 140 255 
3.83249 4.83106 -1.01756 61 78 138 255 
3.66955 4.62057 -1.03192 63 71 136 255 
3.50822 4.42715 -1.03672 60 80 139 255 
3.37146 4.25136 -1.04684 59 81 139 255 
3.22385 4.06384 -1.05254 58 84 140 255 
3.11539 3.9242 -1.06776 60 80 139 255 
3.00512 3.78819 -1.07287 57 85 140 255 
2.89236 3.64461 -1.07761 59 82 139 255 
2.78487 3.50796 -1.08275 59 82 139 255 
2.6931 3.3947 -1.09325 59 81 139 255 
2.60097 3.27287 -1.09284 60 79 138 255 
2.50397 3.15068 -1.09192 62 74 137 255 
2.42305 3.05111 -1.09811 64 69 136 255 
2.34651 2.95994 -1.10668 68 59 132 255 
9.19842 11.5242 4.42935 66 65 134 255 
9.42 11.8226 4.37174 72 33 115 255 
9.05372 11.3712 4.05012 71 44 122 255 
10.8195 13.5885 4.66396 72 29 111 255 
8.87882 11.1357 3.69652 71 47 125 255 
11.3944 14.2955 4.55119 72 29 111 255 
9.02773 11.3224 3.45785 71 45 123 255 
7.49585 9.39738 2.75312 72 33 115 255 
6.80959 8.54356 2.41009 70 50 126 255 
7.07106 8.86819 2.38397 72 38 119 255 
5.93938 7.44103 1.90762 62 73 137 255 
5.90811 7.39629 1.80579 55 90 140 255 
5.84098 7.32831 1.70981 62 73 137 255 
5.83333 7.31326 1.61417 48 105 142 255 
5.9297 7.42358 1.54565 44 114 142 255 
6.99469 8.74095 1.71709 51 98 141 255 
5.72039 7.17445 1.33207 51 99 141 255 
5.71278 7.15957 1.24003 44 114 142 255 
5.75452 7.19654 1.15915 41 121 142 255 
16.5008 20.6055 3.07772 72 26 108 255 
16.4566 20.6396 2.86299 72 26 108 255 
16.6444 20.8372 2.6384 71 13 96 255 
18.0205 22.5282 2.57977 71 14 97 255 
26.9401 33.6057 3.45028 70 8 92 255 
26.831 33.6391 3.107 71 16 99 255 
26.7078 33.4238 2.68424 71 19 101 255 
0 0 0 68 2 86 255 
39.7978 49.6093 2.78795 70 7 90 255 
39.5757 49.5822 2.28189 70 10 93 255 
0 0 0 69 4 87 255 
33.6775 42.0415 0.921445 70 8 92 255 
15.1255 18.841 0.189766 70 7 90 255 
15.601 19.5386 -0.00436385 69 5 89 255 
15.0531 18.8115 -0.231282 71 17 100 255 
12.3195 15.3682 -0.371314 72 22 104 255 
10.5802 13.1697 -0.477773 72 29 111 255 
9.54725 11.9441 -0.555348 72 33 115 255 
8.89235 11.1046 -0.648497 72 41 121 255 
8.31297 10.3664 -0.731277 71 44 122 255 
7.81292 9.72169 -0.804348 71 44 122 255 
7.32872 9.16535 -0.85148 60 80 139 255 
6.69937 8.36004 -0.877017 71 46 124 255 
6.18866 7.70909 -0.903161 70 52 128 255 
5.77397 7.18461 -0.929751 68 59 132 255 
5.42963 6.78306 -0.946947 56 89 140 255 
5.09573 6.35662 -0.965699 52 96 141 255 
4.79097 5.96588 -0.980176 56 88 140 255 
4.52597 5.62769 -0.994409 51 99 141 255 
4.33071 5.40442 -1.01156 50 101 142 255 
4.08459 5.09164 -1.01518 57 86 140 255 
3.87133 4.81899 -1.02 57 85 140 255 
3.69845 4.59873 -1.03209 62 73 137 255 
3.53532 4.40554 -1.03672 58 84 140 255 
3.3981 4.23136 -1.04702 57 85 140 255 
3.25548 4.05239 -1.05473 61 78 138 255 
3.14615 3.9134 -1.07005 58 83 139 255 
3.02342 3.76359 -1.07114 57 85 140 255 
2.91711 3.62983 -1.07852 57 86 140 255 
2.81 3.49536 -1.08416 57 85 140 255 
2.70416 3.36602 -1.08934 60 80 139 255 
2.6204 3.2561 -1.09259 62 73 137 255 
2.52386 3.136 -1.09219 61 78 138 255 
2.45741 3.05568 -1.10516 62 73 137 255 
2.35802 2.93725 -1.10359 65 66 135 255 
10.3117 12.7576 4.92764 72 33 115 255 
10.8695 13.4714 5.006 69 56 130 255 
10.8248 13.4257 4.80544 72 33 115 255 
8.99494 11.1558 3.84786 65 68 135 255 
8.92205 11.0501 3.68622 59 81 139 255 
9.07512 11.2434 3.59717 64 69 136 255 
10.4957 12.999 3.98948 72 40 120 255 
7.61155 9.42325 2.77433 67 62 133 255 
6.85759 8.49629 2.40858 63 72 137 255 
6.63106 8.21247 2.21859 63 71 136 255 
6.99453 8.65351 2.22942 62 74 137 255 
5.93608 7.33852 1.80055 50 101 142 255 
5.8846 7.2908 1.70945 52 97 141 255 
5.89481 7.29803 1.61876 46 110 142 255 
6.98692 8.63793 1.80738 70 52 128 255 
7.05878 8.71092 1.71967 59 82 139 255 
6.97598 8.6399 1.61207 60 79 138 255 
5.73917 7.1028 1.23628 69 55 129 255 
5.81168 7.17729 1.16177 39 127 142 255 
15.5321 19.1538 2.87507 72 24 106 255 
16.7428 20.7363 2.8906 71 17 100 255 
18.3759 22.7177 2.89073 71 13 96 255 
18.2982 22.5898 2.59963 71 16 99 255 
31.1119 38.3255 3.95438 69 5 89 255 
26.8589 33.2535 3.08655 71 13 96 255 
26.6789 32.9707 2.66094 70 8 92 255 
34.0184 41.9521 2.87788 70 7 90 255 
0 0 0 69 4 87 255 
39.9621 49.441 2.28664 70 8 92 255 
0 0 0 68 2 86 255 
34.0722 42.0034 0.925174 70 7 90 255 
14.6334 18.0007 0.182203 69 5 89 255 
15.0478 18.6105 -0.0041771 70 7 90 255 
15.0002 18.5113 -0.228719 69 5 89 255 
12.4098 15.2876 -0.371201 72 24 106 255 
10.6589 13.1022 -0.477688 72 23 105 255 
9.63482 11.9032 -0.556183 72 35 116 255 
8.98863 11.0847 -0.650546 72 41 121 255 
8.3909 10.333 -0.732541 70 50 126 255 
7.86864 9.66893 -0.803962 70 50 126 255 
7.37854 9.11246 -0.850756 66 65 134 255 
6.743 8.30949 -0.876038 69 53 129 255 
6.24653 7.68411 -0.904707 69 56 130 255 
5.81292 7.14287 -0.928948 66 63 133 255 
5.46114 6.73727 -0.945214 57 86 140 255 
5.14027 6.33217 -0.966758 53 94 141 255 
4.81497 5.92098 -0.977635 57 86 140 255 
4.56041 5.59981 -0.994409 55 91 141 255 
4.36503 5.37928 -1.01185 48 106 142 255 
4.12198 5.07415 -1.01672 55 91 141 255 
3.90456 4.79974 -1.02098 60 80 139 255 
3.73157 4.58206 -1.03347 61 77 138 255 
3.58896 4.41658 -1.04448 55 91 141 255 
3.43391 4.22262 -1.05006 55 90 140 255 
3.2809 4.03309 -1.05492 59 81 139 255 
3.17072 3.89478 -1.07026 59 82 139 255 
3.04769 3.74649 -1.07157 58 83 139 255 
2.94794 3.62244 -1.08168 58 84 140 255 
2.82648 3.47202 -1.08228 58 83 139 255 
2.73761 3.36516 -1.09448 61 78 138 255 
2.64522 3.24596 -1.09461 62 74 137 255 
2.54 3.11672 -1.09088 62 73 137 255 
2.46457 3.02637 -1.10001 63 71 136 255 
2.37176 2.91752 -1.10162 67 61 132 255 
11.2645 13.7628 5.34249 72 38 119 255 
11.3908 13.9415 5.20658 72 35 116 255 
10.8801 13.3262 4.79363 71 45 123 255 
10.782 13.2055 4.5776 70 51 127 255 
9.08649 11.1136 3.72591 69 56 130 255 
9.14333 11.1868 3.59693 66 63 133 255 
10.5722 12.9306 3.98832 71 44 122 255 
10.7648 13.161 3.89415 72 36 117 255 
7.6765 9.39239 2.67591 61 77 138 255 
6.90556 8.44589 2.29305 50 101 142 255 
5.98677 7.31447 1.89387 65 68 135 255 
5.9922 7.31563 1.80392 55 91 141 255 
5.96036 7.29264 1.71843 50 100 142 255 
6.00124 7.33724 1.63559 48 105 142 255 
7.19928 8.78961 1.84832 52 96 141 255 
15.1164 18.4222 3.65507 72 41 121 255 
5.84058 7.14355 1.33954 53 95 141 255 
5.80084 7.0897 1.24017 54 93 141 255 
16.0935 19.6276 3.19299 71 19 101 255 
16.76 20.4107 3.07911 71 16 99 255 
15.7036 19.207 2.69079 72 31 112 255 
15.8186 19.3127 2.46975 72 38 119 255 
15.8807 19.3612 2.23926 72 27 109 255 
16.0859 19.569 2.02925 72 24 106 255 
26.9854 32.9939 3.07776 70 11 94 255 
26.8535 32.7732 2.65825 70 10 93 255 
0 0 0 69 4 87 255 
40.4531 49.1774 2.79137 69 5 89 255 
40.2945 49.2312 2.28832 70 7 90 255 
33.9825 41.4443 1.42216 69 5 89 255 
34.0215 41.4188 0.916879 70 7 90 255 
14.3362 17.4156 0.177168 69 4 87 255 
14.6524 17.8957 -0.00403677 70 7 90 255 
14.4792 17.6459 -0.21912 70 8 92 255 
12.5072 15.2158 -0.371314 71 19 101 255 
10.7207 13.0142 -0.476868 72 29 111 255 
9.74062 11.884 -0.55807 72 27 109 255 
9.07169 11.0479 -0.651639 71 42 122 255 
8.46049 10.2891 -0.73309 70 51 127 255 
7.9183 9.60891 -0.802997 71 45 123 255 
7.42546 9.05621 -0.849743 64 69 136 255 
6.79576 8.27027 -0.876283 69 56 130 255 
6.29103 7.64256 -0.904343 70 50 126 255 
5.85221 7.10169 -0.928245 68 59 132 255 
5.50426 6.70593 -0.945539 54 92 141 255 
5.17461 6.29514 -0.965934 49 103 142 255 
4.8758 5.92118 -0.982591 54 92 141 255 
4.60603 5.58548 -0.996864 53 94 141 255 
4.38854 5.34093 -1.00968 51 99 141 255 
4.15492 5.05105 -1.01718 55 90 140 255 
3.93017 4.77112 -1.02 59 81 139 255 
3.764 4.5644 -1.03467 61 77 138 255 
3.60287 4.37853 -1.04069 58 84 140 255 
3.45539 4.19616 -1.04873 55 91 141 255 
3.31244 4.02121 -1.05711 58 84 140 255 
3.18772 3.86695 -1.06796 57 85 140 255 
3.07124 3.72847 -1.07179 58 84 140 255 
2.96515 3.59827 -1.07987 55 90 140 255 
2.85762 3.46661 -1.08604 57 85 140 255 
2.76376 3.35503 -1.09668 62 74 137 255 
2.65585 3.21847 -1.09082 60 79 138 255 
2.56153 3.10405 -1.09192 63 71 136 255 
2.47758 3.00451 -1.09757 62 73 137 255 
2.39572 2.91032 -1.10443 64 69 136 255 
11.6922 14.1078 5.50418 72 20 103 255 
11.1559 13.4843 5.06128 72 28 110 255 
11.4276 13.8227 4.99736 72 29 111 255 
10.9109 13.1972 4.59783 70 50 126 255 
10.8341 13.0863 4.4095 72 31 112 255 
10.8897 13.1579 4.25211 71 44 122 255 
11.8472 14.31 4.43611 72 33 115 255 
7.50465 9.06113 2.69463 72 28 110 255 
7.72153 9.33006 2.6716 58 83 139 255 
7.84408 9.47451 2.58534 71 47 125 255 
6.03216 7.27835 1.89407 56 88 140 255 
6.18497 7.45716 1.84814 61 77 138 255 
5.98053 7.22638 1.71143 50 102 142 255 
6.07946 7.3405 1.6446 47 107 142 255 
7.23102 8.71868 1.8427 58 84 140 255 
15.3391 18.4614 3.68145 72 35 116 255 
15.5331 18.7622 3.53604 72 40 120 255 
15.471 18.6735 3.28301 72 41 121 255 
16.3828 19.7323 3.22631 72 20 103 255 
16.4397 19.7721 2.99793 72 22 104 255 
17.9799 21.7178 3.05794 70 11 94 255 
16.5518 19.9567 2.56505 70 8 92 255 
15.9292 19.1792 2.22946 72 28 110 255 
16.7395 20.1112 2.09609 72 22 104 255 
16.376 19.7734 1.85386 72 24 106 255 
16.4766 19.859 1.61895 72 35 116 255 
16.7584 20.1561 1.39669 72 26 108 255 
16.8364 20.2133 1.15318 72 23 105 255 
16.8301 20.3073 0.948688 70 8 92 255 
16.9118 20.3691 0.702512 71 13 96 255 
16.9291 20.354 0.452864 71 13 96 255 
14.2789 17.1307 0.175158 69 4 87 255 
14.1945 17.1211 -0.00388161 70 11 94 255 
14.2197 17.1145 -0.213601 70 11 94 255 
12.6157 15.1573 -0.371767 72 23 105 255 
10.7862 12.9313 -0.476246 72 28 110 255 
9.8108 11.821 -0.557925 72 27 109 255 
9.13228 10.9836 -0.651138 72 36 117 255 
8.51132 10.2224 -0.732046 72 40 120 255 
7.97328 9.55555 -0.80261 71 47 125 255 
7.48471 9.01509 -0.850177 65 68 135 255 
6.84637 8.22842 -0.876283 70 52 128 255 
6.33653 7.60229 -0.904161 69 56 130 255 
5.89121 7.0603 -0.927543 66 63 133 255 
5.53451 6.65904 -0.943697 58 84 140 255 
5.20806 6.25716 -0.964992 53 95 141 255 
4.91394 5.89344 -0.982972 57 86 140 255 
4.62117 5.5343 -0.992772 55 91 141 255 
4.41743 5.30934 -1.00881 50 100 142 255 
4.1637 4.99889 -1.0118 59 82 139 255 
3.96633 4.75525 -1.02179 57 86 140 255 
3.78815 4.53668 -1.03364 59 81 139 255 
3.62715 4.35332 -1.03997 56 88 140 255 
3.48233 4.17639 -1.04911 56 88 140 255 
3.33705 4.00081 -1.05711 56 88 140 255 
3.20324 3.83755 -1.06525 54 93 141 255 
3.10531 3.72305 -1.07569 57 85 140 255 
2.97594 3.56654 -1.07581 57 85 140 255 
2.87199 3.4408 -1.08346 56 89 140 255 
2.77249 3.32386 -1.09203 63 72 137 255 
2.67865 3.20583 -1.09208 62 76 138 255 
2.596 3.10679 -1.09847 66 65 134 255 
2.50214 2.99664 -1.10028 64 70 136 255 
2.4123 2.89409 -1.10387 67 61 132 255 
11.0182 13.1298 5.14887 72 33 115 255 
11.289 13.4759 5.08406 72 40 120 255 
11.4825 13.7169 4.98448 72 36 117 255 
10.9848 13.1219 4.59498 71 47 125 255 
10.9633 13.0782 4.42934 72 40 120 255 
9.12659 10.8908 3.5375 69 56 130 255 
7.2421 8.6391 2.69186 71 47 125 255 
7.46741 8.90437 2.66159 69 56 130 255 
7.75668 9.25631 2.66406 52 96 141 255 
7.03761 8.39501 2.30251 61 78 138 255 
6.08932 7.25622 1.898 51 98 141 255 
6.11374 7.27991 1.81348 72 27 109 255 
6.16692 7.3592 1.75181 59 81 139 255 
15.5953 18.5967 4.18785 72 20 103 255 
15.2848 18.2009 3.86653 72 29 111 255 
15.4419 18.3548 3.67902 72 29 111 255 
15.4686 18.4527 3.49552 72 20 103 255 
15.4853 18.459 3.26195 70 51 127 255 
18.359 21.8384 3.58902 70 8 92 255 
16.8134 19.971 3.04368 71 14 97 255 
16.6777 19.8951 2.81566 72 22 104 255 
16.3239 19.4379 2.5112 71 14 97 255 
15.919 18.9294 2.21174 72 24 106 255 
16.9126 20.0675 2.10232 71 16 99 255 
16.8399 20.0814 1.89239 72 22 104 255 
16.7465 19.9341 1.63341 72 23 105 255 
16.9011 20.0758 1.39829 72 23 105 255 
16.9904 20.1455 1.15524 72 24 106 255 
16.9467 20.1944 0.948256 72 32 113 255 
17.0056 20.2282 0.701239 72 33 115 255 
13.7689 16.3494 0.365636 72 28 110 255 
13.7498 16.2916 0.167437 72 33 115 255 
13.9888 16.6638 -0.00379731 71 14 97 255 
13.8822 16.5012 -0.207006 72 20 103 255 
12.847 15.2439 -0.375819 71 17 100 255 
10.8454 12.8412 -0.47537 72 26 108 255 
9.87801 11.7544 -0.557634 72 27 109 255 
9.19114 10.9174 -0.650546 72 36 117 255 
8.58225 10.1799 -0.732761 72 40 120 255 
8.06911 9.55066 -0.806343 71 46 124 255 
7.53861 8.96746 -0.850033 64 69 136 255 
6.91407 8.20684 -0.878486 69 55 129 255 
6.37214 7.55033 -0.902615 69 55 129 255 
5.94213 7.03314 -0.928747 67 61 132 255 
5.55414 6.59985 -0.940121 64 70 136 255 
5.24187 6.21978 -0.964168 52 96 141 255 
4.96409 5.87985 -0.985767 58 84 140 255 
4.67423 5.52854 -0.996864 47 107 142 255 
4.44227 5.27305 -1.00708 52 97 141 255 
4.1943 4.97325 -1.0118 57 86 140 255 
3.98906 4.72328 -1.02016 56 89 140 255 
3.80829 4.50433 -1.03157 59 81 139 255 
3.64555 4.32121 -1.03762 54 93 141 255 
3.50725 4.15419 -1.04892 55 90 140 255 
3.36596 3.9855 -1.0585 57 86 140 255 
3.24062 3.83426 -1.06984 59 81 139 255 
3.13629 3.71362 -1.0785 58 83 139 255 
2.99463 3.54449 -1.07468 57 85 140 255 
2.8874 3.41643 -1.08134 57 85 140 255 
2.77844 3.28975 -1.0864 63 72 137 255 
2.69264 3.18268 -1.08981 62 73 137 255 
2.62125 3.09817 -1.10109 65 68 135 255 
2.51923 2.97976 -1.09974 67 62 133 255 
2.43311 2.8829 -1.10528 66 65 134 255 
10.8908 12.8174 5.0525 71 14 97 255 
11.1478 13.1427 4.98405 70 52 128 255 
10.9523 12.9216 4.71982 72 26 108 255 
10.9309 12.8958 4.53922 72 32 113 255 
9.2488 10.8965 3.70958 70 51 127 255 
7.30851 8.61334 2.81227 68 59 132 255 
7.32267 8.62712 2.70208 62 76 138 255 
7.91623 9.32278 2.80112 70 50 126 255 
7.59853 8.95538 2.59082 62 76 138 255 
7.09469 8.35838 2.30437 67 62 133 255 
6.15912 7.24861 1.90585 61 77 138 255 
14.9261 17.5534 4.3954 72 31 112 255 
7.25323 8.54842 2.04546 72 36 117 255 
7.23936 8.52581 1.92993 47 107 142 255 
15.7727 18.5497 3.96111 72 24 106 255 
16.349 19.1928 3.86701 72 20 103 255 
15.5239 18.2895 3.48259 72 23 105 255 
15.5887 18.3523 3.25993 72 28 110 255 
15.3112 17.9877 2.97157 71 13 96 255 
17.0265 19.974 3.06 70 8 92 255 
16.9069 19.9189 2.83366 72 22 104 255 
15.8414 18.6301 2.41934 71 13 96 255 
15.907 18.6812 2.1941 71 17 100 255 
21.6541 25.3758 2.67229 71 13 96 255 
22.5095 26.5103 2.51118 70 7 90 255 
27.1101 31.8712 2.62513 70 7 90 255 
17.1665 20.1389 1.41 69 4 87 255 
17.1364 20.0675 1.15677 69 5 89 255 
17.0722 20.0924 0.948364 72 24 106 255 
14.0069 16.4552 0.57341 72 27 109 255 
13.3662 15.675 0.352381 72 22 104 255 
13.4376 15.7249 0.162458 71 47 125 255 
13.5066 15.8903 -0.00363988 72 35 116 255 
13.4787 15.8235 -0.199538 71 45 123 255 
13.2868 15.571 -0.385884 72 31 112 255 
10.9266 12.7774 -0.475483 72 24 106 255 
9.9467 11.6898 -0.557453 72 31 112 255 
9.26768 10.8722 -0.65123 72 35 116 255 
8.66465 10.1506 -0.734464 72 38 119 255 
8.11653 9.48808 -0.805249 71 44 122 255 
7.59284 8.92028 -0.84996 64 69 136 255 
6.9533 8.15137 -0.877099 69 55 129 255 
6.41058 7.502 -0.901523 68 58 131 255 
5.98193 6.99277 -0.928245 68 59 132 255 
5.58937 6.5596 -0.939255 63 72 137 255 
5.29219 6.20185 -0.966405 50 102 142 255 
4.99621 5.84476 -0.985005 57 85 140 255 
4.69453 5.48395 -0.993999 48 106 142 255 
4.46812 5.23816 -1.00563 51 98 141 255 
4.22859 4.95192 -1.01272 55 90 140 255 
4.02438 4.70622 -1.02179 55 90 140 255 
3.83265 4.47713 -1.03071 60 80 139 255 
3.67455 4.30175 -1.03835 54 93 141 255 
3.54097 4.1423 -1.05138 53 94 141 255 
3.39481 3.96998 -1.0599 56 88 140 255 
3.2698 3.82099 -1.07172 62 76 138 255 
3.14442 3.67724 -1.07352 58 83 139 255 
3.01632 3.52605 -1.07468 55 91 141 255 
2.91147 3.40234 -1.08252 57 85 140 255 
2.8074 3.28296 -1.08983 62 74 137 255 
2.71464 3.16904 -1.09082 62 74 137 255 
2.64586 3.08863 -1.10345 63 71 136 255 
2.5381 2.96497 -1.10001 62 76 138 255 
2.46696 2.88689 -1.11259 66 64 134 255 
10.963 12.7431 5.04962 72 36 117 255 
11.1443 12.9764 4.94682 71 42 122 255 
11.1888 13.0376 4.78719 72 35 116 255 
9.27001 10.8013 3.82193 66 64 134 255 
9.32369 10.8491 3.71285 66 64 134 255 
7.34731 8.55214 2.80696 72 38 119 255 
7.38624 8.59457 2.70603 58 84 140 255 
10.871 12.6445 3.81914 72 35 116 255 
7.48788 8.716 2.53481 58 83 139 255 
7.216 8.39633 2.32699 50 100 142 255 
6.20156 7.20845 1.90526 53 95 141 255 
15.0002 17.4228 4.38566 72 20 103 255 
7.37222 8.58136 2.06412 66 63 133 255 
7.29861 8.48945 1.9318 45 113 142 255 
15.7626 18.3089 3.93028 72 26 108 255 
15.4258 17.8855 3.62262 71 19 101 255 
15.0069 17.4621 3.34252 72 33 115 255 
15.1246 17.5861 3.14026 72 32 113 255 
18.4973 21.4627 3.56431 71 19 101 255 
14.9993 17.3788 2.67646 70 11 94 255 
17.0936 19.8902 2.84445 72 22 104 255 
15.9294 18.5023 2.41541 72 24 106 255 
15.8601 18.3961 2.17202 72 20 103 255 
15.8256 18.3168 1.9391 71 13 96 255 
22.5866 26.2726 2.50175 70 8 92 255 
0 0 0 68 2 86 255 
41.8313 48.4689 3.41139 69 5 89 255 
41.9033 48.4653 2.80849 70 7 90 255 
0 0 0 69 4 87 255 
13.6462 15.8336 0.554656 72 37 118 255 
13.468 15.5995 0.352535 72 23 105 255 
13.4769 15.5764 0.161775 67 61 132 255 
13.4492 15.6275 -0.00359852 70 48 126 255 
13.4724 15.6209 -0.198021 69 55 129 255 
13.4691 15.5898 -0.388391 70 51 127 255 
11.0126 12.7192 -0.475822 72 26 108 255 
10.0359 11.649 -0.558433 72 31 112 255 
9.35771 10.8424 -0.652869 72 35 116 255 
8.73003 10.101 -0.734739 71 44 122 255 
8.21641 9.48637 -0.809368 71 42 122 255 
7.64938 8.87579 -0.850177 64 69 136 255 
6.98755 8.09045 -0.875141 70 51 127 255 
6.4617 7.46855 -0.902251 69 55 129 255 
6.02799 6.95969 -0.928747 69 56 130 255 
5.62302 6.51765 -0.938171 62 74 137 255 
5.3243 6.1625 -0.965346 46 111 142 255 
5.02938 5.81099 -0.984497 55 90 140 255 
4.7255 5.45205 -0.993454 50 101 142 255 
4.50794 5.21964 -1.00737 50 100 142 255 
4.25631 4.9229 -1.01211 59 81 139 255 
4.05835 4.6874 -1.02309 55 91 141 255 
3.87231 4.46768 -1.03398 56 89 140 255 
3.72597 4.30814 -1.04539 51 99 141 255 
3.56889 4.12346 -1.05214 57 86 140 255 
3.4159 3.94537 -1.0589 57 86 140 255 
3.28358 3.78977 -1.06859 60 80 139 255 
3.17587 3.66821 -1.07655 56 88 140 255 
3.03917 3.50895 -1.07513 59 82 139 255 
2.93229 3.38442 -1.08252 57 86 140 255 
2.82368 3.26127 -1.08836 63 71 136 255 
2.73847 3.15744 -1.09259 63 72 137 255 
2.65085 3.05629 -1.09768 61 77 138 255 
2.55057 2.9428 -1.09757 65 66 135 255 
2.47646 2.86226 -1.10893 66 63 133 255 
11.0334 12.6669 5.04617 72 35 116 255 
11.2691 12.96 4.96682 72 31 112 255 
11.5959 13.3454 4.92623 72 37 118 255 
9.30633 10.71 3.80974 68 58 131 255 
9.28969 10.6763 3.67316 68 59 132 255 
11.2119 12.8896 4.25307 71 45 123 255 
7.41074 8.5168 2.69581 72 23 105 255 
7.38044 8.47867 2.57452 66 65 134 255 
7.59377 8.73031 2.55248 55 90 140 255 
7.47488 8.59035 2.39343 55 90 140 255 
7.39976 8.49519 2.25732 71 44 122 255 
7.39368 8.48194 2.14645 63 71 136 255 
7.4228 8.53374 2.06359 53 95 141 255 
7.34927 8.44302 1.93146 46 110 142 255 
7.34488 8.42625 1.81846 51 99 141 255 
16.9812 19.4464 3.95979 71 19 101 255 
15.3938 17.6915 3.40444 72 26 108 255 
17.4754 20.0691 3.60271 71 16 99 255 
15.5308 17.7985 2.97157 71 13 96 255 
17.2292 19.7165 3.05271 71 13 96 255 
15.7379 18.087 2.60033 71 17 100 255 
15.821 18.1499 2.38203 72 36 117 255 
18.5756 21.2804 2.52597 70 10 93 255 
15.893 18.1683 1.93367 72 27 109 255 
23.9889 27.5599 2.6383 70 11 94 255 
30.3885 34.8497 2.90095 69 5 89 255 
42.1273 48.2106 3.41134 69 5 89 255 
42.1966 48.2035 2.80827 69 4 87 255 
42.0594 48.2863 2.30331 69 4 87 255 
13.6531 15.6463 0.551022 71 45 123 255 
13.4891 15.4315 0.350602 72 22 104 255 
13.5722 15.4934 0.161775 69 55 129 255 
13.5311 15.5289 -0.00359485 66 63 133 255 
13.5463 15.513 -0.197704 68 59 132 255 
13.5625 15.5046 -0.388334 70 51 127 255 
11.0516 12.6071 -0.474154 72 26 108 255 
10.0966 11.5751 -0.557852 72 29 111 255 
9.44838 10.8126 -0.654554 72 33 115 255 
8.81815 10.0773 -0.736937 72 37 118 255 
8.27907 9.44103 -0.809818 70 50 126 255 
7.70764 8.83319 -0.850612 65 68 135 255 
7.02853 8.03767 -0.87408 70 51 127 255 
6.49297 7.41228 -0.900249 69 55 129 255 
6.07189 6.92407 -0.928948 68 59 132 255 
5.68253 6.50549 -0.941422 59 82 139 255 
5.36528 6.13345 -0.965934 48 105 142 255 
5.0669 5.78226 -0.984878 56 89 140 255 
4.75821 5.4222 -0.993317 50 101 142 255 
4.53467 5.18592 -1.00621 53 94 141 255 
4.28513 4.8952 -1.0118 56 88 140 255 
4.08313 4.65796 -1.02212 55 90 140 255 
3.92109 4.46827 -1.03967 58 83 139 255 
3.74391 4.27557 -1.04304 51 99 141 255 
3.59218 4.09927 -1.05157 57 86 140 255 
3.43875 3.92287 -1.0585 57 85 140 255 
3.3029 3.76514 -1.06734 60 80 139 255 
3.19446 3.64425 -1.07525 57 85 140 255 
3.06643 3.49683 -1.07716 57 85 140 255 
2.94916 3.36198 -1.08111 57 86 140 255 
2.85387 3.25555 -1.09228 63 71 136 255 
2.76992 3.15439 -1.09739 62 73 137 255 
2.68038 3.0523 -1.10214 61 77 138 255 
2.57175 2.93071 -1.09892 63 72 137 255 
2.49461 2.84773 -1.10921 67 62 133 255 
11.0913 12.5767 5.03725 71 45 123 255 
11.1269 12.6389 4.86987 69 56 130 255 
9.35708 10.6363 3.94732 72 27 109 255 
9.47394 10.7687 3.85123 66 65 134 255 
9.46892 10.7484 3.71788 72 38 119 255 
11.5986 13.1701 4.36903 72 29 111 255 
7.414 8.4157 2.67816 71 44 122 255 
7.39817 8.39447 2.56269 54 92 141 255 
7.27545 8.26143 2.4284 61 78 138 255 
7.2221 8.19774 2.29634 60 80 139 255 
7.4044 8.39594 2.24298 70 48 126 255 
7.39944 8.38412 2.13315 54 92 141 255 
7.48022 8.49394 2.06502 61 77 138 255 
7.40484 8.40221 1.93248 48 105 142 255 
7.37358 8.35512 1.81284 56 88 140 255 
15.6271 17.6756 3.61868 72 26 108 255 
15.5393 17.639 3.41263 72 32 113 255 
15.5188 17.6029 3.17702 72 38 119 255 
15.6318 17.6939 2.97007 72 33 115 255 
15.2562 17.244 2.68434 71 17 100 255 
15.6863 17.8058 2.57369 71 19 101 255 
15.8622 17.9734 2.37159 72 23 105 255 
15.9342 18.03 2.15171 72 22 104 255 
15.987 18.051 1.9316 71 19 101 255 
16.1717 18.3504 1.76614 71 16 99 255 
25.7528 29.1701 2.44129 70 7 90 255 
30.5817 34.5674 2.45919 70 7 90 255 
0 0 0 68 2 86 255 
42.4937 48.1847 2.31086 69 5 89 255 
13.6932 15.4993 0.548794 72 37 118 255 
13.6392 15.4113 0.352039 72 20 103 255 
13.6889 15.4345 0.162034 70 48 126 255 
13.6519 15.4748 -0.00360166 68 59 132 255 
13.6405 15.4289 -0.197695 71 47 125 255 
13.6733 15.439 -0.388787 71 44 122 255 
11.1075 12.5151 -0.473249 72 22 104 255 
10.1615 11.5062 -0.557526 72 32 113 255 
9.51587 10.7559 -0.654645 72 36 117 255 
8.87319 10.0155 -0.736387 72 41 121 255 
8.33154 9.38408 -0.809304 72 41 121 255 
7.74914 8.77153 -0.849237 66 65 134 255 
7.08433 8.00185 -0.874896 71 46 124 255 
6.56476 7.4021 -0.903888 67 62 133 255 
6.10501 6.87627 -0.927543 68 58 131 255 
5.71904 6.46677 -0.94088 62 74 137 255 
5.39952 6.09669 -0.965346 48 105 142 255 
5.10952 5.75922 -0.986275 55 90 140 255 
4.78086 5.38106 -0.991135 53 95 141 255 
4.56509 5.15652 -1.00592 53 94 141 255 
4.31836 4.87251 -1.01257 56 88 140 255 
4.10705 4.62765 -1.02098 55 91 141 255 
3.9445 4.4397 -1.03863 59 82 139 255 
3.75767 4.23854 -1.03961 57 86 140 255 
3.61141 4.07054 -1.04987 58 84 140 255 
3.46211 3.90096 -1.05831 58 84 140 255 
3.33763 3.75796 -1.07109 61 78 138 255 
3.20574 3.61217 -1.07157 56 88 140 255 
3.08912 3.47941 -1.07761 60 80 139 255 
2.97425 3.3489 -1.08275 59 81 139 255 
2.88409 3.24958 -1.09619 63 71 136 255 
2.77637 3.12287 -1.09233 62 74 137 255 
2.67854 3.01272 -1.09376 63 71 136 255 
2.5801 2.90408 -1.09486 67 62 133 255 
2.51331 2.83381 -1.10977 67 62 133 255 
11.1625 12.502 5.03466 72 31 112 255 
11.1704 12.5324 4.85514 65 66 135 255 
11.302 12.6892 4.73485 72 23 105 255 
11.7239 13.1624 4.73294 72 32 113 255 
9.51987 10.6735 3.7121 72 40 120 255 
9.60038 10.7672 3.59138 72 31 112 255 
7.48298 8.38965 2.68443 70 50 126 255 
7.44435 8.3431 2.5609 51 98 141 255 
7.29936 8.18675 2.41957 57 85 140 255 
7.30223 8.18686 2.30581 61 78 138 255 
7.16256 8.02195 2.15477 55 91 141 255 
7.21316 8.07267 2.06513 50 102 142 255 
12.8921 14.4594 3.5345 72 32 113 255 
7.45823 8.35882 1.93299 46 110 142 255 
15.465 17.3084 3.77597 72 28 110 255 
15.6852 17.5234 3.60716 72 27 109 255 
17.4897 19.6091 3.81446 72 20 103 255 
15.6246 17.5051 3.17662 72 33 115 255 
15.5066 17.3366 2.92601 72 32 113 255 
15.3551 17.1427 2.68318 72 22 104 255 
15.3029 17.1572 2.49347 72 27 109 255 
15.8502 17.7392 2.35348 72 37 118 255 
16.0711 17.9615 2.15527 72 29 111 255 
16.1288 17.9875 1.93535 72 31 112 255 
16.1936 18.1496 1.75634 72 28 110 255 
25.8967 28.9729 2.43803 70 7 90 255 
25.939 28.9596 2.07152 70 7 90 255 
30.8165 34.3437 2.0227 70 7 90 255 
0 0 0 69 4 87 255 
0 0 0 68 2 86 255 
13.7815 15.381 0.353271 70 11 94 255 
13.8128 15.383 0.162379 71 17 100 255 
13.7859 15.4348 -0.00361196 71 46 124 255 
13.8037 15.4216 -0.198683 72 33 115 255 
13.8465 15.4427 -0.391011 72 28 110 255 
11.1146 12.3694 -0.470309 72 22 104 255 
10.2819 11.4995 -0.560248 72 28 110 255 
9.5617 10.675 -0.653279 72 36 117 255 
8.92248 9.94752 -0.735398 71 44 122 255 
8.38963 9.33353 -0.809368 72 38 119 255 
7.80415 8.72531 -0.849381 68 59 132 255 
7.12198 7.94561 -0.873509 71 46 124 255 
6.59076 7.34019 -0.90125 68 58 131 255 
6.15174 6.84386 -0.928245 67 61 132 255 
5.74137 6.4123 -0.938063 62 76 138 255 
5.42556 6.05088 -0.963345 49 103 142 255 
5.15206 5.73588 -0.987673 53 95 141 255 
4.8171 5.3553 -0.991817 56 89 140 255 
4.59797 5.12988 -1.00621 51 98 141 255 
4.35676 4.85548 -1.01457 61 78 138 255 
4.14328 4.61117 -1.02293 56 89 140 255 
3.96838 4.41176 -1.03777 59 82 139 255 
3.80595 4.24029 -1.04575 58 83 139 255 
3.64812 4.06145 -1.05328 56 88 140 255 
3.48336 3.87673 -1.05751 56 89 140 255 
3.35605 3.73232 -1.06963 59 82 139 255 
3.2285 3.59316 -1.07179 56 89 140 255 
3.11301 3.46328 -1.07852 59 81 139 255 
2.99864 3.33493 -1.08416 60 79 138 255 
2.89166 3.21812 -1.09154 63 72 137 255 
2.79159 3.10147 -1.09082 64 70 136 255 
2.70472 3.00483 -1.0969 63 71 136 255 
2.60945 2.90108 -1.09974 65 66 135 255 
2.52937 2.8169 -1.10921 68 58 131 255 
11.0316 12.2038 4.94173 72 32 113 255 
11.2136 12.4265 4.8407 63 71 136 255 
11.9757 13.2806 4.98286 72 20 103 255 
9.58792 10.6323 3.84423 69 55 129 255 
9.55534 10.5818 3.70054 64 70 136 255 
9.64741 10.6872 3.58437 66 64 134 255 
7.56104 8.37318 2.69395 52 96 141 255 
7.48886 8.29003 2.55867 58 84 140 255 
7.3475 8.13963 2.41892 57 86 140 255 
7.78586 8.62199 2.44177 52 97 141 255 
7.44243 8.23316 2.22373 70 51 127 255 
7.20852 7.96853 2.04976 50 101 142 255 
7.1752 7.94875 1.95374 70 48 126 255 
7.50343 8.30632 1.93146 48 106 142 255 
15.5576 17.1985 3.77276 72 31 112 255 
11.5617 12.7583 2.64082 72 26 108 255 
15.8004 17.4977 3.42254 72 35 116 255 
15.533 17.1891 3.13651 71 13 96 255 
15.2623 16.8543 2.86036 72 35 116 255 
15.4607 17.0488 2.68329 72 28 110 255 
15.4179 17.0741 2.49509 72 29 111 255 
15.4561 17.0859 2.27935 72 41 121 255 
16.1342 17.8109 2.14904 72 28 110 255 
16.0559 17.6867 1.91355 72 33 115 255 
25.9644 28.7434 2.79688 70 7 90 255 
30.694 33.9188 2.87002 70 8 92 255 
30.6997 33.8544 2.43509 69 5 89 255 
30.7546 33.8545 2.00497 69 5 89 255 
30.9354 34.2225 1.65934 71 13 96 255 
30.8037 34.0162 1.21772 69 4 87 255 
0 0 0 68 2 86 255 
21.8017 23.9824 0.254561 69 4 87 255 
21.7283 24.0287 -0.00565417 70 10 93 255 
18.2867 20.1796 -0.261424 71 16 99 255 
15.6822 17.2755 -0.439847 72 24 106 255 
10.9622 12.0503 -0.460725 72 27 109 255 
10.3549 11.4392 -0.560393 72 29 111 255 
9.60286 10.5895 -0.651639 72 32 113 255 
8.99812 9.90885 -0.736607 72 35 116 255 
8.48503 9.32394 -0.813036 71 45 123 255 
7.81068 8.62551 -0.844316 70 50 126 255 
7.16725 7.89807 -0.873101 71 47 125 255 
6.63166 7.29519 -0.900704 69 55 129 255 
6.1963 6.80893 -0.928647 68 58 131 255 
5.78929 6.38653 -0.939471 59 81 139 255 
5.44523 5.99836 -0.960284 59 81 139 255 
5.18115 5.69756 -0.98653 57 86 140 255 
4.86054 5.33737 -0.993999 47 108 142 255 
4.61739 5.08838 -1.00361 50 100 142 255 
4.3858 4.82793 -1.01441 59 81 139 255 
4.19473 4.61121 -1.02863 54 92 141 255 
3.99338 4.38514 -1.03726 63 72 137 255 
3.83322 4.21831 -1.04611 54 93 141 255 
3.65448 4.01865 -1.04797 57 85 140 255 
3.50049 3.84803 -1.05552 54 92 141 255 
3.38284 3.716 -1.07088 61 77 138 255 
3.24983 3.57256 -1.07157 60 79 138 255 
3.13945 3.44988 -1.08032 56 88 140 255 
3.01316 3.31 -1.08205 59 81 139 255 
2.89178 3.1788 -1.0842 63 71 136 255 
2.80862 3.08213 -1.09006 66 65 134 255 
2.73026 2.99603 -1.09978 65 66 135 255 
2.65637 2.91703 -1.11195 66 65 134 255 
2.53886 2.79281 -1.10584 69 56 130 255 
10.7797 11.7791 4.79645 72 40 120 255 
11.2572 12.322 4.8268 66 65 134 255 
11.4672 12.5609 4.73914 71 42 122 255 
12.0011 13.1452 4.77936 72 36 117 255 
9.58025 10.4794 3.68522 66 63 133 255 
9.66894 10.5798 3.56818 72 33 115 255 
7.65822 8.37688 2.71021 68 59 132 255 
7.47512 8.17343 2.53679 57 86 140 255 
7.4309 8.13116 2.42991 55 90 140 255 
7.82541 8.55961 2.43765 52 97 141 255 
7.6113 8.31682 2.25889 72 36 117 255 
7.25794 7.92487 2.04995 57 85 140 255 
7.32935 8.02004 1.98228 53 94 141 255 
7.59017 8.29939 1.94064 58 84 140 255 
7.4268 8.10952 1.78891 69 53 129 255 
15.5776 16.9793 3.53424 72 26 108 255 
15.8574 17.3456 3.41176 71 17 100 255 
11.0823 12.1136 2.22275 70 11 94 255 
10.8927 11.8815 2.02772 72 32 113 255 
15.5777 16.9676 2.68549 72 29 111 255 
15.5726 17.0342 2.50318 72 36 117 255 
15.5593 16.9893 2.27915 71 46 124 255 
16.1416 17.6007 2.13559 72 26 108 255 
15.9982 17.4073 1.89391 71 13 96 255 
15.742 17.2135 1.68432 70 8 92 255 
25.9935 28.3725 2.41417 70 8 92 255 
32.629 35.5412 2.57077 69 4 87 255 
43.5467 47.349 2.81992 70 7 90 255 
30.9997 33.8735 1.65161 70 8 92 255 
31.0004 33.814 1.21727 70 8 92 255 
0 0 0 68 2 86 255 
22.2099 24.1322 0.257592 69 5 89 255 
17.6145 19.2408 -0.00455287 69 4 87 255 
15.6041 17.0084 -0.221577 71 16 99 255 
15.6458 17.0244 -0.435889 72 27 109 255 
10.9892 11.9321 -0.458775 72 27 109 255 
10.4364 11.388 -0.56101 72 27 109 255 
9.69941 10.5649 -0.65378 72 37 118 255 
9.07834 9.87477 -0.738201 72 32 113 255 
8.56575 9.29739 -0.815289 72 41 121 255 
7.86952 8.58403 -0.844967 70 50 126 255 
7.22772 7.86716 -0.87457 71 47 125 255 
6.68236 7.26096 -0.901523 69 55 129 255 
6.23257 6.76493 -0.927844 68 57 131 255 
5.82837 6.35089 -0.939471 62 74 137 255 
5.48865 5.97215 -0.961461 59 82 139 255 
5.21332 5.66274 -0.986021 55 90 140 255 
4.8932 5.30744 -0.993999 48 105 142 255 
4.62844 5.03809 -0.999273 53 94 141 255 
4.40531 4.79002 -1.01211 61 77 138 255 
4.2283 4.59119 -1.02993 50 102 142 255 
4.01554 4.35548 -1.03605 59 81 139 255 
3.86103 4.19688 -1.04665 54 93 141 255 
3.68372 4.00121 -1.0493 58 84 140 255 
3.53532 3.83874 -1.0589 53 94 141 255 
3.40757 3.69733 -1.07151 59 82 139 255 
3.28095 3.5626 -1.0746 58 83 139 255 
3.14076 3.40906 -1.07355 59 81 139 255 
3.03736 3.29573 -1.08346 62 73 137 255 
2.92962 3.18097 -1.09105 63 71 136 255 
2.83732 3.07551 -1.09385 62 76 138 255 
2.73092 2.96006 -1.09271 65 66 135 255 
2.66704 2.8929 -1.10896 67 62 133 255 
2.5475 2.768 -1.10218 69 55 129 255 
11.3426 12.2424 5.01337 67 61 132 255 
11.3502 12.2718 4.83431 71 16 99 255 
11.9299 12.9077 4.89751 72 40 120 255 
7.64814 8.27472 3.02554 72 24 106 255 
7.52799 8.13373 2.87652 68 59 132 255 
9.65855 10.4391 3.54064 72 38 119 255 
9.74635 10.5305 3.42626 71 45 123 255 
7.54103 8.14458 2.54215 61 78 138 255 
7.83015 8.46316 2.54343 52 97 141 255 
7.85851 8.49061 2.43169 59 81 139 255 
7.74749 8.36202 2.28404 62 76 138 255 
7.41062 7.99255 2.07918 57 85 140 255 
7.34235 7.93593 1.97258 50 101 142 255 
7.70388 8.32063 1.95662 54 92 141 255 
15.8655 17.112 3.7962 71 16 99 255 
15.6176 16.8146 3.51983 72 23 105 255 
15.735 17.0011 3.36292 72 26 108 255 
15.8162 17.0764 3.15113 72 28 110 255 
10.9957 11.8472 2.03334 72 41 121 255 
15.71 16.9022 2.69036 72 36 117 255 
15.7356 17.0018 2.51256 72 22 104 255 
15.5631 16.7855 2.26458 72 35 116 255 
15.6515 16.8576 2.05703 72 29 111 255 
15.6369 16.806 1.83889 71 19 101 255 
15.4842 16.7242 1.64572 72 41 121 255 
15.5251 16.7387 1.43235 72 35 116 255 
15.4742 16.6491 1.21111 72 27 109 255 
43.8936 47.1424 2.8236 70 7 90 255 
43.8312 47.3084 2.31974 70 8 92 255 
43.9262 47.3267 1.71339 69 4 87 255 
24.0356 25.8515 0.603818 70 8 92 255 
21.9662 23.5756 0.253084 69 4 87 255 
15.4116 16.6284 -0.00395701 71 17 100 255 
18.4887 19.9061 -0.2608 71 19 101 255 
15.797 16.9786 -0.43719 72 24 106 255 
13.414 14.3867 -0.556308 72 29 111 255 
10.4368 11.249 -0.557308 72 27 109 255 
9.78921 10.5323 -0.655464 72 33 115 255 
9.13196 9.81157 -0.737651 72 33 115 255 
8.61787 9.23955 -0.814838 72 40 120 255 
7.92272 8.53632 -0.845039 71 44 122 255 
7.25956 7.80515 -0.872612 70 48 126 255 
6.72883 7.22201 -0.901796 69 56 130 255 
6.25428 6.70546 -0.924934 68 59 132 255 
5.85775 6.30481 -0.937955 62 73 137 255 
5.52046 5.93327 -0.960637 58 83 139 255 
5.25 5.63282 -0.986403 55 90 140 255 
4.91824 5.26935 -0.992499 51 98 141 255 
4.65522 5.00525 -0.998406 53 94 141 255 
4.4427 4.77157 -1.01395 54 92 141 255 
4.25437 4.56299 -1.02944 53 95 141 255 
4.04421 4.33292 -1.03657 59 82 139 255 
3.89609 4.18319 -1.04918 55 91 141 255 
3.71959 3.99074 -1.05252 60 80 139 255 
3.58019 3.83991 -1.06527 55 90 140 255 
3.41951 3.66491 -1.06817 62 74 137 255 
3.30541 3.54526 -1.07547 59 81 139 255 
3.19683 3.42748 -1.08551 57 86 140 255 
3.06548 3.28556 -1.08628 61 77 138 255 
2.95768 3.17215 -1.09423 62 76 138 255 
2.83632 3.03683 -1.08626 60 79 138 255 
2.75364 2.94819 -1.09454 65 68 135 255 
2.67357 2.86452 -1.10435 67 62 133 255 
2.56771 2.75583 -1.10359 67 62 133 255 
9.33659 9.95407 4.09965 71 47 125 255 
9.5061 10.1522 4.02224 72 33 115 255 
9.46175 10.1121 3.85874 69 56 130 255 
7.68953 8.21776 3.02191 66 63 133 255 
7.60026 8.1114 2.88507 59 81 139 255 
7.6308 8.14662 2.77893 62 73 137 255 
7.56358 8.07218 2.64146 72 22 104 255 
7.57353 8.07967 2.53634 58 84 140 255 
