ply
format ascii 1.0
comment VTK generated PLY File
obj_info vtkPolyData points and polygons: vtk4.0
element vertex 1231
property float x
property float y
property float z
property uchar red
property uchar green
property uchar blue
property uchar alpha
element face 0
property list uchar int vertex_indices
end_header
-14.3914 37.9925 6.2313 70 10 93 255 
-11.2226 29.4699 4.5779 69 5 89 255 
-11.0967 29.171 4.22534 69 4 87 255 
-11.0691 29.1896 3.92714 69 5 89 255 
-11.0481 29.1972 3.6396 69 5 89 255 
-0 0 0 68 2 86 255 
-7.37474 19.4173 2.05488 71 45 123 255 
-6.09743 16.0876 1.53847 69 55 129 255 
-5.90897 15.6405 1.33934 69 56 130 255 
-5.72326 15.0367 1.16175 65 66 135 255 
-5.45818 14.3786 0.964918 56 89 140 255 
-5.19671 13.7328 0.782362 61 77 138 255 
-5.05215 13.3866 0.627214 59 82 139 255 
-4.38915 11.5438 0.444221 70 48 126 255 
-4.25225 11.2136 0.318231 66 64 134 255 
-4.26183 11.2682 0.206079 65 66 135 255 
-4.23625 11.2366 0.0943175 65 68 135 255 
-4.26565 11.2248 -0.00209579 62 76 138 255 
-3.82315 10.0927 -0.103604 62 73 137 255 
-3.81852 10.1068 -0.203676 66 64 134 255 
-3.80836 10.1123 -0.305605 70 51 127 255 
-3.82092 10.0704 -0.391186 66 65 134 255 
-3.8275 10.1148 -0.492987 61 78 138 255 
-3.41025 9.03096 -0.531258 70 51 127 255 
-3.37556 8.96784 -0.617967 67 62 133 255 
-3.39294 8.94711 -0.694297 65 66 135 255 
-3.3789 8.93872 -0.782291 68 59 132 255 
-3.38002 8.96509 -0.875321 63 72 137 255 
-3.37881 8.97648 -0.967487 62 73 137 255 
-3.37893 8.92424 -1.04002 58 84 140 255 
-3.15801 8.35878 -1.05916 54 92 141 255 
-2.97854 7.90441 -1.08208 50 101 142 255 
-2.77988 7.39312 -1.08757 53 95 141 255 
-2.64273 6.99086 -1.09163 51 98 141 255 
-2.50199 6.62939 -1.10201 56 89 140 255 
-2.37027 6.29351 -1.10971 50 100 142 255 
-2.24447 5.96918 -1.1153 52 97 141 255 
-2.15096 5.70199 -1.1185 54 92 141 255 
-2.06592 5.48264 -1.13038 55 90 140 255 
-1.95125 5.18092 -1.12333 56 89 140 255 
-1.86827 4.96606 -1.1307 60 80 139 255 
-1.79824 4.77451 -1.132 63 71 136 255 
-1.74241 4.629 -1.14553 60 79 138 255 
-1.67232 4.44503 -1.14808 63 71 136 255 
-1.5976 4.2421 -1.14365 63 71 136 255 
-1.55206 4.13179 -1.15379 58 84 140 255 
-1.48673 3.95813 -1.14717 65 68 135 255 
-1.434 3.81358 -1.1483 63 72 137 255 
-1.39748 3.70679 -1.16067 66 63 133 255 
-4.06099 10.8812 3.48888 67 61 132 255 
-4.10189 10.9621 3.38493 66 65 134 255 
-4.0297 10.7574 3.20085 57 85 140 255 
-4.0697 10.8648 3.11527 61 77 138 255 
-4.20424 11.2471 3.11644 62 76 138 255 
-4.77179 12.7591 3.39134 72 41 121 255 
-4.51861 12.0882 3.08159 72 37 118 255 
-4.09318 10.9566 2.67878 68 58 131 255 
-4.21686 11.2748 2.65545 61 77 138 255 
-4.10454 10.9808 2.46398 54 93 141 255 
-4.31047 11.5498 2.47009 68 57 131 255 
-4.12806 11.0735 2.25438 62 76 138 255 
-4.24915 11.3612 2.2131 58 83 139 255 
-4.23951 11.3479 2.09027 72 41 121 255 
-14.3705 38.5466 6.69241 69 5 89 255 
-14.2693 38.3794 6.28027 70 11 94 255 
-10.92 29.2128 4.52747 66 63 133 255 
-10.9022 29.1977 4.21944 68 58 131 255 
-10.8819 29.2356 3.92427 67 62 133 255 
-10.8622 29.2467 3.6374 69 55 129 255 
-10.9172 29.2054 3.38163 69 55 129 255 
-10.8874 29.2044 3.0835 71 42 122 255 
-6.20385 16.6764 1.59111 70 52 128 255 
-5.83403 15.7334 1.34421 68 57 131 255 
-5.70733 15.2762 1.17752 62 76 138 255 
-5.37264 14.4193 0.965419 59 81 139 255 
-5.11861 13.7813 0.783319 63 72 137 255 
-4.96922 13.4155 0.627127 58 83 139 255 
-4.32627 11.592 0.445048 67 61 132 255 
-4.22207 11.3435 0.321176 64 69 136 255 
-4.20583 11.3298 0.206729 61 78 138 255 
-4.18665 11.3149 0.0947573 67 62 133 255 
-4.21451 11.2986 -0.00210469 64 69 136 255 
-3.7831 10.175 -0.104209 67 62 133 255 
-3.7686 10.1628 -0.204336 67 61 132 255 
-3.75768 10.1664 -0.306538 68 59 132 255 
-3.78103 10.1526 -0.393473 63 71 136 255 
-3.78241 10.184 -0.495219 61 78 138 255 
-3.36553 9.08073 -0.532962 69 55 129 255 
-3.33084 9.01647 -0.619898 71 46 124 255 
-3.3505 9.00141 -0.696902 68 58 131 255 
-3.34687 9.02096 -0.787676 67 61 132 255 
-3.34465 9.0389 -0.880506 66 64 134 255 
-3.33436 9.02598 -0.970598 66 64 134 255 
-3.32653 8.95132 -1.04078 62 74 137 255 
-3.10286 8.36775 -1.05787 52 97 141 255 
-2.93068 7.92439 -1.08234 50 102 142 255 
-2.73789 7.41933 -1.08894 52 97 141 255 
-2.5991 7.00509 -1.09134 51 99 141 255 
-2.45818 6.63628 -1.10063 54 92 141 255 
-2.32887 6.30053 -1.10841 50 100 142 255 
-2.21803 6.01057 -1.12046 48 105 142 255 
-2.11389 5.70955 -1.11741 52 96 141 255 
-2.02951 5.48784 -1.12886 58 84 140 255 
-1.92961 5.22038 -1.1293 55 90 140 255 
-1.84047 4.98477 -1.13237 62 76 138 255 
-1.76959 4.78729 -1.13244 59 81 139 255 
-1.70554 4.61676 -1.13989 59 81 139 255 
-1.64367 4.45156 -1.14714 64 70 136 255 
-1.57087 4.25 -1.14316 63 72 137 255 
-1.51965 4.12218 -1.14848 61 78 138 255 
-1.4751 4.00159 -1.15713 64 69 136 255 
-1.4169 3.83946 -1.15345 62 73 137 255 
-1.36871 3.6991 -1.15561 68 58 131 255 
-3.91675 10.6946 3.42127 56 88 140 255 
-4.0372 10.9942 3.38715 62 76 138 255 
-3.87654 10.545 3.13053 67 61 132 255 
-3.92566 10.6793 3.0551 58 84 140 255 
-4.66317 12.712 3.51438 70 50 126 255 
-4.65964 12.6961 3.36694 69 55 129 255 
-4.24974 11.5852 2.94665 64 70 136 255 
-4.21108 11.4867 2.80201 72 40 120 255 
-4.1587 11.3307 2.66256 66 63 133 255 
-4.03136 10.9902 2.46049 52 96 141 255 
-4.0571 11.078 2.3638 61 77 138 255 
-4.09345 11.1899 2.27294 71 46 124 255 
-4.17325 11.3704 2.20987 58 83 139 255 
-4.17048 11.3756 2.09061 71 19 101 255 
-0 0 0 69 4 87 255 
-14.2178 38.9713 6.36275 70 7 90 255 
-10.7494 29.3034 4.53121 65 66 135 255 
-10.7399 29.3105 4.22615 67 62 133 255 
-10.6978 29.2897 3.92265 68 57 131 255 
-10.6911 29.3361 3.6403 70 52 128 255 
-10.7515 29.3092 3.38595 69 56 130 255 
-7.1954 19.6689 2.07201 68 59 132 255 
-6.17689 16.9209 1.6108 71 42 122 255 
-5.75647 15.8214 1.34868 68 59 132 255 
-5.63134 15.3596 1.18127 65 66 135 255 
-5.28098 14.4436 0.964855 61 77 138 255 
-5.06438 13.8959 0.788055 62 73 137 255 
-4.87384 13.4101 0.625462 62 76 138 255 
-4.39701 12.0059 0.459894 72 40 120 255 
-4.16405 11.4011 0.322077 63 71 136 255 
-4.15779 11.4146 0.207806 66 65 134 255 
-4.13796 11.3977 0.0952364 70 51 127 255 
-4.16883 11.389 -0.00211674 66 63 133 255 
-3.74836 10.2741 -0.104986 66 63 133 255 
-3.73284 10.2591 -0.205806 69 56 130 255 
-3.71124 10.2335 -0.307866 68 58 131 255 
-3.72758 10.2001 -0.394416 65 68 135 255 
-3.72156 10.2117 -0.495446 67 62 133 255 
-3.31828 9.12467 -0.534336 68 57 131 255 
-3.29994 9.10428 -0.624531 71 47 125 255 
-3.30342 9.04428 -0.698639 69 53 129 255 
-3.3085 9.08815 -0.791755 70 52 128 255 
-3.30951 9.11542 -0.885965 64 70 136 255 
-3.28908 9.07433 -0.973609 67 61 132 255 
-3.27257 8.97437 -1.0411 62 74 137 255 
-3.05146 8.38664 -1.05787 49 103 142 255 
-2.87794 7.93104 -1.08081 51 98 141 255 
-2.68186 7.40711 -1.08471 53 94 141 255 
-2.55674 7.02277 -1.09163 46 110 142 255 
-2.4164 6.64845 -1.10016 52 97 141 255 
-2.29353 6.32397 -1.11003 52 96 141 255 
-2.17977 6.02036 -1.11977 52 96 141 255 
-2.07781 5.71964 -1.11687 57 85 140 255 
-1.98776 5.47804 -1.12432 57 86 140 255 
-1.89454 5.22382 -1.12751 58 83 139 255 
-1.81119 4.99964 -1.1332 60 80 139 255 
-1.73851 4.79347 -1.13135 61 78 138 255 
-1.66921 4.60516 -1.13447 61 77 138 255 
-1.61103 4.44694 -1.14338 63 72 137 255 
-1.55104 4.27688 -1.14781 65 68 135 255 
-1.49696 4.1387 -1.1505 62 73 137 255 
-1.45052 4.01056 -1.15713 62 76 138 255 
-1.38807 3.8336 -1.14911 64 70 136 255 
-1.33223 3.66954 -1.1438 68 59 132 255 
-3.85429 10.7274 3.42414 64 69 136 255 
-3.99311 11.0839 3.40716 61 77 138 255 
-3.83758 10.6402 3.15173 64 69 136 255 
-4.02421 11.1584 3.18503 70 48 126 255 
-4.59721 12.7741 3.52368 70 52 128 255 
-4.13818 11.4928 3.04105 66 63 133 255 
-4.14333 11.5131 2.9218 68 58 131 255 
-4.09664 11.3903 2.77232 68 58 131 255 
-3.99977 11.108 2.60439 67 62 133 255 
-4.12191 11.4539 2.5586 72 41 121 255 
-3.94628 10.9836 2.33846 54 92 141 255 
-4.2281 11.7816 2.3878 68 59 132 255 
-4.11141 11.418 2.21418 54 92 141 255 
-0 0 0 68 1 84 255 
-0 0 0 68 1 84 255 
-25.1148 70.1746 11.4318 69 5 89 255 
-10.5701 29.3707 4.53149 69 5 89 255 
-10.5602 29.3768 4.22628 70 7 90 255 
-0 0 0 69 4 87 255 
-0 0 0 69 4 87 255 
-10.5765 29.3886 3.38756 72 28 110 255 
-7.09945 19.782 2.07929 68 58 131 255 
-6.8641 19.1678 1.82064 72 32 113 255 
-5.67 15.8864 1.35124 67 62 133 255 
-5.55623 15.4474 1.18537 66 65 134 255 
-5.20101 14.5002 0.966483 59 81 139 255 
-5.01936 14.0396 0.79444 58 84 140 255 
-4.7908 13.4378 0.625375 65 68 135 255 
-4.24587 11.8173 0.451662 72 41 121 255 
-4.11256 11.4782 0.323536 64 69 136 255 
-4.10248 11.4813 0.208559 66 64 134 255 
-4.0911 11.4879 0.0957783 68 58 131 255 
-4.12354 11.4831 -0.00212948 64 69 136 255 
-3.69974 10.3374 -0.105399 65 68 135 255 
-3.69335 10.3477 -0.207125 68 59 132 255 
-3.67485 10.3305 -0.3101 68 59 132 255 
-3.69224 10.2989 -0.397356 62 76 138 255 
-3.66186 10.2428 -0.495856 68 59 132 255 
-3.28135 9.19847 -0.537468 66 65 134 255 
-3.26307 9.17796 -0.6282 70 50 126 255 
-3.25997 9.09818 -0.701244 69 53 129 255 
-3.27212 9.16272 -0.796488 66 64 134 255 
-3.26154 9.15807 -0.888149 64 69 136 255 
-3.25501 9.15527 -0.980133 66 64 134 255 
-3.20907 8.97088 -1.03839 59 81 139 255 
-3.00328 8.41455 -1.05904 50 100 142 255 
-2.82523 7.93733 -1.07929 51 98 141 255 
-2.6347 7.41876 -1.08403 53 95 141 255 
-2.51061 7.02993 -1.09033 46 110 142 255 
-2.3749 6.66129 -1.09986 53 95 141 255 
-2.25138 6.32863 -1.10841 52 96 141 255 
-2.13553 6.0132 -1.11598 52 96 141 255 
-2.04069 5.72672 -1.11579 61 78 138 255 
-1.95247 5.48551 -1.12337 52 96 141 255 
-1.86442 5.24089 -1.1287 55 90 140 255 
-1.7808 5.01158 -1.13341 63 71 136 255 
-1.70318 4.78749 -1.12746 62 74 137 255 
-1.63603 4.60155 -1.13109 60 79 138 255 
-1.58111 4.44941 -1.1415 63 72 137 255 
-1.51957 4.2717 -1.14389 66 64 134 255 
-1.47186 4.14872 -1.15076 63 71 136 255 
-1.42266 4.01029 -1.15451 64 69 136 255 
-1.36549 3.84477 -1.14992 65 68 135 255 
-1.31259 3.68578 -1.14633 64 69 136 255 
-3.91954 11.123 3.54267 63 71 136 255 
-4.02488 11.3908 3.49384 57 85 140 255 
-3.9457 11.154 3.29668 72 37 118 255 
-4.0072 11.3285 3.22652 71 47 125 255 
-4.29129 12.1577 3.34631 72 38 119 255 
-4.04755 11.4613 3.02607 61 78 138 255 
-4.04315 11.4549 2.90066 62 74 137 255 
-3.97706 11.2746 2.73816 62 76 138 255 
-3.97577 11.2575 2.63369 69 56 130 255 
-4.02354 11.3996 2.54091 64 70 136 255 
-3.87229 10.9891 2.33453 54 92 141 255 
-4.17726 11.8685 2.40017 62 73 137 255 
-4.1579 11.7732 2.27807 71 42 122 255 
-0 0 0 68 1 84 255 
-0 0 0 68 1 84 255 
-25.3116 72.1162 11.7226 70 7 90 255 
-0 0 0 69 4 87 255 
-0 0 0 69 4 87 255 
-0 0 0 68 2 86 255 
-5.80118 16.5468 2.04429 69 5 89 255 
-0 0 0 68 2 86 255 
-6.9852 19.8459 2.08146 72 28 110 255 
-5.98924 17.0537 1.61632 72 32 113 255 
-5.58888 15.968 1.35523 66 63 133 255 
-5.46068 15.4793 1.18523 66 65 134 255 
-5.11161 14.5309 0.96642 60 80 139 255 
-4.94634 14.1078 0.796568 64 70 136 255 
-4.75738 13.6075 0.6319 61 78 138 255 
-4.16498 11.8195 0.450763 62 76 138 255 
-4.06956 11.5815 0.325738 68 57 131 255 
-4.06105 11.5893 0.210064 68 58 131 255 
-4.03768 11.5619 0.0961867 67 61 132 255 
-4.0736 11.5666 -0.0021403 62 73 137 255 
-3.6528 10.4071 -0.105879 65 68 135 255 
-3.65522 10.4428 -0.208577 66 65 134 255 
-3.62621 10.3953 -0.311372 70 52 128 255 
-3.65218 10.3874 -0.399897 62 73 137 255 
-3.60688 10.2877 -0.496949 68 59 132 255 
-3.23342 9.24293 -0.538896 64 70 136 255 
-3.21556 9.22325 -0.629937 68 59 132 255 
-3.24178 9.22528 -0.709494 68 58 131 255 
-3.24845 9.27575 -0.804565 66 63 133 255 
-3.23287 9.25688 -0.895791 66 63 133 255 
-3.21351 9.21735 -0.984649 66 65 134 255 
-3.14903 8.97633 -1.03677 61 78 138 255 
-2.9493 8.42626 -1.05822 50 101 142 255 
-2.7732 7.94515 -1.07802 53 94 141 255 
-2.5849 7.42263 -1.08225 53 94 141 255 
-2.46416 7.03587 -1.08888 49 103 142 255 
-2.3343 6.67667 -1.10001 50 100 142 255 
-2.20991 6.33487 -1.1071 53 94 141 255 
-2.09924 6.02805 -1.11633 51 98 141 255 
-1.99805 5.71778 -1.11164 62 74 137 255 
-1.9136 5.48255 -1.12034 57 86 140 255 
-1.83094 5.24853 -1.1279 56 89 140 255 
-1.74905 5.01965 -1.13278 60 79 138 255 
-1.6802 4.81628 -1.13179 62 73 137 255 
-1.61289 4.62622 -1.1347 58 83 139 255 
-1.54866 4.44434 -1.13774 59 81 139 255 
-1.49493 4.28552 -1.14512 64 69 136 255 
-1.44956 4.16681 -1.15329 58 83 139 255 
-1.379 3.96425 -1.1388 65 68 135 255 
-1.3539 3.88761 -1.16023 62 74 137 255 
-1.29501 3.70826 -1.15083 65 66 135 255 
-3.9416 11.4085 3.62582 68 57 131 255 
-3.82377 11.0367 3.37799 70 50 126 255 
-3.72282 10.7329 3.16542 65 68 135 255 
-3.76102 10.8437 3.08182 65 66 135 255 
-3.93075 11.3578 3.11946 66 65 134 255 
-3.94127 11.3823 2.99877 60 80 139 255 
-3.94957 11.4124 2.88371 55 90 140 255 
-4.47175 12.9293 3.13332 72 38 119 255 
-3.91109 11.2946 2.63671 64 69 136 255 
-3.86262 11.1615 2.48249 61 77 138 255 
-3.81856 11.0525 2.34298 57 86 140 255 
-4.11845 11.9347 2.40841 59 81 139 255 
-4.08976 11.8106 2.28041 71 13 96 255 
-0 0 0 68 1 84 255 
-0 0 0 68 1 84 255 
-0 0 0 69 4 87 255 
-0 0 0 69 4 87 255 
-0 0 0 68 2 86 255 
-25.9943 75.4518 10.0391 69 5 89 255 
-0 0 0 68 2 86 255 
-5.78822 16.7249 1.91952 69 5 89 255 
-6.91264 20.0313 2.09642 71 17 100 255 
-6.68284 19.4088 1.83561 72 23 105 255 
-5.54936 16.1726 1.36968 70 52 128 255 
-5.31213 15.3579 1.17342 65 68 135 255 
-5.05132 14.6459 0.971993 61 78 138 255 
-4.88208 14.203 0.800239 62 73 137 255 
-4.67477 13.6393 0.632031 66 64 134 255 
-4.06725 11.7721 0.447995 70 52 128 255 
-4.01274 11.6478 0.326905 68 58 131 255 
-4.00448 11.6565 0.210834 71 47 125 255 
-4.00585 11.7009 0.097137 68 58 131 255 
-4.01006 11.6131 -0.00214431 67 62 133 255 
-3.611 10.4936 -0.106532 65 66 135 255 
-3.60373 10.5019 -0.209312 65 68 135 255 
-3.59793 10.5214 -0.314482 66 64 134 255 
-3.61378 10.4833 -0.402728 67 62 133 255 
-3.53102 10.2728 -0.495173 69 53 129 255 
-3.1977 9.32399 -0.542468 66 65 134 255 
-3.17731 9.29663 -0.633606 70 52 128 255 
-3.20818 9.31195 -0.714633 67 62 133 255 
-3.19794 9.31436 -0.806197 63 72 137 255 
-3.19246 9.32459 -0.900431 65 66 135 255 
-3.18585 9.32163 -0.993681 65 66 135 255 
-3.09195 8.98984 -1.03612 56 88 140 255 
-2.89271 8.43011 -1.05645 49 104 142 255 
-2.71509 7.9348 -1.07433 55 90 140 255 
-2.52586 7.39897 -1.07653 54 92 141 255 
-2.42544 7.06396 -1.0909 49 104 142 255 
-2.29938 6.70863 -1.10293 49 103 142 255 
-2.17195 6.35112 -1.10759 48 105 142 255 
-2.06349 6.04455 -1.11702 49 103 142 255 
-1.96102 5.72435 -1.11055 55 91 141 255 
-1.8742 5.47747 -1.11693 57 86 140 255 
-1.79648 5.25318 -1.12651 55 91 141 255 
-1.71695 5.02658 -1.13195 60 79 138 255 
-1.65378 4.83574 -1.13395 60 80 139 255 
-1.59204 4.65815 -1.14011 62 76 138 255 
-1.52042 4.451 -1.13703 58 84 140 255 
-1.47017 4.2992 -1.14634 61 78 138 255 
-1.41959 4.16281 -1.14975 60 80 139 255 
-1.36774 4.011 -1.14979 63 71 136 255 
-1.32349 3.87672 -1.15454 63 72 137 255 
-1.27969 3.73793 -1.15757 64 69 136 255 
-3.58123 10.5752 3.35395 62 76 138 255 
-3.7427 11.0209 3.36604 68 58 131 255 
-3.64263 10.7136 3.15308 64 69 136 255 
-3.78581 11.1354 3.15806 64 70 136 255 
-3.91136 11.5302 3.16016 67 61 132 255 
-3.86605 11.3906 2.99467 62 76 138 255 
-3.98039 11.7339 2.95872 58 83 139 255 
-3.81306 11.2477 2.72008 70 52 128 255 
-3.98798 11.7493 2.73709 70 48 126 255 
-3.70887 10.9338 2.42675 55 91 141 255 
-4.03215 11.9069 2.51881 63 72 137 255 
-4.00203 11.8323 2.38274 65 68 135 255 
-0 0 0 68 1 84 255 
-0 0 0 68 2 86 255 
-0 0 0 68 2 86 255 
-0 0 0 68 2 86 255 
-0 0 0 68 2 86 255 
-0 0 0 68 2 86 255 
-0 0 0 68 2 86 255 
-0 0 0 68 2 86 255 
-0 0 0 69 4 87 255 
-6.62348 19.5822 2.04513 69 56 130 255 
-6.57987 19.4976 1.84015 69 55 129 255 
-5.53104 16.4473 1.39005 70 52 128 255 
-5.16239 15.2268 1.16096 67 61 132 255 
-4.99172 14.7665 0.977942 59 82 139 255 
-4.82066 14.3094 0.804549 62 74 137 255 
-4.6228 13.7624 0.636411 66 65 134 255 
-4.00103 11.8149 0.448678 70 52 128 255 
-3.97062 11.7594 0.329345 65 66 135 255 
-3.97053 11.7927 0.212852 66 64 134 255 
-3.95433 11.7859 0.0976397 69 56 130 255 
-3.96245 11.7076 -0.00215723 67 61 132 255 
-3.56859 10.5809 -0.107194 66 64 134 255 
-3.55994 10.5854 -0.210537 63 71 136 255 
-3.55014 10.5935 -0.31598 68 57 131 255 
-3.5721 10.5725 -0.405305 65 66 135 255 
-3.4692 10.2981 -0.495355 69 53 129 255 
-3.1592 9.39928 -0.54571 66 63 133 255 
-3.14429 9.38787 -0.638497 66 65 134 255 
-3.158 9.35225 -0.716225 66 65 134 255 
-3.15281 9.36971 -0.809297 65 66 135 255 
-3.15894 9.41482 -0.907255 60 79 138 255 
-3.14534 9.391 -0.999 62 73 137 255 
-3.03451 9.00205 -1.03536 59 81 139 255 
-2.83903 8.44205 -1.05575 47 108 142 255 
-2.5257 7.53188 -1.01766 53 95 141 255 
-2.46187 7.3589 -1.06848 55 90 140 255 
-2.37952 7.0712 -1.08975 49 103 142 255 
-2.24968 6.69732 -1.09878 51 98 141 255 
-2.13231 6.36245 -1.10727 51 99 141 255 
-2.02136 6.04215 -1.11426 52 96 141 255 
-1.92742 5.74094 -1.11146 55 91 141 255 
-1.83993 5.487 -1.11655 58 84 140 255 
-1.76577 5.26875 -1.12751 57 86 140 255 
-1.68732 5.04073 -1.13278 58 83 139 255 
-1.62315 4.84302 -1.1333 60 79 138 255 
-1.5594 4.65582 -1.13718 57 86 140 255 
-1.49585 4.46854 -1.13915 56 89 140 255 
-1.44099 4.29986 -1.14414 61 78 138 255 
-1.39218 4.16593 -1.14823 60 80 139 255 
-1.34096 4.01291 -1.14796 63 72 137 255 
-1.29296 3.86469 -1.14857 65 68 135 255 
-1.25643 3.7448 -1.15729 63 71 136 255 
-3.5404 10.6697 3.37696 63 72 137 255 
-3.66985 11.0281 3.36132 68 57 131 255 
-3.64411 10.9377 3.2124 60 79 138 255 
-3.59103 10.7791 3.0507 72 38 119 255 
-3.8207 11.4943 3.14383 54 92 141 255 
-4.06833 12.2327 3.20943 71 42 122 255 
-3.81935 11.4904 2.89137 64 69 136 255 
-3.68774 11.1016 2.67922 71 42 122 255 
-3.86958 11.6346 2.70478 72 27 109 255 
-3.71765 11.1848 2.47735 70 52 128 255 
-4.32709 13.0408 2.75299 71 45 123 255 
-3.94542 11.9051 2.39248 54 92 141 255 
-6.26187 18.8274 3.62011 67 62 133 255 
-6.25577 18.8319 3.42405 65 68 135 255 
-6.24228 18.8347 3.22794 65 68 135 255 
-6.22021 18.8241 3.04076 67 62 133 255 
-6.23878 18.7689 2.8713 72 26 108 255 
-6.23975 18.7946 2.68104 72 27 109 255 
-6.22758 18.8233 2.49415 72 36 117 255 
-6.21164 18.8202 2.31064 72 40 120 255 
-0 0 0 68 2 86 255 
-6.51291 19.6518 2.04818 69 56 130 255 
-6.36818 19.2595 1.81396 72 29 111 255 
-5.55042 16.8464 1.42087 70 51 127 255 
-5.05252 15.209 1.15721 71 46 124 255 
-4.79433 14.4747 0.956652 63 72 137 255 
-4.74404 14.3728 0.806465 65 68 135 255 
-4.54795 13.8199 0.637768 59 81 139 255 
-3.97567 11.9815 0.45407 71 44 122 255 
-3.91095 11.8215 0.330407 67 62 133 255 
-3.90687 11.8434 0.213331 67 61 132 255 
-3.89756 11.8575 0.0980324 70 51 127 255 
-3.92327 11.8304 -0.00217538 66 63 133 255 
-3.51678 10.6425 -0.107597 66 64 134 255 
-3.51088 10.6555 -0.211498 66 64 134 255 
-3.50628 10.6797 -0.317903 69 55 129 255 
-3.52349 10.6435 -0.407192 66 64 134 255 
-3.39812 10.2954 -0.494217 68 57 131 255 
-3.11459 9.45832 -0.548018 69 56 130 255 
-3.10281 9.45629 -0.641844 68 57 131 255 
-3.12249 9.43774 -0.72129 66 65 134 255 
-3.10618 9.422 -0.812153 62 73 137 255 
-3.11511 9.47659 -0.911349 66 65 134 255 
-3.11527 9.49426 -1.00793 65 66 135 255 
-2.97766 9.01578 -1.03482 58 84 140 255 
-2.78624 8.45649 -1.05539 50 101 142 255 
-2.44384 7.43887 -1.00305 53 95 141 255 
-2.45092 7.47836 -1.08362 56 89 140 255 
-2.32556 7.05372 -1.08483 49 104 142 255 
-2.20391 6.69692 -1.09648 54 92 141 255 
-2.08893 6.36229 -1.10499 48 105 142 255 
-1.97842 6.03665 -1.11099 51 98 141 255 
-1.89738 5.76854 -1.11453 53 95 141 255 
-1.80224 5.48606 -1.11409 58 84 140 255 
-1.7328 5.27762 -1.12711 55 91 141 255 
-1.64722 5.02311 -1.12653 64 69 136 255 
-1.59279 4.85103 -1.13287 60 80 139 255 
-1.52564 4.64957 -1.13335 56 89 140 255 
-1.47113 4.48595 -1.14126 60 80 139 255 
-1.4167 4.31507 -1.14585 59 82 139 255 
-1.37141 4.18911 -1.15228 58 84 140 255 
-1.31421 4.01465 -1.14613 64 69 136 255 
-1.26713 3.86614 -1.14667 64 69 136 255 
-1.23163 3.74697 -1.15561 64 69 136 255 
-3.4873 10.7295 3.38905 64 69 136 255 
-3.56251 10.929 3.32437 63 71 136 255 
-3.60921 11.0588 3.24139 61 77 138 255 
-3.47479 10.6476 3.00739 72 38 119 255 
-3.41686 10.4941 2.86446 69 56 130 255 
-4.13747 12.7003 3.32539 71 45 123 255 
-3.73161 11.4609 2.87813 70 48 126 255 
-3.59994 11.0638 2.66471 71 45 123 255 
-3.92244 12.0397 2.79331 66 64 134 255 
-4.06402 12.4822 2.75915 69 56 130 255 
-6.0709 18.6788 3.93528 72 41 121 255 
-6.35829 19.5875 3.92845 70 11 94 255 
-0 0 0 68 1 84 255 
-0 0 0 68 2 86 255 
-0 0 0 68 2 86 255 
-0 0 0 68 2 86 255 
-6.12595 18.8144 2.87244 72 28 110 255 
-6.12308 18.8288 2.6805 72 24 106 255 
-6.11044 18.8564 2.49353 71 17 100 255 
-6.10094 18.873 2.31249 70 10 93 255 
-6.13438 18.8403 2.14897 68 58 131 255 
-6.13011 18.884 1.9642 70 52 128 255 
-6.16887 19.0481 1.79045 71 44 122 255 
-5.58286 17.3013 1.45632 72 41 121 255 
-4.9128 15.0974 1.14641 65 68 135 255 
-4.71559 14.5352 0.958719 58 83 139 255 
-4.67573 14.4634 0.809923 66 63 133 255 
-4.50689 13.9835 0.644031 64 69 136 255 
-3.9064 12.0189 0.454574 71 44 122 255 
-3.87378 11.9546 0.333457 67 62 133 255 
-3.85564 11.9338 0.214528 68 59 132 255 
-3.8569 11.9811 0.0988571 69 55 129 255 
-3.79036 11.6688 -0.00214134 69 55 129 255 
-3.48066 10.7542 -0.108509 66 64 134 255 
-3.48412 10.7967 -0.213873 66 65 134 255 
-3.46333 10.7714 -0.319995 68 59 132 255 
-3.48001 10.7325 -0.409769 66 63 133 255 
-3.32167 10.2752 -0.492259 68 58 131 255 
-3.08101 9.55327 -0.552414 68 57 131 255 
-3.0664 9.5426 -0.646413 66 64 134 255 
-3.08943 9.53357 -0.727152 65 66 135 255 
-3.06577 9.49495 -0.816804 63 72 137 255 
-3.07765 9.55999 -0.917535 61 77 138 255 
-3.07004 9.55393 -1.01225 63 71 136 255 
-2.92045 9.02821 -1.03417 58 83 139 255 
-2.73247 8.46775 -1.05469 49 103 142 255 
-2.48078 7.71056 -1.03761 54 93 141 255 
-2.40711 7.49986 -1.08457 52 96 141 255 
-2.28071 7.06315 -1.08411 50 102 142 255 
-2.16611 6.72066 -1.09817 53 94 141 255 
-2.04834 6.37029 -1.10417 50 101 142 255 
-1.93894 6.04117 -1.10961 50 101 142 255 
-1.86406 5.78663 -1.11579 50 102 142 255 
-1.76734 5.49328 -1.11333 55 90 140 255 
-1.69708 5.27789 -1.12492 59 82 139 255 
-1.62294 5.05361 -1.13112 64 70 136 255 
-1.5627 4.85979 -1.13265 61 77 138 255 
-1.49917 4.66533 -1.13493 57 86 140 255 
-1.44091 4.48656 -1.13915 62 76 138 255 
-1.38812 4.31722 -1.14414 62 76 138 255 
-1.34036 4.18086 -1.14772 60 79 138 255 
-1.2869 4.01436 -1.14377 64 69 136 255 
-1.2425 3.8711 -1.14585 64 69 136 255 
-1.20185 3.73344 -1.14914 66 64 134 255 
-3.49459 10.9806 3.46154 63 71 136 255 
-3.35109 10.4985 3.18712 64 69 136 255 
-3.55712 11.1303 3.25588 65 68 135 255 
-3.37294 10.5547 2.97523 58 84 140 255 
-3.35064 10.5093 2.86296 68 59 132 255 
-3.52184 11.0401 2.88499 62 76 138 255 
-3.64201 11.4234 2.86303 71 46 124 255 
-4.27384 13.4141 3.2244 71 47 125 255 
-3.62739 11.3705 2.63283 58 83 139 255 
-4.1767 13.1009 2.89018 69 55 129 255 
-6.01118 18.8886 3.97163 68 58 131 255 
-6.15438 19.3631 3.8758 70 11 94 255 
-0 0 0 68 1 84 255 
-0 0 0 68 1 84 255 
-0 0 0 68 1 84 255 
-0 0 0 68 2 86 255 
-0 0 0 68 2 86 255 
-0 0 0 68 2 86 255 
-0 0 0 69 4 87 255 
-24.0387 75.9521 9.28806 69 5 89 255 
-0 0 0 68 2 86 255 
-6.28091 19.7606 2.05133 70 52 128 255 
-6.21204 19.5907 1.83783 68 57 131 255 
-4.71778 14.9333 1.25454 71 19 101 255 
-4.715 14.7975 1.12142 66 65 134 255 
-4.61936 14.5419 0.957278 60 79 138 255 
-4.58237 14.4776 0.809125 64 69 136 255 
-4.43544 14.0567 0.646133 66 63 133 255 
-3.84834 12.0922 0.456443 70 51 127 255 
-3.81335 12.0191 0.334598 65 68 135 255 
-3.81672 12.0659 0.216478 66 65 134 255 
-3.80616 12.077 0.0994539 66 63 133 255 
-3.60382 11.3307 -0.0020752 67 61 132 255 
-3.43636 10.844 -0.1092 65 68 135 255 
-3.43287 10.8656 -0.214816 69 55 129 255 
-3.41428 10.8468 -0.321606 69 55 129 255 
-3.43193 10.8098 -0.411911 66 65 134 255 
-3.24921 10.2659 -0.490847 69 55 129 255 
-3.04067 9.63008 -0.555766 68 57 131 255 
-3.02636 9.62026 -0.650403 67 61 132 255 
-3.05048 9.61414 -0.731856 71 46 124 255 
-3.042 9.62287 -0.826187 58 83 139 255 
-3.0366 9.63473 -0.922903 61 77 138 255 
-3.02868 9.62764 -1.01807 61 78 138 255 
-2.865 9.04596 -1.03417 56 89 140 255 
-2.68046 8.48436 -1.05469 50 102 142 255 
-2.50852 7.96404 -1.06963 51 99 141 255 
-2.35154 7.48425 -1.08021 50 101 142 255 
-2.23703 7.07607 -1.08397 52 97 141 255 
-2.12335 6.72912 -1.0974 54 92 141 255 
-2.00921 6.38274 -1.10417 50 102 142 255 
-1.89917 6.0445 -1.10806 51 99 141 255 
-1.82645 5.79139 -1.11453 51 99 141 255 
-1.7336 5.50402 -1.11333 59 81 139 255 
-1.66643 5.29381 -1.12611 56 88 140 255 
-1.59044 5.05881 -1.13007 61 77 138 255 
-1.53197 4.86649 -1.132 60 79 138 255 
-1.4752 4.68931 -1.13854 58 84 140 255 
-1.41073 4.48697 -1.13703 63 72 137 255 
-1.36277 4.32936 -1.14512 60 79 138 255 
-1.31208 4.1807 -1.14545 62 74 137 255 
-1.2608 4.01758 -1.14246 61 77 138 255 
-1.22103 3.88599 -1.14803 64 69 136 255 
-1.16767 3.70505 -1.13817 68 59 132 255 
-3.46247 11.1153 3.49722 71 46 124 255 
-3.42584 10.9645 3.32214 70 51 127 255 
-3.48531 11.1409 3.25266 60 79 138 255 
-3.55925 11.378 3.2011 71 46 124 255 
-3.27946 10.5084 2.85718 58 84 140 255 
-3.44623 11.0365 2.87846 63 72 137 255 
-3.52375 11.2914 2.82448 57 86 140 255 
-3.45375 11.0746 2.6569 68 59 132 255 
-3.56279 11.4093 2.63671 53 95 141 255 
-4.1802 13.3953 2.94941 70 51 127 255 
-5.9532 19.1114 4.01072 69 53 129 255 
-6.06084 19.4821 3.8921 70 48 126 255 
-0 0 0 68 1 84 255 
-0 0 0 68 2 86 255 
-0 0 0 68 2 86 255 
-0 0 0 68 2 86 255 
-0 0 0 68 1 84 255 
-0 0 0 68 2 86 255 
-23.9033 76.9727 10.1391 69 5 89 255 
-24.0377 77.601 9.47149 69 4 87 255 
-0 0 0 68 2 86 255 
-6.14505 19.7522 2.04651 71 13 96 255 
-6.08079 19.5932 1.83454 70 51 127 255 
-5.54356 17.9294 1.50335 72 38 119 255 
-4.62768 14.8376 1.12228 64 70 136 255 
-4.50901 14.5023 0.952833 59 81 139 255 
-4.47779 14.4549 0.806305 64 69 136 255 
-4.37622 14.1714 0.650162 63 72 137 255 
-3.80409 12.2119 0.460073 71 45 123 255 
-3.76681 12.1301 0.337038 67 62 133 255 
-3.7639 12.1578 0.217709 70 52 128 255 
-3.75497 12.1747 0.100067 67 62 133 255 
-3.65699 11.7469 -0.00214728 69 53 129 255 
-3.39731 10.9537 -0.110093 64 69 136 255 
-3.38444 10.9457 -0.215984 66 64 134 255 
-3.35796 10.901 -0.322595 69 56 130 255 
-3.38007 10.8774 -0.413689 65 68 135 255 
-3.17109 10.237 -0.488525 70 51 127 255 
-3.00246 9.71629 -0.559668 69 55 129 255 
-2.99105 9.7159 -0.655616 64 69 136 255 
-3.01155 9.69745 -0.736777 58 83 139 255 
-2.9879 9.65754 -0.827574 60 80 139 255 
-2.98975 9.69315 -0.926724 60 79 138 255 
-2.99033 9.71355 -1.02519 51 99 141 255 
-2.8112 9.06906 -1.03482 59 82 139 255 
-2.62835 8.50065 -1.05469 49 104 142 255 
-2.4485 7.94326 -1.0648 53 94 141 255 
-2.30761 7.50516 -1.08116 57 86 140 255 
-2.18626 7.06603 -1.08035 54 92 141 255 
-2.09251 6.77601 -1.10293 48 106 142 255 
-1.96856 6.39023 -1.10336 49 103 142 255 
-1.858 6.04286 -1.10565 54 93 141 255 
-1.79233 5.80719 -1.11543 48 105 142 255 
-1.69835 5.50986 -1.11238 60 79 138 255 
-1.63074 5.29363 -1.12393 60 79 138 255 
-1.55505 5.05445 -1.12695 61 77 138 255 
-1.49892 4.86553 -1.12962 62 76 138 255 
-1.44439 4.69176 -1.13696 59 82 139 255 
-1.38231 4.49276 -1.13633 61 77 138 255 
-1.32818 4.31169 -1.13827 63 72 137 255 
-1.2847 4.18312 -1.14393 59 82 139 255 
-1.24037 4.03908 -1.14639 59 82 139 255 
-1.19858 3.89801 -1.14938 62 73 137 255 
-1.15199 3.73507 -1.1452 68 59 132 255 
-3.33529 10.943 3.43651 58 84 140 255 
-3.34389 10.9376 3.3077 70 51 127 255 
-3.20654 10.4749 3.05242 61 78 138 255 
-3.20698 10.4771 2.94204 66 63 133 255 
-3.22849 10.5728 2.86924 61 78 138 255 
-3.24858 10.6324 2.76782 59 81 139 255 
-3.5257 11.5463 2.88278 69 53 129 255 
-3.46453 11.3538 2.71874 69 55 129 255 
-3.48359 11.4011 2.62981 49 103 142 255 
-4.2211 13.8241 3.03807 71 44 122 255 
-4.11466 13.5004 2.82784 65 66 135 255 
-5.75927 18.9213 3.77292 70 48 126 255 
-0 0 0 68 1 84 255 
-0 0 0 68 1 84 255 
-0 0 0 68 2 86 255 
-0 0 0 68 2 86 255 
-0 0 0 68 2 86 255 
-0 0 0 68 1 84 255 
-0 0 0 68 2 86 255 
-0 0 0 68 2 86 255 
-25.4605 83.3791 9.45536 69 5 89 255 
-0 0 0 68 2 86 255 
-5.49628 18.1015 1.69167 70 51 127 255 
-4.5561 15.0626 1.26061 72 29 111 255 
-4.53044 14.8457 1.12077 63 71 136 255 
-4.44347 14.6071 0.957905 55 91 141 255 
-4.38728 14.4763 0.805986 65 66 135 255 
-4.33108 14.3367 0.656512 65 66 135 255 
-3.73579 12.257 0.4609 71 44 122 255 
-3.72166 12.2496 0.339717 68 59 132 255 
-3.7072 12.24 0.218769 68 59 132 255 
-3.69059 12.232 0.100349 69 53 129 255 
-3.57931 11.751 -0.00214396 71 45 123 255 
-3.346 11.027 -0.110621 66 64 134 255 
-3.33864 11.037 -0.217379 66 63 133 255 
-3.3135 10.996 -0.324801 68 57 131 255 
-3.33681 10.9754 -0.416629 65 66 135 255 
-3.09981 10.2285 -0.487204 68 59 132 255 
-2.95665 9.7804 -0.562305 69 55 129 255 
-2.95037 9.79714 -0.659864 67 62 133 255 
-2.96793 9.76823 -0.740757 58 83 139 255 
-2.95833 9.77394 -0.835977 60 79 138 255 
-2.95208 9.78377 -0.933639 59 81 139 255 
-2.93211 9.73648 -1.0257 59 82 139 255 
-2.7555 9.08614 -1.03482 47 107 142 255 
-2.57298 8.50616 -1.05339 51 99 141 255 
-2.33614 7.74731 -1.03659 55 91 141 255 
-2.26209 7.52108 -1.08144 54 93 141 255 
-2.13741 7.06131 -1.07761 54 93 141 255 
-2.04604 6.77264 -1.10032 49 104 142 255 
-1.92476 6.38708 -1.10075 51 99 141 255 
-1.8172 6.04188 -1.10341 52 96 141 255 
-1.75382 5.80866 -1.11362 52 96 141 255 
-1.66196 5.51172 -1.11068 60 79 138 255 
-1.59653 5.29791 -1.12273 60 79 138 255 
-1.52373 5.06296 -1.12674 61 78 138 255 
-1.46565 4.86342 -1.12702 59 81 139 255 
-1.41136 4.68654 -1.13357 61 77 138 255 
-1.35388 4.49836 -1.13562 61 78 138 255 
-1.30142 4.31883 -1.13802 63 71 136 255 
-1.26012 4.19463 -1.14494 58 83 139 255 
-1.21834 4.05586 -1.14901 60 79 138 255 
-1.1727 3.89884 -1.14748 62 74 137 255 
-1.1332 3.75585 -1.14942 68 58 131 255 
-3.08997 10.3658 3.24923 60 80 139 255 
-3.2569 10.8916 3.28769 60 79 138 255 
-3.08749 10.3116 2.99927 69 55 129 255 
-3.12324 10.4318 2.92389 68 58 131 255 
-3.33917 11.1804 3.02851 68 59 132 255 
-3.30136 11.0473 2.87049 64 69 136 255 
-3.22265 10.7904 2.68907 54 93 141 255 
-3.27661 10.9788 2.62408 67 62 133 255 
-3.38448 11.3249 2.60741 57 86 140 255 
-3.58396 12.0006 2.63244 70 52 128 255 
-3.5721 11.9834 2.50545 66 63 133 255 
-5.8513 19.6557 3.91215 72 40 120 255 
-0 0 0 68 1 84 255 
-0 0 0 68 2 86 255 
-0 0 0 68 2 86 255 
-0 0 0 68 1 84 255 
-0 0 0 68 2 86 255 
-0 0 0 68 1 84 255 
-0 0 0 68 2 86 255 
-0 0 0 68 2 86 255 
-0 0 0 68 2 86 255 
-24.8936 83.6203 8.63153 69 4 87 255 
-5.38341 18.1291 1.69114 67 61 132 255 
-5.32001 17.9856 1.50248 67 61 132 255 
-4.44297 14.8856 1.12171 66 65 134 255 
-4.34835 14.6159 0.956715 59 81 139 255 
-4.26943 14.4053 0.800559 65 66 135 255 
-4.24416 14.3668 0.656687 68 59 132 255 
-3.71647 12.4674 0.467946 72 36 117 255 
-3.66152 12.323 0.341123 66 63 133 255 
-3.65418 12.3373 0.220104 64 69 136 255 
-3.63754 12.3292 0.100962 68 57 131 255 
-3.4666 11.6366 -0.00211918 71 46 124 255 
-3.28539 11.0713 -0.110861 65 68 135 255 
-3.27851 11.0832 -0.217888 67 62 133 255 
-3.2632 11.0746 -0.326525 68 59 132 255 
-3.29589 11.0848 -0.420004 66 64 134 255 
-3.0316 10.2291 -0.486339 67 62 133 255 
-2.90593 9.82996 -0.564119 70 51 127 255 
-2.90233 9.85622 -0.662631 68 58 131 255 
-2.92641 9.8484 -0.745461 53 95 141 255 
-2.91725 9.85594 -0.841444 52 96 141 255 
-2.9058 9.8485 -0.938097 66 65 134 255 
-2.86079 9.71516 -1.02158 63 72 137 255 
-2.69546 9.08858 -1.03319 57 86 140 255 
-2.52497 8.53607 -1.05516 58 84 140 255 
-2.31633 7.85569 -1.04917 52 97 141 255 
-2.20611 7.50155 -1.07666 57 86 140 255 
-2.10584 7.11415 -1.08368 53 95 141 255 
-1.99633 6.75758 -1.09586 53 94 141 255 
-1.88414 6.39404 -1.09994 56 89 140 255 
-1.78037 6.05386 -1.10358 54 92 141 255 
-1.71648 5.81365 -1.11254 55 90 140 255 
-1.63144 5.53311 -1.11295 60 80 139 255 
-1.56067 5.29633 -1.12035 58 83 139 255 
-1.49015 5.06377 -1.12486 61 78 138 255 
-1.43965 4.88544 -1.13005 60 80 139 255 
-1.38313 4.69698 -1.13402 57 86 140 255 
-1.32186 4.49167 -1.13186 60 80 139 255 
-1.27462 4.32581 -1.13778 63 71 136 255 
-1.23218 4.19486 -1.14292 61 78 138 255 
-1.19126 4.05585 -1.14691 59 82 139 255 
-1.15554 3.92905 -1.15426 62 73 137 255 
-1.11258 3.77102 -1.15195 66 64 134 255 
-3.01372 10.3413 3.2357 58 83 139 255 
-2.96627 10.1461 3.05711 50 101 142 255 
-3.1787 10.8583 3.15254 69 56 130 255 
-3.06948 10.486 2.93374 66 65 134 255 
-3.18586 10.9108 2.95013 72 36 117 255 
-3.23243 11.0636 2.86952 67 61 132 255 
-3.13348 10.7316 2.66956 68 59 132 255 
-3.20918 10.9987 2.62408 65 66 135 255 
-3.3278 11.3895 2.61753 72 40 120 255 
-3.49983 11.9867 2.62463 56 89 140 255 
-3.48177 11.9477 2.49346 61 78 138 255 
-3.49357 12.0045 2.38499 71 16 99 255 
-5.58782 19.1245 3.63519 71 13 96 255 
-0 0 0 68 2 86 255 
-0 0 0 68 1 84 255 
-0 0 0 68 2 86 255 
-0 0 0 68 1 84 255 
-0 0 0 68 2 86 255 
-0 0 0 68 2 86 255 
-0 0 0 69 4 87 255 
-0 0 0 69 4 87 255 
-0 0 0 69 4 87 255 
-5.30928 18.29 1.70307 67 62 133 255 
-5.19294 17.9605 1.49768 70 51 127 255 
-4.36021 14.9423 1.12394 66 64 134 255 
-4.28172 14.7218 0.961912 62 74 137 255 
-4.19763 14.4888 0.803751 64 69 136 255 
-4.13486 14.3197 0.653359 64 70 136 255 
-3.63151 12.4612 0.466867 71 44 122 255 
-3.61623 12.4499 0.344014 67 61 132 255 
-3.62206 12.5103 0.222789 66 64 134 255 
-3.58898 12.4454 0.101732 69 56 130 255 
-3.35375 11.5156 -0.00209335 71 46 124 255 
-3.2486 11.1988 -0.111936 66 63 133 255 
-3.24238 11.2136 -0.220056 69 56 130 255 
-3.23198 11.2222 -0.330285 68 59 132 255 
-3.24371 11.1595 -0.422073 66 65 134 255 
-2.96544 10.236 -0.485792 68 59 132 255 
-2.8705 9.93394 -0.569064 70 52 128 255 
-2.86332 9.94864 -0.667651 70 51 127 255 
-2.8662 9.86713 -0.745534 61 78 138 255 
-2.86753 9.91099 -0.844626 64 69 136 255 
-2.85304 9.89294 -0.940644 65 68 135 255 
-2.82892 9.8291 -1.03172 62 73 137 255 
-2.633 9.08203 -1.03059 57 86 140 255 
-2.46703 8.53232 -1.0528 59 81 139 255 
-2.26342 7.85355 -1.04701 50 102 142 255 
-2.16004 7.51495 -1.07666 52 96 141 255 
-2.05198 7.09176 -1.07833 56 88 140 255 
-1.93646 6.7061 -1.08557 55 91 141 255 
-1.85033 6.42444 -1.1032 49 103 142 255 
-1.73502 6.03627 -1.09841 53 94 141 255 
-1.67996 5.82124 -1.112 51 98 141 255 
-1.60127 5.55623 -1.1156 57 86 140 255 
-1.52326 5.28885 -1.11677 57 85 140 255 
-1.46013 5.07658 -1.1257 63 71 136 255 
-1.4064 4.88292 -1.12746 61 77 138 255 
-1.35374 4.70351 -1.13357 56 88 140 255 
-1.29374 4.49782 -1.13139 59 81 139 255 
-1.25047 4.34193 -1.13998 62 74 137 255 
-1.20535 4.19862 -1.14191 62 73 137 255 
-1.16368 4.0538 -1.14429 60 80 139 255 
-1.12902 3.92774 -1.15182 62 74 137 255 
-1.0966 3.80267 -1.15954 62 73 137 255 
-2.94837 10.3532 3.23369 66 65 134 255 
-2.90132 10.1549 3.05433 51 98 141 255 
-2.91647 10.1941 2.95445 50 100 142 255 
-3.15038 11.0125 3.07559 72 35 116 255 
-3.11089 10.9022 2.9426 66 63 133 255 
-3.34111 11.7019 3.02969 68 57 131 255 
-3.56078 12.4791 3.09878 67 61 132 255 
-3.30227 11.5816 2.75826 72 36 117 255 
-3.445 12.0651 2.76789 58 83 139 255 
-3.43991 12.0559 2.63512 47 107 142 255 
-3.40974 11.9735 2.49445 61 77 138 255 
-3.42334 12.038 2.38743 69 5 89 255 
-0 0 0 68 2 86 255 
-0 0 0 68 1 84 255 
-0 0 0 68 1 84 255 
-0 0 0 68 2 86 255 
-0 0 0 68 2 86 255 
-4.44391 15.5953 2.19538 59 82 139 255 
-4.42207 15.58 2.03733 58 84 140 255 
-4.41823 15.6089 1.89131 57 85 140 255 
-4.43834 15.5543 1.75433 72 31 112 255 
-4.42425 15.5572 1.60013 72 35 116 255 
-4.41337 15.5597 1.44629 70 50 126 255 
-4.39406 15.5545 1.29478 68 57 131 255 
-4.27665 14.9976 1.1261 66 65 134 255 
-4.19731 14.769 0.96329 59 81 139 255 
-4.10566 14.5037 0.803166 67 61 132 255 
-4.04339 14.3323 0.65279 59 81 139 255 
-3.57743 12.5621 0.469815 72 37 118 255 
-3.55642 12.5305 0.345632 67 61 132 255 
-3.55612 12.5708 0.223473 67 61 132 255 
-3.53885 12.5606 0.102493 69 53 129 255 
-3.26414 11.4696 -0.00208131 70 51 127 255 
-3.19155 11.2599 -0.112349 66 64 134 255 
-3.18928 11.2891 -0.221149 64 69 136 255 
-3.17037 11.2678 -0.331048 70 50 126 255 
-3.19347 11.2436 -0.424505 65 66 135 255 
-2.89442 10.2252 -0.484426 68 58 131 255 
-2.8331 10.035 -0.573845 70 51 127 255 
-2.83113 10.0688 -0.674538 71 47 125 255 
-2.84237 10.0141 -0.755303 63 72 137 255 
-2.81018 9.94087 -0.845687 62 73 137 255 
-2.79553 9.92176 -0.941736 67 62 133 255 
-2.70365 9.61544 -1.00753 59 81 139 255 
-2.58237 9.11619 -1.03265 52 96 141 255 
-2.41436 8.54634 -1.05269 55 91 141 255 
-2.21653 7.87207 -1.04765 47 107 142 255 
-2.11657 7.5376 -1.07803 50 100 142 255 
-2.01838 7.13945 -1.08368 56 89 140 255 
-1.87515 6.64653 -1.07404 53 95 141 255 
-1.81248 6.44137 -1.10417 48 106 142 255 
-1.69502 6.03637 -1.09652 50 101 142 255 
-1.64634 5.83901 -1.11344 49 104 142 255 
-1.56715 5.56595 -1.1156 59 82 139 255 
-1.49158 5.30093 -1.11737 59 81 139 255 
-1.42287 5.06378 -1.1209 62 74 137 255 
-1.37959 4.90273 -1.13005 60 79 138 255 
-1.32064 4.69672 -1.12996 58 84 140 255 
-1.26795 4.51223 -1.13304 57 86 140 255 
-1.22223 4.34392 -1.13851 61 77 138 255 
-1.18479 4.22457 -1.14696 62 76 138 255 
-1.13644 4.0525 -1.14194 61 77 138 255 
-1.10307 3.92811 -1.14992 62 73 137 255 
-1.06856 3.7927 -1.15448 64 69 136 255 
-2.83679 10.1985 3.17989 57 85 140 255 
-2.83612 10.1623 3.05127 54 93 141 255 
-2.84065 10.1645 2.94076 56 89 140 255 
-2.88651 10.3294 2.8798 72 40 120 255 
-3.46571 12.4343 3.35033 70 51 127 255 
-3.49761 12.541 3.24132 70 51 127 255 
-3.48466 12.5026 3.09924 69 55 129 255 
-3.38806 12.165 2.89221 71 47 125 255 
-3.36776 12.0748 2.76531 62 76 138 255 
-3.3756 12.1117 2.64273 63 71 136 255 
-3.32307 11.947 2.48462 59 82 139 255 
-5.25506 18.9197 3.74575 70 8 92 255 
-0 0 0 68 2 86 255 
-0 0 0 68 2 86 255 
-0 0 0 69 4 87 255 
-0 0 0 68 2 86 255 
-0 0 0 68 2 86 255 
-4.36647 15.6881 2.20464 65 66 135 255 
-4.34308 15.667 2.0452 70 50 126 255 
-4.32714 15.6529 1.8934 72 31 112 255 
-4.3591 15.6397 1.7609 51 99 141 255 
-4.35934 15.6943 1.61145 57 85 140 255 
-4.34361 15.6796 1.45493 64 70 136 255 
-4.28873 15.5456 1.29183 67 62 133 255 
-4.20917 15.1119 1.13273 66 64 134 255 
-4.11062 14.8089 0.964229 61 78 138 255 
-4.01951 14.5392 0.803751 62 73 137 255 
-3.96068 14.3761 0.653666 66 64 134 255 
-3.51474 12.6358 0.471756 71 45 123 255 
-3.5027 12.6359 0.34794 67 61 132 255 
-3.49463 12.6492 0.224482 67 61 132 255 
-3.4832 12.6602 0.10313 68 58 131 255 
-3.18245 11.4489 -0.00207397 71 46 124 255 
-3.15121 11.3833 -0.113385 65 66 135 255 
-3.14309 11.3923 -0.222789 65 66 135 255 
-3.13349 11.4046 -0.334497 70 52 128 255 
-3.15087 11.3583 -0.428098 65 66 135 255 
-2.83322 10.2485 -0.484699 67 61 132 255 
-2.78819 10.1128 -0.577307 68 57 131 255 
-2.78462 10.1418 -0.67827 70 48 126 255 
-2.79473 10.0813 -0.759066 69 56 130 255 
-2.77698 10.0588 -0.854254 66 65 134 255 
-2.72826 9.91568 -0.939553 69 56 130 255 
-2.71415 9.88514 -1.03403 63 71 136 255 
-2.52665 9.13282 -1.03276 53 94 141 255 
-2.36161 8.56004 -1.05257 57 86 140 255 
-2.17029 7.89317 -1.04866 49 103 142 255 
-2.07081 7.55235 -1.0783 52 96 141 255 
-1.97559 7.15552 -1.08426 50 101 142 255 
-1.85585 6.73603 -1.08664 59 82 139 255 
-1.77057 6.44381 -1.10271 49 104 142 255 
-1.66056 6.05616 -1.09824 54 93 141 255 
-1.60709 5.83667 -1.1111 50 100 142 255 
-1.52177 5.53475 -1.10746 57 86 140 255 
-1.46448 5.32983 -1.12154 51 98 141 255 
-1.39669 5.09034 -1.12486 60 80 139 255 
-1.34405 4.89134 -1.12551 59 81 139 255 
-1.29128 4.70285 -1.12951 56 88 140 255 
-1.24024 4.51992 -1.13304 60 80 139 255 
-1.19889 4.36349 -1.14169 58 84 140 255 
-1.15731 4.22616 -1.14545 58 84 140 255 
-1.10544 4.03706 -1.13565 63 72 137 255 
-1.07513 3.92088 -1.14585 62 73 137 255 
-1.04247 3.78901 -1.15139 63 71 136 255 
-2.72321 10.0281 3.12149 59 82 139 255 
-2.90327 10.655 3.19379 70 52 128 255 
-2.77746 10.1789 2.93995 53 95 141 255 
-2.80782 10.291 2.86424 66 64 134 255 
-2.77075 10.1821 2.73885 70 48 126 255 
-2.80439 10.2992 2.65741 72 38 119 255 
-3.51719 12.9254 3.19865 72 29 111 255 
-3.30875 12.1687 2.88819 70 51 127 255 
-3.44678 12.6577 2.89391 62 76 138 255 
-3.29068 12.0934 2.63429 72 40 120 255 
-3.27463 12.0589 2.50368 57 86 140 255 
-5.14839 18.9866 3.75269 72 20 103 255 
-5.15291 18.9232 3.57829 67 62 133 255 
-0 0 0 68 2 86 255 
-0 0 0 68 2 86 255 
-0 0 0 68 2 86 255 
-0 0 0 68 2 86 255 
-4.37563 16.1029 2.25911 70 11 94 255 
-0 0 0 68 2 86 255 
-0 0 0 68 2 86 255 
-4.26671 15.6795 1.76241 66 65 134 255 
-0 0 0 68 2 86 255 
-5.21171 19.2721 1.78528 68 58 131 255 
-4.18341 15.535 1.28879 70 52 128 255 
-4.10249 15.0864 1.12891 63 71 136 255 
-4.00323 14.7731 0.960284 64 70 136 255 
-3.94272 14.6099 0.806305 66 63 133 255 
-3.88433 14.4445 0.65568 66 63 133 255 
-3.45914 12.7381 0.474775 71 47 125 255 
-3.46531 12.8057 0.352025 68 58 131 255 
-3.44897 12.7892 0.226586 68 59 132 255 
-3.42438 12.7518 0.103703 69 56 130 255 
-3.13807 11.5638 -0.00209125 70 51 127 255 
-3.10243 11.4806 -0.114163 65 66 135 255 
-3.09133 11.4789 -0.224108 66 64 134 255 
-3.0751 11.4671 -0.33577 69 55 129 255 
-3.10332 11.4594 -0.431183 66 64 134 255 
-2.77184 10.2715 -0.484973 68 57 131 255 
-2.74088 10.1847 -0.580439 69 56 130 255 
-2.73319 10.1992 -0.680973 65 66 135 255 
-2.75131 10.1666 -0.764205 65 68 135 255 
-2.74996 10.2046 -0.865187 66 64 134 255 
-2.73917 10.1996 -0.964845 63 71 136 255 
-2.65293 9.89969 -1.03383 62 76 138 255 
-2.47057 9.14816 -1.03276 52 96 141 255 
-2.30801 8.57053 -1.0521 57 86 140 255 
-2.13724 7.96382 -1.05629 50 101 142 255 
-2.017 7.53717 -1.07434 49 104 142 255 
-1.93088 7.16464 -1.08382 50 102 142 255 
-1.82116 6.7721 -1.09064 54 93 141 255 
-1.72052 6.41548 -1.09603 51 99 141 255 
-1.63075 6.09383 -1.10324 54 93 141 255 
-1.56895 5.83788 -1.10947 50 101 142 255 
-1.4916 5.55821 -1.1103 58 83 139 255 
-1.43048 5.33398 -1.12055 50 100 142 255 
-1.3672 5.10543 -1.12632 59 82 139 255 
-1.31148 4.89006 -1.12334 57 85 140 255 
-1.26315 4.71351 -1.13019 58 84 140 255 
-1.21073 4.52088 -1.13139 59 82 139 255 
-1.16733 4.35297 -1.13704 61 78 138 255 
-1.12436 4.20701 -1.13836 60 79 138 255 
-1.08115 4.04563 -1.13618 62 74 137 255 
-1.05056 3.92554 -1.14531 62 73 137 255 
-1.0192 3.79533 -1.15139 62 76 138 255 
-2.66654 10.0631 3.12724 58 83 139 255 
-2.97114 11.1739 3.34381 70 52 128 255 
-2.78238 10.449 3.01296 59 81 139 255 
-2.79407 10.4937 2.91585 65 66 135 255 
-2.68437 10.1091 2.71474 65 68 135 255 
-2.71024 10.1999 2.62746 64 70 136 255 
-2.72863 10.276 2.5388 72 38 119 255 
-5.32612 20.0737 4.75657 72 36 117 255 
-3.22585 12.1397 2.77091 72 31 112 255 
-3.24982 12.2392 2.66165 66 63 133 255 
-0 0 0 68 2 86 255 
-5.01697 18.9618 3.74163 71 13 96 255 
-5.03494 18.9478 3.57704 69 56 130 255 
-0 0 0 68 1 84 255 
-0 0 0 68 1 84 255 
-0 0 0 68 1 84 255 
-4.11835 15.5093 2.32953 71 13 96 255 
-4.32297 16.3037 2.28352 71 46 124 255 
-0 0 0 68 2 86 255 
-0 0 0 69 4 87 255 
-4.16991 15.7035 1.7622 72 29 111 255 
-0 0 0 68 2 86 255 
-5.12335 19.4173 1.79579 68 58 131 255 
-4.07991 15.5296 1.28624 67 61 132 255 
-4.01445 15.1287 1.13021 67 61 132 255 
-3.95613 14.9624 0.970991 63 72 137 255 
-3.84918 14.6193 0.805507 62 73 137 255 
-3.81034 14.5241 0.65822 63 71 136 255 
-3.39909 12.8277 0.477327 72 40 120 255 
-3.39713 12.8664 0.353113 70 50 126 255 
-3.3885 12.8787 0.2278 68 57 131 255 
-3.37344 12.877 0.104551 69 55 129 255 
-3.06987 11.5934 -0.00209317 71 46 124 255 
-3.05003 11.5681 -0.114844 65 68 135 255 
-3.03888 11.5663 -0.225446 64 69 136 255 
-3.02113 11.5486 -0.337607 68 57 131 255 
-3.04009 11.5053 -0.432199 67 62 133 255 
-2.71309 10.3048 -0.485747 66 63 133 255 
-2.68924 10.2428 -0.582802 68 59 132 255 
-2.6968 10.3162 -0.687667 64 69 136 255 
-2.70772 10.2547 -0.76956 63 72 137 255 
-2.70174 10.2762 -0.869838 66 65 134 255 
-2.68915 10.2644 -0.969394 65 66 135 255 
-2.5876 9.89845 -1.03202 63 72 137 255 
-2.41388 9.16122 -1.03254 53 94 141 255 
-2.25436 8.58069 -1.05163 52 96 141 255 
-2.09035 7.98446 -1.0573 50 101 142 255 
-1.96896 7.54269 -1.07339 48 105 142 255 
-1.88084 7.15338 -1.08035 52 96 141 255 
-1.78308 6.79652 -1.09279 54 93 141 255 
-1.67937 6.41923 -1.09489 50 100 142 255 
-1.59582 6.11325 -1.10496 59 82 139 255 
-1.53509 5.855 -1.11091 50 101 142 255 
-1.45846 5.57106 -1.11106 56 88 140 255 
-1.39375 5.32749 -1.11737 51 98 141 255 
-1.32942 5.08912 -1.1209 60 79 138 255 
-1.28318 4.90463 -1.12486 60 79 138 255 
-1.23051 4.70704 -1.1268 58 84 140 255 
-1.18296 4.52822 -1.13139 59 82 139 255 
-1.14575 4.37975 -1.14218 58 83 139 255 
-1.09731 4.20915 -1.1371 60 80 139 255 
-1.06482 4.08488 -1.14534 57 86 140 255 
-1.02913 3.94216 -1.1483 62 74 137 255 
-0.994194 3.79502 -1.14942 63 72 137 255 
-2.62439 10.1553 3.15083 65 68 135 255 
-2.71153 10.4555 3.12378 67 62 133 255 
-2.6567 10.229 2.94479 59 82 139 255 
-2.6687 10.2761 2.85076 59 82 139 255 
-2.70165 10.4318 2.79689 72 41 121 255 
-2.64104 10.191 2.62094 67 61 132 255 
-2.66163 10.2775 2.53509 55 90 140 255 
-5.23582 20.2334 4.78671 72 24 106 255 
-3.27698 12.6442 2.88142 72 22 104 255 
-3.28727 12.6937 2.75606 70 52 128 255 
-0 0 0 68 2 86 255 
-0 0 0 68 1 84 255 
-4.91291 18.9564 3.57291 72 38 119 255 
-0 0 0 68 1 84 255 
-0 0 0 68 1 84 255 
-8.30983 32.3216 5.11867 69 5 89 255 
-4.02211 15.5305 2.32896 72 41 121 255 
-4.28959 16.588 2.31961 72 40 120 255 
-0 0 0 68 2 86 255 
-0 0 0 68 2 86 255 
-4.04008 15.5998 1.74775 70 8 92 255 
-0 0 0 68 2 86 255 
-5.00262 19.4426 1.79526 68 59 132 255 
-3.96896 15.4935 1.28121 67 62 133 255 
-3.99177 15.4244 1.15044 62 73 137 255 
-3.87172 15.0154 0.97287 63 72 137 255 
-3.78052 14.7249 0.81003 63 72 137 255 
-3.72981 14.5811 0.659753 64 69 136 255 
-3.35733 12.9915 0.482647 70 51 127 255 
-3.34704 12.9993 0.35619 68 59 132 255 
-3.3278 12.971 0.229066 67 61 132 255 
-3.31491 12.9779 0.105203 70 52 128 255 
-3.00718 11.645 -0.00209911 71 42 122 255 
-3.00066 11.6709 -0.11568 63 72 137 255 
-2.99886 11.7058 -0.227802 64 69 136 255 
-2.97738 11.6735 -0.340717 69 56 130 255 
-2.98864 11.5982 -0.434994 65 68 135 255 
-2.6662 10.3851 -0.488752 68 57 131 255 
-2.6511 10.3559 -0.588297 68 59 132 255 
-2.63789 10.3499 -0.688825 67 62 133 255 
-2.65918 10.3271 -0.773757 69 56 130 255 
-2.652 10.3447 -0.874243 66 65 134 255 
-2.65077 10.3772 -0.978492 59 81 139 255 
-2.52534 9.90836 -1.03142 64 70 136 255 
-2.3507 9.1489 -1.02951 56 88 140 255 
-2.19551 8.57031 -1.04868 51 99 141 255 
-2.04205 8.00002 -1.05769 55 91 141 255 
-1.9224 7.55367 -1.07325 58 84 140 255 
-1.83765 7.16767 -1.08079 54 92 141 255 
-1.74233 6.81117 -1.0934 56 89 140 255 
-1.64142 6.43515 -1.09587 49 104 142 255 
-1.55682 6.1172 -1.10393 56 88 140 255 
-1.50133 5.87289 -1.11254 47 107 142 255 
-1.41648 5.54946 -1.10499 56 88 140 255 
-1.35377 5.30745 -1.1114 54 93 141 255 
-1.29431 5.08201 -1.11757 58 84 140 255 
-1.25523 4.92093 -1.12681 58 84 140 255 
-1.20016 4.70883 -1.12545 57 85 140 255 
-1.15516 4.53539 -1.13139 59 82 139 255 
-1.11454 4.36979 -1.13778 58 84 140 255 
-1.07432 4.22706 -1.14014 56 88 140 255 
-1.04164 4.09882 -1.14744 58 83 139 255 
-1.00753 3.95866 -1.15128 62 76 138 255 
-0.972552 3.80755 -1.15139 64 69 136 255 
-2.56577 10.1861 3.15544 58 84 140 255 
-2.64756 10.4729 3.12406 67 61 132 255 
-2.59602 10.2535 2.9472 59 82 139 255 
-2.83219 11.1873 3.09867 68 59 132 255 
-2.88801 11.4401 3.06243 58 84 140 255 
-2.56728 10.1628 2.60958 68 57 131 255 
-2.5959 10.2832 2.53253 66 65 134 255 
-0 0 0 68 2 86 255 
-3.20388 12.6821 2.88551 70 50 126 255 
-3.22465 12.7744 2.76923 59 81 139 255 
-0 0 0 68 2 86 255 
-0 0 0 68 1 84 255 
-0 0 0 68 1 84 255 
-0 0 0 68 2 86 255 
-8.03721 31.9556 5.36048 71 16 99 255 
-8.02439 32.0249 5.06379 70 10 93 255 
-3.91972 15.527 2.32479 60 79 138 255 
-0 0 0 68 2 86 255 
-4.27366 17.0296 2.2087 71 45 123 255 
-4.26547 17.0485 2.04892 69 53 129 255 
-4.29177 17.0008 1.90172 69 5 89 255 
-4.28598 17.0415 1.73845 71 14 97 255 
-4.82169 19.2276 1.77263 72 40 120 255 
-3.86827 15.4953 1.27937 68 58 131 255 
-3.87485 15.3606 1.14389 66 65 134 255 
-3.77782 15.0321 0.972432 63 71 136 255 
-3.6964 14.773 0.811413 64 70 136 255 
-3.68546 14.785 0.667942 65 68 135 255 
-3.30049 13.103 0.486026 71 46 124 255 
-3.27865 13.0652 0.357436 70 52 128 255 
