ply
format ascii 1.0
comment VTK generated PLY File
obj_info vtkPolyData points and polygons: vtk4.0
element vertex 1172
property float x
property float y
property float z
property uchar red
property uchar green
property uchar blue
property uchar alpha
element face 0
property list uchar int vertex_indices
end_header
-7.34097 1.73855 -0.27399 50 101 142 255 
-7.4037 1.76035 -0.346903 47 107 142 255 
-7.36304 1.75604 -0.416577 46 111 142 255 
-7.41137 1.77588 -0.491503 47 107 142 255 
-7.44561 1.7647 -0.555206 44 113 142 255 
-7.45587 1.7755 -0.627432 47 108 142 255 
-7.51024 1.7953 -0.70546 54 92 141 255 
-7.42991 1.78032 -0.770678 59 82 139 255 
-7.2617 1.72512 -0.813465 64 69 136 255 
-7.24979 1.72776 -0.883419 61 77 138 255 
-7.24759 1.73385 -0.954636 58 84 140 255 
-7.21995 1.73267 -1.02237 59 81 139 255 
-7.25406 1.72731 -1.08917 59 82 139 255 
-7.16036 1.70909 -1.14488 67 61 132 255 
-7.07757 1.69449 -1.20088 66 64 134 255 
-7.09961 1.70379 -1.27689 67 62 133 255 
-6.99319 1.67035 -1.31959 72 41 121 255 
-6.67792 1.59763 -1.32474 68 58 131 255 
-6.31139 1.51105 -1.31682 67 61 132 255 
-5.97275 1.43226 -1.3089 69 55 129 255 
-5.75354 1.37743 -1.31266 68 59 132 255 
-5.4769 1.31232 -1.30437 68 59 132 255 
-5.24024 1.25653 -1.30269 67 61 132 255 
-5.00808 1.19909 -1.29923 70 50 126 255 
-4.82205 1.15887 -1.29644 68 57 131 255 
-4.63374 1.11371 -1.29303 71 45 123 255 
-4.441 1.06571 -1.28719 71 46 124 255 
-4.32985 1.0351 -1.30434 68 58 131 255 
-17.5629 4.26038 5.4288 58 84 140 255 
-17.5695 4.24603 5.22742 59 81 139 255 
-17.5768 4.24113 5.03816 56 89 140 255 
-17.5545 4.23612 4.84885 54 92 141 255 
-17.5575 4.24938 4.68861 63 72 137 255 
-17.5508 4.24476 4.49538 60 79 138 255 
-17.5402 4.24527 4.3093 61 77 138 255 
-17.5452 4.25005 4.13459 63 71 136 255 
-17.5348 4.24063 3.97962 59 82 139 255 
-17.5345 4.24405 3.79193 58 83 139 255 
-17.5224 4.25068 3.61269 55 91 141 255 
-17.5182 4.25646 3.43901 57 85 140 255 
-17.5385 4.24154 3.29219 52 96 141 255 
-17.4941 4.23751 3.10591 54 93 141 255 
-17.5002 4.25175 2.92977 54 92 141 255 
-17.4802 4.26335 2.75968 57 85 140 255 
-17.4885 4.23266 2.61212 52 97 141 255 
-17.4912 4.24004 2.4366 52 96 141 255 
-17.4833 4.25734 2.26362 52 97 141 255 
-17.484 4.27075 2.09837 61 78 138 255 
-17.4905 4.23315 1.95176 59 82 139 255 
-17.4806 4.24716 1.77971 59 82 139 255 
-17.4768 4.25898 1.60857 60 80 139 255 
-17.4859 4.2809 1.44211 58 84 140 255 
-17.4778 4.2333 1.29852 59 82 139 255 
-17.4551 4.24419 1.12703 63 71 136 255 
-17.4515 4.26251 0.957201 65 66 135 255 
-17.446 4.27757 0.787412 66 64 134 255 
-17.4212 4.22601 0.6448 68 59 132 255 
-16.5367 4.027 0.45163 69 56 130 255 
-16.2861 3.98086 0.28679 71 46 124 255 
-7.41255 1.82021 0.0599488 48 106 142 255 
-7.38743 1.7934 -0.0013268 43 116 142 255 
-7.41821 1.80921 -0.0732992 51 98 141 255 
-7.54483 1.847 -0.146434 53 95 141 255 
-7.47616 1.8386 -0.21774 65 68 135 255 
-7.31851 1.78072 -0.273554 48 105 142 255 
-7.34521 1.79413 -0.344672 47 107 142 255 
-7.35504 1.8019 -0.416742 42 118 142 255 
-7.3858 1.81774 -0.490538 43 116 142 255 
-7.39588 1.80091 -0.552311 46 111 142 255 
-7.41095 1.81293 -0.624576 44 114 142 255 
-7.43235 1.82497 -0.699183 51 98 141 255 
-7.37054 1.81399 -0.76566 54 92 141 255 
-7.21911 1.76187 -0.809889 56 89 140 255 
-7.23519 1.77127 -0.882948 48 106 142 255 
-7.2426 1.77971 -0.955399 47 108 142 255 
-7.20726 1.77646 -1.0221 55 91 141 255 
-7.23756 1.77038 -1.0883 48 106 142 255 
-7.23611 1.77417 -1.15871 54 92 141 255 
-7.18968 1.76804 -1.22172 58 84 140 255 
-7.17031 1.76736 -1.29153 61 77 138 255 
-7.07069 1.73479 -1.3362 67 62 133 255 
-6.63367 1.63014 -1.31792 71 44 122 255 
-6.31342 1.55255 -1.3192 69 56 130 255 
-5.97525 1.47169 -1.3114 70 50 126 255 
-5.72507 1.40781 -1.30811 69 56 130 255 
-5.47347 1.34706 -1.3055 69 55 129 255 
-5.24375 1.29145 -1.30551 68 59 132 255 
-5.00346 1.23049 -1.29997 70 50 126 255 
-4.81767 1.18913 -1.29719 69 55 129 255 
-4.62776 1.14235 -1.29329 71 46 124 255 
-4.43344 1.0927 -1.28692 70 51 127 255 
-4.31223 1.0589 -1.30097 69 56 130 255 
-17.5466 4.37061 5.43197 59 81 139 255 
-17.5562 4.357 5.23131 57 85 140 255 
-17.5551 4.35006 5.0395 56 88 140 255 
-17.5497 4.34909 4.85482 57 86 140 255 
-17.5264 4.35586 4.68735 63 72 137 255 
-17.532 4.35424 4.49731 62 76 138 255 
-17.5412 4.35962 4.31604 59 81 139 255 
-17.5452 4.36422 4.14084 63 72 137 255 
-17.5132 4.34932 3.98069 59 82 139 255 
-17.4901 4.34708 3.78802 59 81 139 255 
-17.5074 4.36096 3.61505 55 91 141 255 
-17.488 4.36292 3.43826 58 83 139 255 
-17.5122 4.34907 3.29219 54 93 141 255 
-17.4965 4.3519 3.11101 54 93 141 255 
-17.4939 4.36406 2.93314 54 93 141 255 
-17.4758 4.37605 2.76317 53 95 141 255 
-17.4689 4.34156 2.61313 50 100 142 255 
-17.4784 4.35064 2.43848 52 96 141 255 
-17.4857 4.37176 2.26737 53 95 141 255 
-17.4585 4.37819 2.09848 60 79 138 255 
-17.4825 4.34494 1.9538 57 86 140 255 
-17.4726 4.35892 1.78158 56 88 140 255 
-17.4542 4.3671 1.60893 62 76 138 255 
-17.4497 4.38568 1.44131 63 72 137 255 
-17.4593 4.34239 1.29909 58 84 140 255 
-17.4462 4.35556 1.12816 61 77 138 255 
-17.4357 4.37218 0.957787 66 64 134 255 
-17.0716 4.29699 0.77169 72 41 121 255 
-16.6036 4.13573 0.615468 71 44 122 255 
-16.5214 4.13082 0.451895 72 38 119 255 
-14.1511 3.55116 0.249573 69 56 130 255 
-7.38767 1.86224 0.0598389 46 110 142 255 
-7.3792 1.83942 -0.00132732 45 113 142 255 
-7.42734 1.8598 -0.0735008 55 91 141 255 
-7.47809 1.87937 -0.145359 49 104 142 255 
-7.47249 1.88639 -0.217966 57 85 140 255 
-7.29872 1.82341 -0.273228 44 113 142 255 
-7.32146 1.836 -0.34408 43 116 142 255 
-7.32351 1.84188 -0.415588 41 122 142 255 
-7.35129 1.85716 -0.488993 44 114 142 255 
-7.35567 1.839 -0.55014 42 118 142 255 
-7.37262 1.85157 -0.622292 41 122 142 255 
-7.38722 1.86202 -0.695999 50 100 142 255 
-7.3477 1.85625 -0.764455 63 72 137 255 
-7.1908 1.80178 -0.807939 56 88 140 255 
-7.20878 1.81176 -0.881065 53 95 141 255 
-7.1748 1.8098 -0.947902 56 88 140 255 
-7.17029 1.81409 -1.01842 62 73 137 255 
-7.216 1.8121 -1.08671 48 106 142 255 
-7.20113 1.81251 -1.15487 54 93 141 255 
-7.17774 1.81188 -1.22156 58 83 139 255 
-7.15742 1.81084 -1.29119 63 72 137 255 
-7.04752 1.77501 -1.33386 68 59 132 255 
-6.65496 1.67874 -1.32417 70 50 126 255 
-6.29902 1.59006 -1.31821 71 44 122 255 
-5.98602 1.51336 -1.31578 68 58 131 255 
-5.73526 1.44769 -1.31244 68 57 131 255 
-5.47644 1.38349 -1.30821 68 57 131 255 
-5.215 1.31836 -1.30034 69 56 130 255 
-4.99581 1.26117 -1.29997 70 52 128 255 
-4.80934 1.21843 -1.29694 69 55 129 255 
-4.62721 1.17239 -1.29512 70 52 128 255 
-4.40332 1.11399 -1.28013 70 52 128 255 
-4.30286 1.08464 -1.30013 68 57 131 255 
-17.5362 4.48246 5.43714 58 84 140 255 
-17.5496 4.46985 5.23742 58 83 139 255 
-17.5393 4.46055 5.04272 57 86 140 255 
-17.5274 4.45789 4.85612 55 90 140 255 
-17.5181 4.4681 4.69238 64 70 136 255 
-17.5134 4.46389 4.49949 61 77 138 255 
-17.5122 4.46668 4.31557 59 82 139 255 
-17.5172 4.47155 4.14062 64 69 136 255 
-17.4994 4.46007 3.98371 60 80 139 255 
-17.4858 4.46012 3.79296 59 81 139 255 
-17.468 4.46514 3.6125 57 86 140 255 
-17.4751 4.47379 3.44107 59 81 139 255 
-17.4909 4.4579 3.29327 54 92 141 255 
-17.4799 4.46186 3.11288 55 91 141 255 
-17.4811 4.47499 2.93555 54 93 141 255 
-17.4773 4.49058 2.76772 54 92 141 255 
-17.4525 4.45135 2.61471 51 98 141 255 
-17.4657 4.46148 2.44049 52 96 141 255 
-17.4672 4.48118 2.26849 54 93 141 255 
-17.4553 4.49142 2.10138 60 80 139 255 
-17.4719 4.45631 1.95564 62 76 138 255 
-17.4551 4.46851 1.78256 58 84 140 255 
-17.4328 4.4756 1.60946 61 77 138 255 
-17.4359 4.49615 1.44243 62 74 137 255 
-17.4545 4.45511 1.30075 58 84 140 255 
-17.4297 4.46525 1.12885 61 77 138 255 
-17.4076 4.47883 0.957733 65 66 135 255 
-17.3922 4.49133 0.787412 68 59 132 255 
-17.3564 4.43651 0.644369 69 53 129 255 
-17.0942 4.38564 0.468288 71 42 122 255 
-14.1639 3.6469 0.250188 51 98 141 255 
-7.36933 1.90578 0.0597839 51 99 141 255 
-7.36487 1.88392 -0.0013268 47 108 142 255 
-7.41482 1.90509 -0.0734912 51 98 141 255 
-7.46254 1.92422 -0.145284 49 104 142 255 
-7.44626 1.92845 -0.217542 51 98 141 255 
-7.28062 1.86643 -0.272974 45 112 142 255 
-7.31006 1.88089 -0.34408 40 124 142 255 
-7.29176 1.88154 -0.414434 39 126 142 255 
-7.32816 1.89923 -0.488221 43 117 142 255 
-7.33845 1.88261 -0.549706 42 119 142 255 
-7.33893 1.89105 -0.620415 40 125 142 255 
-7.35926 1.90307 -0.694452 50 100 142 255 
-7.33906 1.90205 -0.764756 56 89 140 255 
-7.18154 1.84636 -0.808156 56 89 140 255 
-7.17926 1.85124 -0.878828 55 91 141 255 
-7.15203 1.85081 -0.946377 62 76 138 255 
-7.15806 1.85781 -1.01828 58 84 140 255 
-7.19517 1.85388 -1.08527 48 105 142 255 
-7.18222 1.85468 -1.15364 55 91 141 255 
-7.15884 1.85391 -1.22026 65 66 135 255 
-7.13378 1.8515 -1.28895 64 69 136 255 
-6.99935 1.80863 -1.32682 69 56 130 255 
-6.63598 1.71733 -1.32247 66 64 134 255 
-6.26827 1.62328 -1.31383 68 57 131 255 
-5.97283 1.54908 -1.31495 71 47 125 255 
-5.71871 1.4809 -1.31071 66 65 134 255 
-5.45653 1.41413 -1.3055 69 53 129 255 
-5.18517 1.34472 -1.29493 68 59 132 255 
-4.98141 1.2901 -1.29825 70 52 128 255 
-4.79335 1.24573 -1.29467 69 53 129 255 
-4.59938 1.19542 -1.28936 70 50 126 255 
-4.40758 1.14388 -1.28339 69 56 130 255 
-4.28683 1.10862 -1.29731 70 52 128 255 
-17.5241 4.59411 5.44204 61 77 138 255 
-17.5451 4.58352 5.24436 58 84 140 255 
-17.5302 4.57294 5.04809 56 88 140 255 
-17.5184 4.57022 4.8613 59 81 139 255 
-17.5044 4.57918 4.69614 61 78 138 255 
-17.5007 4.57519 4.50335 63 71 136 255 
-17.4977 4.5775 4.31882 62 76 138 255 
-17.4894 4.57895 4.14062 62 73 137 255 
-17.5057 4.57625 3.99146 57 85 140 255 
-17.4799 4.57302 3.79769 59 81 139 255 
-17.4782 4.58219 3.62036 55 91 141 255 
-17.4797 4.58942 3.44744 58 83 139 255 
-17.4613 4.56464 3.29291 57 85 140 255 
-17.4484 4.56803 3.1122 54 93 141 255 
-17.4504 4.58142 2.93506 56 89 140 255 
-17.4695 4.60302 2.7709 56 89 140 255 
-17.4545 4.56612 2.61916 53 95 141 255 
-17.4677 4.57635 2.44465 50 102 142 255 
-17.4423 4.58903 2.26886 52 97 141 255 
-17.4457 4.60325 2.10358 62 74 137 255 
-17.451 4.56519 1.95639 62 73 137 255 
-17.4418 4.57932 1.78404 59 81 139 255 
-17.4205 4.58654 1.61089 60 79 138 255 
-17.4302 4.60891 1.44426 60 80 139 255 
-17.4375 4.5649 1.30154 58 83 139 255 
-17.376 4.56527 1.12716 64 69 136 255 
-17.3933 4.58912 0.958478 65 68 135 255 
-17.3894 4.60461 0.78855 68 57 131 255 
-17.3733 4.55458 0.646022 69 55 129 255 
-17.0611 4.48892 0.468129 70 51 127 255 
-16.705 4.41065 0.295547 70 51 127 255 
-7.40196 1.96275 0.0601452 51 99 141 255 
-7.35704 1.93009 -0.0013275 45 112 142 255 
-7.37785 1.94392 -0.0732416 49 103 142 255 
-7.39936 1.95643 -0.144285 49 103 142 255 
-7.44685 1.97744 -0.21791 56 89 140 255 
-7.24487 1.90471 -0.272066 46 111 142 255 
-7.29355 1.92444 -0.343852 42 119 142 255 
-7.28298 1.92701 -0.414599 39 126 142 255 
-7.29805 1.93929 -0.486998 43 116 142 255 
-7.32676 1.92761 -0.549706 40 124 142 255 
-7.32526 1.93554 -0.620252 42 119 142 255 
-7.33205 1.94411 -0.692996 51 99 141 255 
-7.33013 1.94781 -0.765057 53 95 141 255 
-7.14989 1.88507 -0.80588 58 84 140 255 
-7.15528 1.89196 -0.877298 54 93 141 255 
-7.13287 1.89263 -0.945361 58 83 139 255 
-7.13121 1.89762 -1.0161 57 85 140 255 
-7.17696 1.89622 -1.08426 52 96 141 255 
-7.15733 1.89517 -1.15149 59 81 139 255 
-7.14352 1.89679 -1.2196 59 82 139 255 
-7.12229 1.89524 -1.28895 62 74 137 255 
-6.97291 1.84751 -1.32393 66 64 134 255 
-6.61013 1.75399 -1.31944 62 73 137 255 
-6.2402 1.65693 -1.31006 68 59 132 255 
-5.96889 1.58721 -1.3162 71 46 124 255 
-5.67271 1.50619 -1.30226 70 48 126 255 
-5.43268 1.44358 -1.30189 68 59 132 255 
-5.17306 1.37551 -1.29399 70 52 128 255 
-4.9659 1.31865 -1.2963 70 48 126 255 
-4.7772 1.27287 -1.29239 69 55 129 255 
-4.5789 1.22014 -1.28569 71 46 124 255 
-4.41164 1.17388 -1.28665 70 48 126 255 
-4.28366 1.13589 -1.29844 70 50 126 255 
-17.5122 4.70602 5.44721 61 78 138 255 
-17.5212 4.69233 5.24575 58 84 140 255 
-17.5158 4.68415 5.05212 59 81 139 255 
-17.5199 4.68561 4.8696 58 84 140 255 
-17.5125 4.69628 4.70594 61 77 138 255 
-17.5013 4.69028 4.51084 60 79 138 255 
-17.4927 4.69108 4.32463 62 73 137 255 
-17.4789 4.69098 4.14486 63 71 136 255 
-17.4981 4.68914 3.9962 57 86 140 255 
-17.4638 4.68348 3.80036 61 78 138 255 
-17.4545 4.69062 3.62134 54 92 141 255 
-17.4559 4.69786 3.44838 58 84 140 255 
-17.4491 4.67602 3.29596 57 86 140 255 
-17.4419 4.68088 3.11611 56 88 140 255 
-17.4363 4.69225 2.93747 53 94 141 255 
-17.4476 4.71193 2.77196 54 92 141 255 
-17.4395 4.67672 2.62117 52 97 141 255 
-17.447 4.6855 2.44572 52 97 141 255 
-17.4176 4.697 2.26936 52 97 141 255 
-17.4296 4.71358 2.10508 61 77 138 255 
-17.438 4.6763 1.95812 59 81 139 255 
-17.4249 4.68936 1.78522 57 86 140 255 
-17.3997 4.69542 1.6116 60 79 138 255 
-17.4025 4.71603 1.44434 62 74 137 255 
-17.4159 4.67362 1.30204 59 81 139 255 
-17.4064 4.68763 1.13098 61 78 138 255 
-17.3812 4.70019 0.959383 65 66 135 255 
-17.3657 4.71253 0.788769 71 47 125 255 
-11.4868 3.08682 0.42783 59 81 139 255 
-11.499 3.10104 0.316029 60 79 138 255 
-14.1731 3.83532 0.251163 46 109 142 255 
-7.40232 2.01154 0.0602473 46 111 142 255 
-7.36533 1.98065 -0.00133116 48 105 142 255 
-7.38606 1.99463 -0.0734432 49 103 142 255 
-7.48951 2.02951 -0.146283 55 90 140 255 
-14.1467 3.8496 -0.414644 66 65 134 255 
-7.22532 1.94705 -0.271776 46 109 142 255 
-7.28064 1.96889 -0.343807 41 121 142 255 
-7.27391 1.97245 -0.414764 41 121 142 255 
-7.2889 1.98482 -0.487191 43 116 142 255 
-7.30901 1.97097 -0.549272 41 122 142 255 
-7.31324 1.98045 -0.620252 42 120 142 255 
-7.31421 1.98749 -0.69245 51 99 141 255 
-7.3238 1.99432 -0.76566 52 97 141 255 
-7.15066 1.93228 -0.807289 59 82 139 255 
-7.13204 1.93271 -0.875885 54 92 141 255 
-7.11825 1.93558 -0.944979 59 81 139 255 
-7.11466 1.94003 -1.01542 61 78 138 255 
-7.14609 1.93505 -1.08137 49 103 142 255 
-7.14176 1.93802 -1.15088 52 96 141 255 
-7.10699 1.93385 -1.21537 58 84 140 255 
-7.10387 1.93709 -1.28774 62 73 137 255 
-6.96144 1.89026 -1.32393 66 64 134 255 
-6.59261 1.79271 -1.31811 63 72 137 255 
-6.25166 1.70111 -1.31463 63 71 136 255 
-5.96376 1.62509 -1.31724 68 59 132 255 
-5.64923 1.53712 -1.29901 68 57 131 255 
-5.40962 1.47305 -1.29851 69 53 129 255 
-5.18516 1.41285 -1.29916 68 57 131 255 
-4.93901 1.344 -1.2914 70 52 128 255 
-4.76183 1.30012 -1.29037 69 53 129 255 
-4.57412 1.24897 -1.28648 70 50 126 255 
-4.40714 1.20168 -1.28746 71 45 123 255 
-4.27846 1.16265 -1.299 68 57 131 255 
-17.4987 4.81771 5.45211 59 82 139 255 
-17.5088 4.80433 5.25075 60 79 138 255 
-17.4969 4.79434 5.05507 58 83 139 255 
-17.4898 4.79277 4.86934 58 84 140 255 
-17.4899 4.80544 4.7077 66 64 134 255 
-17.4722 4.79757 4.51084 62 76 138 255 
-17.4871 4.80476 4.33044 61 78 138 255 
-17.4535 4.79917 4.14575 65 68 135 255 
-17.4755 4.79823 3.99771 59 81 139 255 
-17.4744 4.80144 3.809 58 83 139 255 
-17.4377 4.80101 3.62389 55 91 141 255 
-17.4239 4.8041 3.44782 62 76 138 255 
-17.4457 4.79003 3.3008 55 90 140 255 
-17.4233 4.79069 3.11798 54 92 141 255 
-17.4329 4.80623 2.94181 54 92 141 255 
-17.4241 4.82048 2.77287 55 91 141 255 
-17.4363 4.79072 2.62505 52 97 141 255 
-17.4428 4.7993 2.44921 48 105 142 255 
-17.4019 4.80749 2.27111 54 92 141 255 
-17.408 4.82256 2.10601 61 78 138 255 
-17.4138 4.78453 1.95866 59 81 139 255 
-17.4217 4.80333 1.78788 59 82 139 255 
-17.3917 4.80794 1.61356 59 81 139 255 
-17.3829 4.82539 1.44514 62 74 137 255 
-17.4205 4.78965 1.30456 58 84 140 255 
-17.4062 4.80231 1.13285 60 79 138 255 
-17.3568 4.80808 0.959649 67 62 133 255 
-11.5024 3.19733 0.523335 58 83 139 255 
-11.4272 3.1461 0.42632 55 90 140 255 
-11.4643 3.16728 0.315605 56 88 140 255 
-14.0838 3.90405 0.25 72 35 116 255 
-7.38309 2.05505 0.0601923 70 52 128 255 
-7.38389 2.0343 -0.00133675 47 107 142 255 
-7.39874 2.04685 -0.0736928 53 95 141 255 
-7.38925 2.05109 -0.144568 70 52 128 255 
-11.4286 3.1854 -0.335543 72 41 121 255 
-7.2142 1.99161 -0.271812 47 108 142 255 
-7.27709 2.01593 -0.344217 44 115 142 255 
-7.28283 2.02292 -0.415973 40 124 142 255 
-7.31407 2.03996 -0.489701 43 116 142 255 
-7.31505 2.02082 -0.550647 42 119 142 255 
-7.32112 2.03088 -0.621965 41 121 142 255 
-7.31051 2.03474 -0.693269 52 97 141 255 
-7.31718 2.04083 -0.766262 56 89 140 255 
-7.14059 1.97665 -0.807506 59 82 139 255 
-7.10473 1.97219 -0.874002 58 83 139 255 
-7.10433 1.97868 -0.944725 62 76 138 255 
-7.0864 1.97912 -1.0131 62 73 137 255 
-7.11024 1.97225 -1.07775 55 90 140 255 
-7.10307 1.9744 -1.14657 61 77 138 255 
-7.08644 1.97503 -1.21391 61 78 138 255 
-7.08237 1.978 -1.28602 63 71 136 255 
-6.95066 1.9332 -1.32411 66 63 133 255 
-6.55027 1.82443 -1.31186 66 64 134 255 
-6.21184 1.73128 -1.30846 64 69 136 255 
-5.94614 1.65955 -1.31557 66 65 134 255 
-5.65568 1.57621 -1.30269 67 62 133 255 
-5.40705 1.50805 -1.30009 68 57 131 255 
-5.15954 1.43994 -1.29493 70 52 128 255 
-4.94374 1.37792 -1.29483 69 55 129 255 
-4.73886 1.32515 -1.28632 72 40 120 255 
-4.57846 1.28039 -1.28988 71 45 123 255 
-4.39505 1.22741 -1.2861 70 50 126 255 
-4.24629 1.18193 -1.29141 69 55 129 255 
-17.4891 4.93071 5.45843 60 80 139 255 
-17.5003 4.91765 5.25714 59 81 139 255 
-17.4783 4.90473 5.05829 60 80 139 255 
-17.4713 4.90313 4.87245 57 86 140 255 
-17.4815 4.91869 4.71348 63 71 136 255 
-17.4602 4.90968 4.51543 59 81 139 255 
-17.4647 4.91408 4.33229 63 72 137 255 
-17.4388 4.9104 4.14933 63 72 137 255 
-17.4486 4.90616 3.99836 60 80 139 255 
-17.4615 4.91334 3.8127 59 82 139 255 
-17.4456 4.91856 3.63175 52 96 141 255 
-17.4244 4.91946 3.45381 59 82 139 255 
-17.4387 4.90338 3.30511 54 92 141 255 
-17.4202 4.90499 3.12274 59 82 139 255 
-17.4201 4.91794 2.9447 56 88 140 255 
-17.3894 4.92595 2.77211 56 88 140 255 
-17.437 4.90619 2.62965 51 98 141 255 
-17.4311 4.91134 2.45176 48 105 142 255 
-17.4093 4.92471 2.27598 52 97 141 255 
-17.3867 4.93172 2.10705 60 80 139 255 
-17.4271 4.90341 1.96351 60 80 139 255 
-17.4025 4.91311 1.78896 57 85 140 255 
-17.3992 4.92514 1.61703 58 84 140 255 
-17.4028 4.94613 1.4493 61 78 138 255 
-17.4014 4.89942 1.30536 60 80 139 255 
-17.3841 4.91119 1.13336 61 78 138 255 
-17.3789 4.92921 0.962522 63 71 136 255 
-11.4355 3.25444 0.521189 57 85 140 255 
-11.3846 3.20965 0.425457 53 95 141 255 
-11.3889 3.22178 0.314067 57 85 140 255 
-11.476 3.25713 0.204061 71 42 122 255 
-11.2344 3.20144 0.0917493 59 81 139 255 
-7.41362 2.09152 -0.00134443 51 99 141 255 
-7.41875 2.10147 -0.0740191 48 105 142 255 
-11.3687 3.23096 -0.222807 50 100 142 255 
-11.3608 3.24175 -0.33413 67 61 132 255 
-7.24031 2.04671 -0.273264 45 113 142 255 
-7.29822 2.07008 -0.345811 43 117 142 255 
-7.29141 2.07358 -0.417182 42 119 142 255 
-7.32253 2.09083 -0.491117 45 112 142 255 
-7.33322 2.07436 -0.552963 43 116 142 255 
-7.32962 2.08175 -0.62376 44 115 142 255 
-7.32088 2.0861 -0.695453 52 96 141 255 
-7.32174 2.0906 -0.768068 56 88 140 255 
-7.07381 2.00497 -0.80133 61 78 138 255 
-7.09536 2.01656 -0.874355 57 85 140 255 
-7.07393 2.01707 -0.942311 62 73 137 255 
-7.06745 2.02066 -1.01214 60 80 139 255 
-7.09325 2.01449 -1.07703 58 83 139 255 
-7.07847 2.01443 -1.14458 63 72 137 255 
-7.0666 2.01631 -1.2126 62 74 137 255 
-7.04642 2.01464 -1.28171 65 68 135 255 
-6.91975 1.97043 -1.3205 69 56 130 255 
-6.54368 1.86594 -1.31281 63 72 137 255 
-6.19168 1.76667 -1.30648 64 70 136 255 
-5.91985 1.69143 -1.31203 68 59 132 255 
-5.64778 1.61142 -1.30313 63 72 137 255 
-5.41175 1.54521 -1.30347 65 66 135 255 
-5.16089 1.4745 -1.29752 69 55 129 255 
-4.94545 1.41116 -1.29752 69 56 130 255 
-4.73064 1.3542 -1.28632 70 50 126 255 
-4.56773 1.30767 -1.2891 69 56 130 255 
-4.37263 1.25012 -1.28176 70 52 128 255 
-4.23895 1.20797 -1.29141 68 57 131 255 
-17.4778 5.0435 5.46448 58 83 139 255 
-17.4873 5.02998 5.26242 56 89 140 255 
-17.4618 5.01587 5.06232 59 82 139 255 
-17.452 5.01344 4.87557 59 81 139 255 
-17.4659 5.03015 4.7175 62 73 137 255 
-17.4643 5.02666 4.52437 61 77 138 255 
-17.4698 5.03138 4.34112 61 77 138 255 
-17.4308 5.02379 4.15468 65 66 135 255 
-17.4266 5.01556 4.0003 62 76 138 255 
-17.4424 5.02364 3.81517 60 79 138 255 
-17.4406 5.03285 3.63706 52 96 141 255 
-17.4184 5.03337 3.45868 57 86 140 255 
-17.4225 5.01437 3.3078 57 85 140 255 
-17.4352 5.02488 3.1309 55 91 141 255 
-17.4096 5.03049 2.94807 53 95 141 255 
-17.4092 5.04714 2.78015 57 85 140 255 
-17.4152 5.01556 2.63094 52 97 141 255 
-17.3987 5.01766 2.45149 52 96 141 255 
-17.4064 5.03944 2.2796 53 95 141 255 
-17.3904 5.04828 2.11122 62 76 138 255 
-17.4225 5.01767 1.96642 62 76 138 255 
-17.3911 5.02533 1.79093 60 80 139 255 
-17.3878 5.03735 1.61881 60 79 138 255 
-17.3712 5.05254 1.44922 61 77 138 255 
-17.3892 5.01135 1.30673 62 76 138 255 
-17.3747 5.02386 1.13473 62 73 137 255 
-17.355 5.0377 0.962894 67 62 133 255 
-11.4134 3.32399 0.521102 58 84 140 255 
-11.3656 3.27972 0.425493 56 89 140 255 
-11.3737 3.29299 0.314199 62 74 137 255 
-11.451 3.32609 0.203975 62 74 137 255 
-11.2174 3.27115 0.0917728 57 85 140 255 
-11.2427 3.24637 -0.00204238 68 59 132 255 
-11.2733 3.26818 -0.112675 59 82 139 255 
-11.3218 3.29284 -0.22228 50 102 142 255 
-11.3177 3.30468 -0.333451 68 59 132 255 
-7.24394 2.09582 -0.273881 45 112 142 255 
-7.31512 2.12346 -0.347222 43 117 142 255 
-7.3054 2.12609 -0.41872 44 114 142 255 
-7.33351 2.14271 -0.492726 46 111 142 255 
-7.3491 2.12763 -0.555134 43 117 142 255 
-7.34733 2.13559 -0.626371 47 107 142 255 
-7.35192 2.14381 -0.699638 50 101 142 255 
-7.38613 2.15809 -0.776197 61 77 138 255 
-7.07951 2.0536 -0.803388 58 83 139 255 
-7.07332 2.05728 -0.873178 60 79 138 255 
-7.05095 2.05738 -0.940913 63 71 136 255 
-7.03971 2.05954 -1.00996 62 74 137 255 
-7.06935 2.05466 -1.0753 61 78 138 255 
-7.05934 2.05589 -1.1435 57 86 140 255 
-7.04367 2.05659 -1.21081 59 82 139 255 
-7.04716 2.06172 -1.28412 66 65 134 255 
-6.8962 2.00955 -1.31833 67 62 133 255 
-6.53776 1.9077 -1.31394 62 76 138 255 
-6.17602 1.80326 -1.30548 66 64 134 255 
-5.90279 1.7258 -1.31057 67 62 133 255 
-5.63029 1.64386 -1.30139 67 62 133 255 
-5.4003 1.57784 -1.30302 68 57 131 255 
-5.15174 1.50614 -1.29752 68 57 131 255 
-4.90971 1.4336 -1.29043 70 51 127 255 
-4.73431 1.38674 -1.28961 70 50 126 255 
-4.55592 1.33458 -1.28805 69 55 129 255 
-4.36488 1.27693 -1.28176 68 59 132 255 
-4.23699 1.23557 -1.2931 67 61 132 255 
-17.4613 5.15499 5.46908 58 83 139 255 
-17.4672 5.14044 5.26576 61 77 138 255 
-17.4538 5.12971 5.06903 57 85 140 255 
-17.4543 5.13023 4.8849 60 80 139 255 
-17.4477 5.14106 4.72102 62 73 137 255 
-17.4517 5.1392 4.5292 63 72 137 255 
-17.4488 5.1415 4.34367 62 76 138 255 
-17.4277 5.13892 4.16138 64 69 136 255 
-17.4377 5.13481 4.00999 60 80 139 255 
-17.4309 5.13638 3.81949 59 82 139 255 
-17.4376 5.1481 3.64295 54 92 141 255 
-17.39 5.14099 3.45925 61 78 138 255 
-17.4169 5.12868 3.31265 56 89 140 255 
-17.4258 5.13818 3.13481 53 95 141 255 
-17.4219 5.15008 2.95546 56 89 140 255 
-17.4006 5.16061 2.78379 56 89 140 255 
-17.4088 5.12959 2.63468 53 95 141 255 
-17.3838 5.12909 2.45377 53 94 141 255 
-17.3808 5.14783 2.28035 55 90 140 255 
-17.3877 5.16337 2.1147 60 79 138 255 
-17.3895 5.12392 1.9662 59 81 139 255 
-17.3848 5.13928 1.79349 57 86 140 255 
-17.3871 5.153 1.62166 58 83 139 255 
-17.3637 5.16614 1.45121 64 69 136 255 
-17.3725 5.12219 1.30781 60 80 139 255 
-17.3627 5.13604 1.13599 62 73 137 255 
-17.3362 5.14779 0.963586 69 53 129 255 
-11.4119 3.39966 0.521978 59 82 139 255 
-11.3673 3.35591 0.42632 57 86 140 255 
-11.4539 3.39253 0.316984 57 85 140 255 
-17.3526 5.15594 0.309657 69 56 130 255 
-11.1962 3.33964 0.091765 60 79 138 255 
-11.2369 3.31954 -0.002045 60 79 138 255 
-11.2626 3.34013 -0.112771 48 106 142 255 
-11.2879 3.35826 -0.222016 51 98 141 255 
-11.2618 3.36347 -0.332405 65 68 135 255 
-7.31048 2.16377 -0.276894 47 108 142 255 
-7.36324 2.1865 -0.350137 47 108 142 255 
-7.31518 2.17772 -0.420039 50 100 142 255 
-7.35082 2.19682 -0.494785 56 89 140 255 
-7.34929 2.17665 -0.556147 51 98 141 255 
-7.33695 2.18148 -0.626616 70 52 128 255 
-7.69267 2.29448 -0.733391 69 53 129 255 
-7.39277 2.20935 -0.778305 66 65 134 255 
-7.0582 2.09446 -0.802413 58 84 140 255 
-7.06628 2.10234 -0.873884 57 85 140 255 
-7.04199 2.10174 -0.941422 58 83 139 255 
-7.03074 2.10383 -1.0105 56 88 140 255 
-7.05282 2.09687 -1.07472 56 89 140 255 
-7.03333 2.09521 -1.14135 53 94 141 255 
-7.04794 2.10486 -1.21374 57 85 140 255 
-7.03532 2.1052 -1.28429 59 82 139 255 
-6.86677 2.04677 -1.31508 66 64 134 255 
-6.5297 1.9489 -1.3147 62 76 138 255 
-6.16953 1.84252 -1.30648 64 69 136 255 
-5.88272 1.75919 -1.30848 70 52 128 255 
-5.63507 1.68284 -1.30486 68 59 132 255 
-5.39145 1.61122 -1.30325 68 58 131 255 
-5.16289 1.54385 -1.30269 67 62 133 255 
-4.93148 1.47285 -1.2985 68 58 131 255 
-4.72108 1.41437 -1.28834 71 45 123 255 
-4.54025 1.3603 -1.28596 69 56 130 255 
-4.36895 1.30727 -1.28529 68 57 131 255 
-4.24496 1.2662 -1.29788 66 63 133 255 
-17.4458 5.26701 5.47426 60 80 139 255 
-17.4592 5.25472 5.27298 58 84 140 255 
-17.4579 5.24753 5.07949 58 83 139 255 
-17.4252 5.23806 4.88568 62 76 138 255 
-17.4297 5.2522 4.72478 63 72 137 255 
-17.4496 5.25514 4.53693 61 78 138 255 
-17.457 5.26053 4.35366 62 73 137 255 
-17.4024 5.24772 4.16294 66 63 133 255 
-17.4301 5.24903 4.01559 61 77 138 255 
-17.4328 5.2534 3.8269 58 83 139 255 
-17.415 5.25783 3.64491 55 91 141 255 
-17.3976 5.25953 3.46712 57 86 140 255 
-17.4105 5.24311 3.3175 55 90 140 255 
-17.3939 5.245 3.13481 53 94 141 255 
-17.3862 5.25574 2.95481 56 88 140 255 
-17.3942 5.27503 2.78788 56 89 140 255 
-17.3978 5.24259 2.63784 52 97 141 255 
-17.3861 5.24596 2.4586 52 96 141 255 
-17.3489 5.25438 2.28035 55 91 141 255 
-17.3699 5.27429 2.11643 61 77 138 255 
-17.3825 5.23798 1.96901 58 83 139 255 
-17.3643 5.24931 1.79467 57 85 140 255 
-17.3628 5.2619 1.62238 59 82 139 255 
-17.3679 5.28361 1.45425 61 78 138 255 
-17.3608 5.23473 1.30932 56 88 140 255 
-17.3643 5.25259 1.13818 63 71 136 255 
-17.3416 5.26538 0.965661 66 65 134 255 
-14.0878 4.29111 0.645564 68 57 131 255 
-11.3867 3.43772 0.42783 55 90 140 255 
-11.4702 3.47405 0.318019 58 84 140 255 
-17.3177 5.26144 0.309606 68 57 131 255 
-11.2166 3.42081 0.0921027 61 78 138 255 
-11.2489 3.39826 -0.00205094 51 98 141 255 
-11.2649 3.41614 -0.113001 47 107 142 255 
-11.2882 3.43386 -0.22243 51 98 141 255 
-11.2533 3.43631 -0.332773 63 71 136 255 
-7.33437 2.21988 -0.278309 49 104 142 255 
-9.31591 2.82866 -0.443807 72 35 116 255 
-7.36759 2.24262 -0.423831 63 72 137 255 
-9.28698 2.83763 -0.626269 69 55 129 255 
-9.44061 2.85916 -0.715718 70 48 126 255 
-9.40317 2.85874 -0.804565 69 55 129 255 
-8.27284 2.5229 -0.790163 66 63 133 255 
-7.36195 2.24944 -0.776499 65 66 135 255 
-7.04712 2.1383 -0.80263 51 99 141 255 
-7.05039 2.14479 -0.873531 52 97 141 255 
-7.02802 2.14462 -0.941295 54 92 141 255 
-7.02812 2.15012 -1.01201 58 83 139 255 
-7.03887 2.13982 -1.07457 52 96 141 255 
-7.00994 2.13516 -1.13966 56 88 140 255 
-7.033 2.14748 -1.21342 58 84 140 255 
-6.99778 2.14084 -1.27982 61 78 138 255 
-6.84373 2.08571 -1.3131 65 68 135 255 
-6.51198 1.98721 -1.31356 61 78 138 255 
-6.15999 1.88091 -1.30687 62 73 137 255 
-5.86246 1.79239 -1.3064 67 61 132 255 
-5.6237 1.7171 -1.30464 66 65 134 255 
-5.38705 1.64598 -1.3046 70 51 127 255 
-5.14403 1.57266 -1.30034 68 58 131 255 
-4.92513 1.50393 -1.29923 68 58 131 255 
-4.70306 1.44048 -1.28581 66 63 133 255 
-4.53458 1.38898 -1.28674 70 48 126 255 
-4.36269 1.33462 -1.28583 67 61 132 255 
-4.23895 1.29279 -1.29844 65 68 135 255 
-17.4205 5.37622 5.47656 61 78 138 255 
-17.4441 5.36711 5.27826 59 81 139 255 
-17.4365 5.35794 5.08272 59 82 139 255 
-17.4214 5.35368 4.89372 61 78 138 255 
-17.4212 5.36646 4.73132 64 70 136 255 
-17.4448 5.37068 4.54418 64 70 136 255 
-17.4439 5.37356 4.35854 62 73 137 255 
-17.3782 5.35699 4.16495 64 69 136 255 
-17.3995 5.35645 4.01602 62 73 137 255 
-17.3965 5.35912 3.82607 58 83 139 255 
-17.3778 5.36314 3.64393 57 86 140 255 
-17.3678 5.36705 3.46768 57 85 140 255 
-17.3836 5.35158 3.31857 56 89 140 255 
-17.369 5.35395 3.13617 58 84 140 255 
-17.3725 5.36815 2.95803 53 94 141 255 
-17.3596 5.38107 2.78758 57 85 140 255 
-17.3766 5.35274 2.63956 52 97 141 255 
-17.3707 5.3578 2.46102 53 95 141 255 
-17.3287 5.36455 2.28197 54 93 141 255 
-17.3401 5.38166 2.11678 62 76 138 255 
-17.3681 5.3501 1.97106 59 81 139 255 
-17.3584 5.36398 1.79743 55 91 141 255 
-17.3416 5.37187 1.62344 59 81 139 255 
-17.3342 5.38978 1.45417 60 79 138 255 
-17.3312 5.34204 1.30953 59 81 139 255 
-17.346 5.36346 1.13912 62 76 138 255 
-17.3337 5.37938 0.967045 67 61 132 255 
-14.0612 4.37747 0.645564 52 97 141 255 
-11.3978 3.51754 0.429052 63 72 137 255 
-17.332 5.36576 0.481445 67 62 133 255 
-17.2918 5.36968 0.309725 68 57 131 255 
-11.2393 3.50326 0.092464 57 85 140 255 
-11.2469 3.47312 -0.00205443 57 86 140 255 
-11.2857 3.49822 -0.113424 52 97 141 255 
-11.2974 3.51255 -0.223034 53 94 141 255 
-11.274 3.51839 -0.334017 65 68 135 255 
-7.39507 2.28788 -0.28114 72 36 117 255 
-9.10948 2.82714 -0.434791 68 58 131 255 
-9.02693 2.80835 -0.520268 69 53 129 255 
-9.02077 2.81693 -0.609472 70 52 128 255 
-9.14277 2.83032 -0.694442 68 59 132 255 
-9.14561 2.84185 -0.784004 66 63 133 255 
-8.24864 2.57095 -0.789344 67 62 133 255 
-7.30907 2.28241 -0.772384 65 66 135 255 
-7.03292 2.18121 -0.802522 56 89 140 255 
-7.00865 2.17917 -0.87 57 86 140 255 
-7.00147 2.18357 -0.939516 57 85 140 255 
-7.00439 2.18995 -1.0105 59 81 139 255 
-6.99821 2.17445 -1.07038 58 83 139 255 
-6.98728 2.1752 -1.13812 55 91 141 255 
-6.99709 2.18354 -1.20951 62 76 138 255 
-6.96383 2.17727 -1.27603 60 80 139 255 
-6.82329 2.12532 -1.31165 66 64 134 255 
-6.48842 2.02362 -1.31129 62 74 137 255 
-6.14552 1.9178 -1.30628 62 74 137 255 
-5.84295 1.8257 -1.30452 66 63 133 255 
-5.6056 1.74925 -1.30291 66 65 134 255 
-5.34151 1.66797 -1.29603 68 59 132 255 
-5.11944 1.59956 -1.29658 67 61 132 255 
-4.89915 1.52892 -1.29483 69 55 129 255 
-4.69044 1.46815 -1.2848 68 57 131 255 
-4.53979 1.4211 -1.29067 68 57 131 255 
-4.37003 1.36624 -1.29044 66 63 133 255 
-4.18329 1.30392 -1.28382 68 59 132 255 
-17.4036 5.48819 5.48174 60 80 139 255 
-17.442 5.48384 5.2877 59 82 139 255 
-17.4088 5.46656 5.08433 59 81 139 255 
-17.4075 5.46655 4.89916 60 80 139 255 
-17.4193 5.48314 4.73986 62 74 137 255 
-17.4264 5.48227 4.54805 61 78 138 255 
-17.4041 5.47845 4.35691 63 72 137 255 
-17.3813 5.47494 4.17366 63 72 137 255 
-17.3933 5.47161 4.02227 59 82 139 255 
-17.409 5.48016 3.83615 57 85 140 255 
-17.3688 5.47734 3.64904 54 92 141 255 
-17.3711 5.48505 3.47499 59 82 139 255 
-17.3542 5.45932 3.31929 57 85 140 255 
-17.3724 5.47197 3.1428 53 95 141 255 
-17.3618 5.48178 2.96188 56 88 140 255 
-17.3611 5.49853 2.79319 54 92 141 255 
-17.3765 5.46966 2.64459 51 98 141 255 
-17.3516 5.46875 2.46303 52 96 141 255 
-17.3597 5.49112 2.29046 51 98 141 255 
-17.337 5.49756 2.12049 63 72 137 255 
-17.3586 5.46403 1.97375 57 86 140 255 
-17.3556 5.47998 1.80058 57 86 140 255 
-17.3188 5.48148 1.62442 60 79 138 255 
-17.3132 5.49996 1.4552 64 69 136 255 
-17.3295 5.45817 1.31191 61 78 138 255 
-17.3242 5.4734 1.13987 61 78 138 255 
-17.3166 5.49077 0.967949 66 64 134 255 
-17.3196 5.50865 0.796696 67 61 132 255 
-17.3119 5.45927 0.652924 63 72 137 255 
-17.314 5.47683 0.481869 66 63 133 255 
-17.2662 5.4781 0.309862 67 62 133 255 
-11.2557 3.5843 0.0927781 59 82 139 255 
-11.2817 3.55982 -0.00206472 55 91 141 255 
-11.3374 3.59065 -0.114163 54 93 141 255 
-11.3195 3.59573 -0.223901 69 56 130 255 
-11.3065 3.60481 -0.335628 69 55 129 255 
-9.3114 2.94347 -0.354674 69 55 129 255 
-8.7682 2.78032 -0.419308 67 61 132 255 
-8.7783 2.79018 -0.506915 68 58 131 255 
-8.74472 2.78973 -0.591966 68 58 131 255 
-8.83519 2.79463 -0.67237 68 59 132 255 
-8.82021 2.8002 -0.757569 66 63 133 255 
-8.19286 2.60882 -0.785523 68 59 132 255 
-7.29113 2.326 -0.771982 64 69 136 255 
-6.99761 2.21741 -0.80003 55 90 140 255 
-6.98095 2.21762 -0.868234 58 84 140 255 
-6.9851 2.22559 -0.939135 58 83 139 255 
-6.97006 2.22625 -1.0075 60 79 138 255 
-6.96964 2.21256 -1.06807 58 84 140 255 
-6.97851 2.21953 -1.13889 54 92 141 255 
-6.97416 2.22344 -1.20788 57 86 140 255 
-6.97286 2.22715 -1.28016 63 72 137 255 
-6.79138 2.16118 -1.30804 65 68 135 255 
-6.46746 2.06072 -1.30959 59 81 139 255 
-6.12524 1.95279 -1.30449 61 78 138 255 
-5.81114 1.85498 -1.29994 67 61 132 255 
-5.56965 1.77561 -1.29706 67 61 132 255 
-5.32468 1.69864 -1.29445 67 62 133 255 
-5.09193 1.62532 -1.29211 69 55 129 255 
-4.89245 1.55984 -1.29556 70 52 128 255 
-4.68226 1.4972 -1.28505 66 63 133 255 
-4.48962 1.4357 -1.27889 70 51 127 255 
-4.36982 1.39567 -1.29288 66 63 133 255 
-4.16424 1.32607 -1.28044 71 47 125 255 
-17.4197 5.61102 5.49756 60 79 138 255 
-17.4217 5.59517 5.29187 58 84 140 255 
-17.4272 5.59005 5.09963 56 88 140 255 
-17.4003 5.58181 4.90668 56 88 140 255 
-17.3982 5.59406 4.74337 61 77 138 255 
-17.4063 5.59355 4.55167 62 74 137 255 
-17.3757 5.58692 4.35831 62 73 137 255 
-17.3566 5.58447 4.17589 65 68 135 255 
-17.3733 5.58271 4.0255 59 81 139 255 
-17.3984 5.59437 3.84129 59 81 139 255 
-17.3676 5.59433 3.65592 56 88 140 255 
-17.3624 5.59968 3.48005 58 83 139 255 
-17.3457 5.57383 3.32414 57 86 140 255 
-17.3564 5.5842 3.14603 54 92 141 255 
-17.3429 5.59305 2.96445 55 91 141 255 
-17.3468 5.61134 2.79637 58 84 140 255 
-17.3643 5.58315 2.6479 52 97 141 255 
-17.3319 5.57967 2.46504 51 98 141 255 
-17.3286 5.59845 2.29083 54 93 141 255 
-17.3257 5.61118 2.12327 60 79 138 255 
-17.3579 5.58109 1.97753 59 82 139 255 
-17.3443 5.59369 1.80294 60 79 138 255 
-17.3075 5.595 1.62656 59 82 139 255 
-17.3114 5.61655 1.45792 61 78 138 255 
-17.3137 5.5702 1.31328 59 81 139 255 
-17.3131 5.58695 1.14137 61 77 138 255 
-14.082 4.56042 0.788693 58 83 139 255 
-17.3054 5.6213 0.797616 66 64 134 255 
-17.2828 5.56692 0.653104 68 59 132 255 
-17.2934 5.58727 0.482241 68 57 131 255 
-17.2465 5.58856 0.310119 71 46 124 255 
-17.2549 5.61153 0.142509 72 36 117 255 
-11.3148 3.64677 -0.00207485 69 56 130 255 
-15.7307 5.08845 -0.158713 71 44 122 255 
-14.1294 4.58394 -0.280031 72 37 118 255 
-12.6519 4.11946 -0.37631 72 41 121 255 
-9.07063 2.9287 -0.346181 71 45 123 255 
-8.54854 2.76851 -0.409608 66 65 134 255 
-8.4894 2.75582 -0.4912 69 55 129 255 
-8.45133 2.75337 -0.573238 67 61 132 255 
-8.56732 2.76784 -0.653265 65 66 135 255 
-8.53077 2.76604 -0.734152 66 65 134 255 
-8.16344 2.65473 -0.784249 64 69 136 255 
-7.2474 2.36114 -0.768871 61 77 138 255 
-6.96495 2.25418 -0.797863 57 86 140 255 
-6.97666 2.26348 -0.869411 55 90 140 255 
-6.96377 2.26595 -0.938118 57 85 140 255 
-6.94779 2.26621 -1.00628 56 89 140 255 
-6.96252 2.25742 -1.06908 52 97 141 255 
-6.97509 2.26566 -1.14058 50 102 142 255 
-6.95382 2.26405 -1.20674 54 93 141 255 
-6.93565 2.26225 -1.27585 58 83 139 255 
-6.7808 2.20372 -1.30858 59 81 139 255 
-6.45189 2.09945 -1.30902 59 81 139 255 
-6.10196 1.9867 -1.3021 58 83 139 255 
-5.79779 1.88999 -1.29952 68 59 132 255 
-5.54473 1.80521 -1.29381 64 69 136 255 
-5.31508 1.73158 -1.29467 66 64 134 255 
-5.10127 1.66286 -1.29705 67 62 133 255 
-4.86434 1.58383 -1.29067 69 55 129 255 
-4.70886 1.53761 -1.29492 68 57 131 255 
-4.48623 1.46502 -1.28046 70 51 127 255 
-4.34836 1.41828 -1.28909 67 61 132 255 
-4.15603 1.3516 -1.28044 71 47 125 255 
-17.4023 5.72349 5.50303 60 79 138 255 
-17.4053 5.70795 5.29743 58 83 139 255 
-17.3944 5.69747 5.10016 59 82 139 255 
-17.3878 5.69569 4.91291 56 88 140 255 
-17.382 5.70675 4.7484 61 77 138 255 
-17.39 5.7063 4.5565 61 78 138 255 
-17.3587 5.6992 4.36272 62 76 138 255 
-17.3535 5.70121 4.18348 65 66 135 255 
-17.3619 5.69682 4.03089 62 74 137 255 
-17.3767 5.70529 3.84417 59 81 139 255 
-17.3655 5.71151 3.66279 54 93 141 255 
-17.3454 5.71194 3.48361 59 81 139 255 
-17.3383 5.68905 3.32934 54 93 141 255 
-17.3321 5.69397 3.1479 52 96 141 255 
-17.3251 5.70492 2.96734 55 91 141 255 
-17.3346 5.72512 2.80001 56 89 140 255 
-17.3419 5.6936 2.64976 50 102 142 255 
-17.3199 5.69334 2.46826 54 93 141 255 
-17.3184 5.71275 2.29408 55 91 141 255 
-17.3032 5.72144 2.12477 61 78 138 255 
-17.3318 5.69028 1.9785 61 78 138 255 
-17.321 5.70375 1.80412 59 82 139 255 
-17.3079 5.71264 1.62986 60 79 138 255 
-17.2993 5.73019 1.45984 59 81 139 255 
-17.319 5.6894 1.3163 56 88 140 255 
-17.2899 5.69683 1.14212 62 73 137 255 
-14.0793 4.6552 0.79013 54 93 141 255 
-17.2801 5.73052 0.798054 68 57 131 255 
-17.2882 5.68597 0.654613 64 69 136 255 
-17.2503 5.69046 0.482002 70 51 127 255 
-8.12656 2.68855 0.146422 57 86 140 255 
-8.1123 2.69338 0.0671351 56 88 140 255 
-16.6857 5.49104 -0.00306585 72 40 120 255 
-15.1637 5.00801 -0.153299 72 29 111 255 
-13.7707 4.56115 -0.273472 72 40 120 255 
-12.3191 4.09485 -0.36715 72 40 120 255 
-8.99744 2.96615 -0.344075 68 59 132 255 
-8.23073 2.7215 -0.395173 66 64 134 255 
-8.23064 2.72776 -0.477187 68 57 131 255 
-8.1966 2.72613 -0.557084 68 57 131 255 
-8.30202 2.7385 -0.634304 68 58 131 255 
-8.28466 2.74254 -0.714407 69 56 130 255 
-8.1177 2.69505 -0.781429 65 68 135 255 
-7.20728 2.39709 -0.766161 63 72 137 255 
-6.94344 2.29438 -0.796996 54 92 141 255 
-6.93059 2.29563 -0.865409 55 90 140 255 
-6.93279 2.30301 -0.935831 57 85 140 255 
-6.91966 2.30411 -1.00423 57 85 140 255 
-6.94854 2.3001 -1.06908 52 97 141 255 
-6.95637 2.30686 -1.13981 50 100 142 255 
-6.93605 2.30543 -1.20609 51 98 141 255 
-6.90575 2.29948 -1.27292 61 78 138 255 
-6.74941 2.2394 -1.30515 61 77 138 255 
-6.4333 2.13714 -1.30788 59 82 139 255 
-6.08314 2.02194 -1.30071 59 82 139 255 
-5.79908 1.92985 -1.30244 68 57 131 255 
-5.55207 1.84536 -1.29814 61 78 138 255 
-5.31268 1.76693 -1.2967 66 65 134 255 
-5.0799 1.69045 -1.29423 67 61 132 255 
-4.82693 1.60447 -1.28333 69 53 129 255 
-4.69933 1.56648 -1.29492 66 65 134 255 
-4.47441 1.4916 -1.27967 70 52 128 255 
-4.33227 1.4425 -1.28692 68 58 131 255 
-4.16132 1.38161 -1.28466 71 45 123 255 
-17.3804 5.83473 5.50734 58 83 139 255 
-17.3918 5.82195 5.3041 59 82 139 255 
-17.3893 5.81418 5.10902 58 84 140 255 
-17.3672 5.80717 4.91706 59 81 139 255 
-17.3705 5.82129 4.75493 62 74 137 255 
-17.3694 5.81783 4.56037 63 72 137 255 
-17.3732 5.82229 4.37526 62 73 137 255 
-17.3515 5.81874 4.19152 64 70 136 255 
-17.3443 5.80913 4.03498 59 81 139 255 
-17.3535 5.81585 3.84685 58 84 140 255 
-17.3571 5.82701 3.66849 56 89 140 255 
-17.3389 5.82797 3.48941 58 83 139 255 
-17.3226 5.80189 3.33311 55 91 141 255 
-17.3052 5.80303 3.14943 54 92 141 255 
-17.3366 5.82684 2.97537 54 92 141 255 
-17.316 5.83705 2.80274 55 91 141 255 
-17.3311 5.80808 2.6535 52 96 141 255 
-17.3232 5.81243 2.47376 52 96 141 255 
-17.3112 5.82841 2.29782 55 91 141 255 
-17.2979 5.83766 2.12848 59 81 139 255 
-17.3079 5.80031 1.97979 58 83 139 255 
-17.3121 5.8188 1.80688 56 88 140 255 
-17.2923 5.82541 1.63173 58 83 139 255 
-17.2902 5.84517 1.46207 61 78 138 255 
-17.2913 5.7981 1.31688 59 81 139 255 
-17.2631 5.80567 1.14269 62 76 138 255 
-17.2845 5.83284 0.971993 67 62 133 255 
-17.2257 5.83003 0.797178 72 36 117 255 
-17.2672 5.79671 0.655152 66 63 133 255 
-8.01302 2.69794 0.224356 68 57 131 255 
-8.0455 2.71661 0.145259 56 89 140 255 
-8.04638 2.72642 0.0667267 46 111 142 255 
-8.13816 2.73361 -0.00149837 50 100 142 255 
-8.13582 2.74244 -0.0824184 50 100 142 255 
-8.13427 2.74975 -0.16187 63 72 137 255 
-11.9189 4.0432 -0.355955 71 42 122 255 
-8.82942 2.97095 -0.338341 67 61 132 255 
-8.02458 2.70806 -0.386066 66 65 134 255 
-7.97634 2.69791 -0.463395 66 63 133 255 
-7.95954 2.70164 -0.542089 67 62 133 255 
-8.04119 2.70728 -0.615633 67 61 132 255 
-7.94947 2.68581 -0.686911 70 52 128 255 
-7.9916 2.70774 -0.770875 65 66 135 255 
-7.17171 2.43423 -0.763953 66 64 134 255 
-6.92735 2.33631 -0.796779 49 103 142 255 
-6.91261 2.33684 -0.864938 48 105 142 255 
-6.91008 2.34264 -0.934687 51 98 141 255 
-6.9007 2.34493 -1.00355 53 95 141 255 
-6.91836 2.33731 -1.06662 51 99 141 255 
-6.93366 2.34665 -1.13843 46 109 142 255 
-6.90589 2.34256 -1.20332 52 96 141 255 
-6.89431 2.34276 -1.27344 58 84 140 255 
-6.73368 2.28014 -1.30479 62 73 137 255 
-6.40332 2.1709 -1.30447 58 84 140 255 
-6.06784 2.05828 -1.30011 58 83 139 255 
-5.78805 1.96571 -1.30265 68 59 132 255 
-5.54434 1.88065 -1.29901 62 74 137 255 
-5.30358 1.80012 -1.29715 64 69 136 255 
-5.04551 1.71346 -1.28812 66 64 134 255 
-4.83811 1.64122 -1.28896 68 59 132 255 
-4.69971 1.59871 -1.2977 68 59 132 255 
-4.44324 1.51157 -1.27339 69 55 129 255 
-4.31605 1.46657 -1.28475 68 57 131 255 
-4.14549 1.40465 -1.28241 71 47 125 255 
-17.3606 5.94685 5.51252 60 80 139 255 
-17.3794 5.93663 5.31132 57 85 140 255 
-17.3761 5.92854 5.11573 60 79 138 255 
-17.3504 5.92018 4.9225 59 81 139 255 
-17.3729 5.94092 4.76548 58 84 140 255 
-17.3509 5.93026 4.56496 62 76 138 255 
-17.351 5.9335 4.37875 62 74 137 255 
-17.3422 5.93425 4.198 64 70 136 255 
-17.3332 5.92397 4.04079 57 85 140 255 
-17.3554 5.9352 3.85528 57 85 140 255 
-17.334 5.93785 3.67124 58 84 140 255 
-17.3279 5.94285 3.49447 59 82 139 255 
-17.3239 5.9208 3.34029 56 88 140 255 
-17.3178 5.9257 3.15828 53 95 141 255 
-17.3154 5.93823 2.97794 54 93 141 255 
-17.3219 5.95766 2.80956 53 95 141 255 
-17.3129 5.92039 2.65623 52 96 141 255 
-17.3144 5.92792 2.47765 52 97 141 255 
-17.2883 5.93903 2.29957 53 94 141 255 
-17.2842 5.95145 2.13126 60 80 139 255 
-17.3021 5.91669 1.98324 56 89 140 255 
-17.2874 5.92879 1.80806 57 85 140 255 
-17.2845 5.94112 1.6344 60 80 139 255 
-17.2682 5.95602 1.46327 59 81 139 255 
-17.295 5.91765 1.3199 58 83 139 255 
-14.0751 4.82987 0.933609 47 108 142 255 
-17.2635 5.94399 0.972844 66 64 134 255 
-11.5208 3.97817 0.534284 59 81 139 255 
-11.5616 3.9604 0.439584 67 62 133 255 
-7.96985 2.73796 0.223613 60 79 138 255 
-7.9937 2.75387 0.144626 50 100 142 255 
-7.99925 2.76529 0.0664754 43 117 142 255 
-8.07771 2.76858 -0.00149034 43 117 142 255 
-8.06305 2.77313 -0.0818521 43 117 142 255 
-8.10024 2.79374 -0.161531 44 113 142 255 
-8.10964 2.80661 -0.242703 60 79 138 255 
-8.65885 2.97282 -0.332497 64 69 136 255 
-7.78395 2.68017 -0.375273 61 77 138 255 
-7.77653 2.68361 -0.452735 62 74 137 255 
-7.77967 2.69393 -0.530955 61 77 138 255 
-7.80841 2.68236 -0.599061 66 65 134 255 
-7.78491 2.68354 -0.674102 66 65 134 255 
-7.77624 2.68807 -0.751678 64 70 136 255 
-7.14536 2.47428 -0.762749 66 64 134 255 
-6.91852 2.38071 -0.797429 50 100 142 255 
-6.89439 2.37791 -0.864468 52 97 141 255 
-6.88339 2.38078 -0.933035 52 96 141 255 
-6.88337 2.38625 -1.00314 54 93 141 255 
-6.89173 2.37552 -1.06474 48 106 142 255 
-6.91353 2.38722 -1.13751 48 105 142 255 
-6.88766 2.3836 -1.20267 48 106 142 255 
-6.86864 2.38114 -1.27137 56 89 140 255 
-6.73072 2.32527 -1.30696 62 76 138 255 
-6.37225 2.20405 -1.30087 61 78 138 255 
-6.03472 2.08842 -1.29574 59 81 139 255 
-5.76479 1.99735 -1.30015 67 62 133 255 
-5.49949 1.90314 -1.29121 62 73 137 255 
-5.26206 1.82211 -1.28971 62 76 138 255 
-5.0349 1.74439 -1.28812 68 58 131 255 
-4.82979 1.67151 -1.28945 68 58 131 255 
-4.63863 1.60976 -1.28354 66 65 134 255 
-4.4348 1.53912 -1.27365 69 53 129 255 
-4.32425 1.49902 -1.2899 68 58 131 255 
-4.12954 1.42755 -1.28016 68 57 131 255 
-17.3337 6.05674 5.51569 58 84 140 255 
-17.3735 6.05391 5.32076 58 84 140 255 
-17.3557 6.04075 5.12056 59 81 139 255 
-17.3648 6.0443 4.93703 59 81 139 255 
-17.3773 6.06175 4.77679 58 84 140 255 
-17.3545 6.05066 4.57559 60 79 138 255 
-17.3399 6.04883 4.38525 62 73 137 255 
-17.311 6.04247 4.19933 63 72 137 255 
-17.3307 6.04211 4.04876 61 78 138 255 
-17.3353 6.04738 3.85898 61 78 138 255 
-17.3195 6.05186 3.67596 54 93 141 255 
-17.3171 6.05814 3.49972 60 80 139 255 
-17.3161 6.03702 3.34586 54 92 141 255 
-17.3229 6.04646 3.16593 55 90 140 255 
-17.2926 6.04925 2.98035 52 96 141 255 
-17.2859 6.06416 2.80971 54 92 141 255 
-17.2875 6.03042 2.65795 51 98 141 255 
-17.2927 6.03927 2.4798 52 97 141 255 
-17.2786 6.05451 2.30319 54 93 141 255 
-17.2896 6.0722 2.13647 59 82 139 255 
-17.2861 6.02995 1.98561 60 80 139 255 
-17.2836 6.04625 1.81151 58 83 139 255 
-17.2816 6.05893 1.63761 57 86 140 255 
-17.2012 6.05128 1.46071 70 50 126 255 
-11.5329 4.02531 0.882025 67 61 132 255 
-13.9915 4.89735 0.93004 65 66 135 255 
-8.17711 2.87171 0.461787 51 98 141 255 
-8.18113 2.88127 0.380217 66 63 133 255 
-11.4729 4.00885 0.43714 58 84 140 255 
-7.94535 2.78417 0.223401 57 85 140 255 
-7.94835 2.79293 0.144113 52 97 141 255 
-7.94158 2.80002 0.0661377 42 119 142 255 
-8.02942 2.8072 -0.00148458 41 123 142 255 
-8.02324 2.8146 -0.0816217 40 125 142 255 
-8.01881 2.82083 -0.160249 44 115 142 255 
-8.05739 2.84401 -0.241657 56 88 140 255 
-8.11604 2.84225 -0.312317 51 99 141 255 
-7.72778 2.71398 -0.373361 58 84 140 255 
-7.73543 2.72266 -0.451306 56 89 140 255 
-7.75076 2.7373 -0.530118 50 102 142 255 
-7.76169 2.71967 -0.596745 53 95 141 255 
-7.72693 2.71671 -0.670512 62 76 138 255 
-7.73706 2.72779 -0.749495 62 74 137 255 
-7.12723 2.51709 -0.762448 66 64 134 255 
-6.89346 2.4195 -0.796237 51 98 141 255 
-6.86655 2.41556 -0.86282 52 96 141 255 
-6.8621 2.42066 -0.932146 56 89 140 255 
-6.86767 2.42811 -1.003 55 91 141 255 
-6.86862 2.41481 -1.06344 49 104 142 255 
-6.89036 2.42664 -1.13612 49 103 142 255 
-6.87383 2.42614 -1.20284 53 95 141 255 
-6.86411 2.42686 -1.27327 58 83 139 255 
-6.70705 2.36326 -1.30515 58 83 139 255 
-6.35583 2.24213 -1.3003 54 92 141 255 
-6.0144 2.1228 -1.29415 59 82 139 255 
-5.73214 2.02552 -1.29556 66 63 133 255 
-5.48494 1.93587 -1.29056 58 83 139 255 
-5.26455 1.85923 -1.29309 62 74 137 255 
-5.02043 1.77395 -1.28718 67 61 132 255 
-4.82035 1.70144 -1.28969 68 57 131 255 
-4.60586 1.63012 -1.27721 68 57 131 255 
-4.44256 1.57242 -1.27862 70 51 127 255 
-4.27141 1.51013 -1.27688 68 58 131 255 
-4.11346 1.45031 -1.27791 68 58 131 255 
-17.3179 6.1707 5.52259 58 83 139 255 
-17.3505 6.16554 5.32521 59 82 139 255 
-17.3483 6.15776 5.12942 60 79 138 255 
-17.3465 6.15752 4.94247 60 79 138 255 
-17.3398 6.16826 4.77679 60 79 138 255 
-17.3307 6.16191 4.57921 62 73 137 255 
-17.2979 6.15348 4.38409 62 74 137 255 
-17.2929 6.15544 4.20402 64 70 136 255 
-17.3154 6.15619 4.05393 62 76 138 255 
-17.308 6.15724 3.86125 60 79 138 255 
-17.294 6.16229 3.67851 57 86 140 255 
-17.2935 6.16924 3.50253 59 81 139 255 
-17.3139 6.15568 3.35268 54 92 141 255 
-17.3106 6.16156 3.17052 53 94 141 255 
-17.2942 6.16917 2.98709 53 95 141 255 
-17.2661 6.17644 2.81259 57 86 140 255 
-17.2697 6.14335 2.66097 54 92 141 255 
-17.2992 6.16089 2.4861 52 97 141 255 
-17.2655 6.1691 2.30643 54 93 141 255 
-17.2726 6.18554 2.13902 58 83 139 255 
-17.2713 6.1439 1.9882 61 77 138 255 
-17.2724 6.16155 1.81426 57 85 140 255 
-17.275 6.17591 1.64055 57 85 140 255 
-11.4657 4.11278 0.975779 55 90 140 255 
-11.4723 4.08328 0.879288 59 81 139 255 
-8.1485 2.90841 0.542821 44 115 142 255 
-8.11985 2.90769 0.459552 48 106 142 255 
-8.13509 2.92129 0.378904 53 95 141 255 
-11.4387 4.07582 0.43678 53 94 141 255 
-7.9187 2.8295 0.223136 49 104 142 255 
-7.91977 2.8376 0.143908 48 105 142 255 
-7.92143 2.84768 0.0661141 44 114 142 255 
-7.99886 2.85172 -0.00148213 40 125 142 255 
-7.99264 2.85906 -0.0814873 39 127 142 255 
-7.99476 2.86761 -0.160117 40 125 142 255 
-8.00875 2.88222 -0.240724 58 83 139 255 
-8.04669 2.87351 -0.310321 50 102 142 255 
-7.7232 2.76573 -0.373953 55 90 140 255 
-7.70636 2.76569 -0.450591 55 90 140 255 
-7.71223 2.77703 -0.528638 57 86 140 255 
-7.70635 2.75349 -0.593778 60 80 139 255 
-7.6951 2.75869 -0.669206 60 79 138 255 
-7.69768 2.76712 -0.747311 64 69 136 255 
-7.10509 2.55841 -0.761745 66 63 133 255 
-6.87006 2.45873 -0.795262 56 88 140 255 
-6.84786 2.45631 -0.862349 52 97 141 255 
-6.85739 2.46641 -0.933544 56 89 140 255 
-6.84984 2.4692 -1.00259 54 93 141 255 
-6.86765 2.46192 -1.06561 47 108 142 255 
-6.86418 2.46486 -1.13428 49 103 142 255 
-6.8486 2.4646 -1.20104 53 94 141 255 
-6.84353 2.46692 -1.27224 56 89 140 255 
-6.6628 2.39373 -1.29938 61 78 138 255 
-6.34288 2.28142 -1.30049 57 86 140 255 
-6.00863 2.16232 -1.29574 58 84 140 255 
-5.72145 2.06131 -1.29598 65 68 135 255 
