ply
format ascii 1.0
comment VTK generated PLY File
obj_info vtkPolyData points and polygons: vtk4.0
element vertex 1152
property float x
property float y
property float z
property uchar red
property uchar green
property uchar blue
property uchar alpha
element face 0
property list uchar int vertex_indices
end_header
11.6157 -0.731034 0.0914116 47 108 142 255 
11.5939 -0.698972 -0.0020272 71 42 122 255 
11.5617 -0.709349 -0.111197 67 61 132 255 
11.6065 -0.722158 -0.219226 58 83 139 255 
11.6051 -0.734432 -0.328871 50 101 142 255 
11.6039 -0.70566 -0.422218 65 66 135 255 
11.6218 -0.717106 -0.530783 60 79 138 255 
11.6317 -0.725767 -0.641379 57 86 140 255 
11.6184 -0.737308 -0.750802 52 96 141 255 
11.7851 -0.718739 -0.856691 72 38 119 255 
11.0238 -0.684072 -0.904187 72 40 120 255 
10.0611 -0.633055 -0.920993 68 57 131 255 
9.80641 -0.622316 -0.991172 67 61 132 255 
9.1782 -0.56457 -1.0022 61 77 138 255 
8.5376 -0.531287 -1.01396 70 52 128 255 
8.00256 -0.504931 -1.02719 68 57 131 255 
7.52159 -0.479953 -1.03779 70 52 128 255 
7.14135 -0.443027 -1.04509 63 71 136 255 
6.79684 -0.425342 -1.05913 64 70 136 255 
6.4182 -0.406088 -1.06119 65 68 135 255 
6.15094 -0.392492 -1.07791 63 72 137 255 
5.89083 -0.369571 -1.0833 62 73 137 255 
5.61802 -0.354525 -1.08605 61 78 138 255 
5.4019 -0.341785 -1.09828 61 77 138 255 
5.18681 -0.330063 -1.10756 61 77 138 255 
5.00406 -0.316564 -1.11251 61 78 138 255 
4.79712 -0.304403 -1.11326 64 69 136 255 
4.60672 -0.293088 -1.11588 66 64 134 255 
4.41166 -0.279192 -1.11527 71 45 123 255 
4.27139 -0.273951 -1.11889 71 42 122 255 
4.13856 -0.265514 -1.12518 72 26 108 255 
3.96419 -0.252903 -1.11954 71 14 97 255 
3.92779 -0.247196 -1.15307 70 7 90 255 
10.1268 -0.671133 3.0487 51 98 141 255 
10.2684 -0.671667 2.97598 68 58 131 255 
10.7691 -0.700553 3.00706 61 78 138 255 
12.309 -0.800971 3.3121 71 45 123 255 
12.5849 -0.827435 3.27346 71 46 124 255 
14.3279 -0.939719 3.57471 71 46 124 255 
12.5998 -0.828474 3.01516 72 40 120 255 
12.3692 -0.815707 2.83907 70 50 126 255 
10.2286 -0.670719 2.26123 56 88 140 255 
10.2094 -0.671388 2.15051 54 93 141 255 
10.1995 -0.676008 2.04809 72 31 112 255 
16.7119 -1.1138 3.19504 72 24 106 255 
10.1807 -0.66758 1.86148 69 53 129 255 
10.2932 -0.678704 1.77995 67 62 133 255 
10.2286 -0.681522 1.66768 60 79 138 255 
10.7969 -0.729027 1.65978 66 63 133 255 
11.4648 -0.753789 1.66795 37 131 142 255 
11.4474 -0.756811 1.55316 41 123 142 255 
11.4032 -0.765786 1.43773 42 120 142 255 
11.3667 -0.771482 1.32827 42 119 142 255 
11.4917 -0.755553 1.24905 41 122 142 255 
11.4486 -0.762913 1.13514 40 125 142 255 
11.3638 -0.765131 1.01849 46 110 142 255 
11.3461 -0.776042 0.91102 43 116 142 255 
11.4453 -0.754509 0.828226 43 116 142 255 
11.431 -0.763744 0.718773 39 126 142 255 
11.3816 -0.772317 0.607841 41 123 142 255 
11.3284 -0.778798 0.49776 44 113 142 255 
11.4644 -0.759783 0.413272 41 122 142 255 
11.4202 -0.767029 0.303721 42 118 142 255 
11.3142 -0.769723 0.193987 57 86 140 255 
11.3197 -0.782164 0.0891182 42 119 142 255 
11.4627 -0.761677 -0.00200503 42 118 142 255 
11.4185 -0.770914 -0.109862 44 115 142 255 
11.3993 -0.779514 -0.2154 42 118 142 255 
11.2823 -0.783535 -0.319853 46 109 142 255 
11.3979 -0.763358 -0.414887 45 112 142 255 
11.359 -0.770884 -0.518989 51 99 141 255 
11.3322 -0.77691 -0.625113 51 99 141 255 
11.317 -0.787929 -0.731623 47 108 142 255 
11.3217 -0.760232 -0.823329 71 42 122 255 
11.1537 -0.760858 -0.915202 70 52 128 255 
10.0024 -0.691002 -0.915989 69 56 130 255 
9.72201 -0.676878 -0.983043 69 55 129 255 
9.18448 -0.621547 -1.00329 60 80 139 255 
8.53517 -0.58373 -1.01408 69 53 129 255 
8.00624 -0.554504 -1.02808 69 53 129 255 
7.54024 -0.527617 -1.04079 67 62 133 255 
7.1306 -0.486298 -1.04393 64 70 136 255 
6.79311 -0.466971 -1.05898 63 71 136 255 
6.42641 -0.446214 -1.06298 65 66 135 255 
6.1494 -0.430295 -1.07808 65 68 135 255 
5.8963 -0.40625 -1.08474 62 74 137 255 
5.61084 -0.38865 -1.0851 61 78 138 255 
5.3909 -0.374313 -1.09649 61 77 138 255 
5.19346 -0.362495 -1.10944 61 78 138 255 
4.99326 -0.346654 -1.11056 62 76 138 255 
4.80002 -0.33417 -1.11439 64 69 136 255 
4.60096 -0.321078 -1.11494 66 65 134 255 
4.45242 -0.309212 -1.12603 71 45 123 255 
4.26674 -0.299951 -1.11813 71 47 125 255 
4.14359 -0.291377 -1.12701 72 26 108 255 
3.93184 -0.275073 -1.11086 71 14 97 255 
3.82567 -0.264346 -1.12355 70 8 92 255 
10.154 -0.73554 3.0582 58 84 140 255 
10.0667 -0.720532 2.91875 55 91 141 255 
10.6714 -0.759981 2.98102 58 84 140 255 
12.4917 -0.889865 3.36266 72 33 115 255 
10.0009 -0.719199 2.60244 70 48 126 255 
12.6174 -0.905319 3.14928 72 37 118 255 
14.5425 -1.04587 3.48154 70 50 126 255 
14.5427 -1.0487 3.33938 72 31 112 255 
10.4113 -0.746884 2.30259 66 64 134 255 
10.2705 -0.738723 2.16429 51 99 141 255 
14.9 -1.07942 2.99326 72 33 115 255 
16.7479 -1.21946 3.20328 72 27 109 255 
10.3099 -0.739608 1.88589 70 48 126 255 
10.2908 -0.741991 1.78029 62 76 138 255 
10.6495 -0.775228 1.73705 59 81 139 255 
10.2618 -0.756181 1.57822 56 88 140 255 
11.1253 -0.800058 1.61925 38 130 142 255 
11.0867 -0.801319 1.50486 38 130 142 255 
11.052 -0.810347 1.39404 39 127 142 255 
11.0249 -0.816276 1.2889 40 125 142 255 
11.111 -0.799024 1.20819 39 128 142 255 
11.0715 -0.806049 1.09822 39 128 142 255 
11.041 -0.811482 0.989992 40 124 142 255 
11.0041 -0.820518 0.88395 42 120 142 255 
11.1161 -0.801343 0.804748 40 124 142 255 
11.0797 -0.808589 0.696982 37 131 142 255 
11.0461 -0.817665 0.590177 49 103 142 255 
10.9747 -0.822171 0.482432 48 105 142 255 
11.1127 -0.804987 0.400762 49 104 142 255 
11.0823 -0.81267 0.294862 47 107 142 255 
11.0081 -0.816788 0.188821 48 105 142 255 
10.9577 -0.824737 0.0863065 44 115 142 255 
11.0768 -0.804331 -0.00193836 40 124 142 255 
11.0625 -0.815098 -0.106484 43 117 142 255 
10.9856 -0.818969 -0.207672 44 114 142 255 
10.9543 -0.828327 -0.310694 46 110 142 255 
11.0671 -0.809443 -0.403018 43 117 142 255 
11.0383 -0.817188 -0.504554 41 122 142 255 
10.9807 -0.820535 -0.605991 45 112 142 255 
10.91 -0.826885 -0.705623 61 78 138 255 
10.9607 -0.803579 -0.797421 58 83 139 255 
11.1667 -0.830612 -0.916671 68 58 131 255 
10.0099 -0.75326 -0.91708 68 57 131 255 
9.79506 -0.742383 -0.990871 68 58 131 255 
9.20726 -0.679867 -1.00621 58 84 140 255 
8.53737 -0.636533 -1.01478 70 50 126 255 
8.02543 -0.605335 -1.031 67 61 132 255 
7.53983 -0.574099 -1.0412 68 57 131 255 
7.10676 -0.528501 -1.0409 63 71 136 255 
6.78224 -0.508053 -1.05775 63 72 137 255 
6.44028 -0.486902 -1.06575 65 66 135 255 
6.13388 -0.467047 -1.07584 63 71 136 255 
5.87997 -0.441391 -1.08221 60 79 138 255 
5.62303 -0.424178 -1.08794 58 83 139 255 
5.37775 -0.406572 -1.0943 62 76 138 255 
5.20577 -0.395466 -1.11257 62 74 137 255 
4.97157 -0.375813 -1.10623 60 80 139 255 
4.79399 -0.363322 -1.11349 65 68 135 255 
4.60278 -0.349597 -1.11588 68 57 131 255 
4.41273 -0.333675 -1.11649 71 42 122 255 
4.26192 -0.325904 -1.11737 71 45 123 255 
4.13018 -0.315913 -1.12387 72 24 106 255 
3.93391 -0.299485 -1.11195 71 13 96 255 
3.81154 -0.286878 -1.1199 70 8 92 255 
10.1588 -0.798581 3.06107 59 82 139 255 
10.2143 -0.794125 2.96293 70 50 126 255 
10.147 -0.785236 2.83581 53 95 141 255 
10.0624 -0.778892 2.70994 72 36 117 255 
10.0581 -0.785372 2.61852 55 91 141 255 
12.6252 -0.983777 3.15266 72 36 117 255 
16.5325 -1.29099 3.95975 72 41 121 255 
14.5486 -1.13891 3.34228 72 37 118 255 
14.6299 -1.13979 3.23707 72 31 112 255 
10.334 -0.807061 2.17869 66 65 134 255 
16.3398 -1.28456 3.28402 72 28 110 255 
16.5334 -1.30588 3.16375 72 24 106 255 
10.3189 -0.803924 1.8884 65 66 135 255 
10.6692 -0.83511 1.84661 50 100 142 255 
10.2165 -0.806757 1.6672 53 95 141 255 
10.6255 -0.848562 1.63492 42 118 142 255 
10.7887 -0.842421 1.57098 37 131 142 255 
10.7842 -0.846003 1.46448 37 132 142 255 
10.7026 -0.850785 1.35061 40 125 142 255 
10.6861 -0.857145 1.24987 42 118 142 255 
10.7857 -0.842187 1.17336 38 130 142 255 
10.7568 -0.849523 1.06751 46 110 142 255 
10.7152 -0.853663 0.961223 72 28 110 255 
10.672 -0.861631 0.857679 71 17 100 255 
10.8018 -0.845334 0.78235 69 53 129 255 
10.7512 -0.850964 0.676632 72 41 121 255 
10.6825 -0.85669 0.571022 63 71 136 255 
10.5831 -0.858165 0.46544 70 52 128 255 
10.7339 -0.843789 0.387283 68 57 131 255 
10.6855 -0.84952 0.284437 70 52 128 255 
10.677 -0.858124 0.183229 70 48 126 255 
10.6145 -0.864441 0.083644 43 116 142 255 
10.7716 -0.848641 -0.00188583 41 123 142 255 
10.7254 -0.856455 -0.103287 43 117 142 255 
10.6544 -0.860053 -0.201509 43 116 142 255 
10.5964 -0.86668 -0.300686 46 111 142 255 
10.7382 -0.851656 -0.391222 43 117 142 255 
10.6995 -0.858148 -0.489299 44 115 142 255 
10.651 -0.861649 -0.588077 46 111 142 255 
10.5914 -0.868132 -0.68535 55 90 140 255 
10.6772 -0.848689 -0.777158 45 113 142 255 
10.5365 -0.848776 -0.86535 71 46 124 255 
10.0478 -0.81814 -0.920993 69 55 129 255 
9.76652 -0.80052 -0.988463 69 53 129 255 
9.19004 -0.735318 -1.0048 61 78 138 255 
8.54518 -0.689864 -1.0162 70 51 127 255 
8.00674 -0.653356 -1.0291 67 61 132 255 
7.54308 -0.620921 -1.04215 68 58 131 255 
7.12015 -0.573447 -1.04335 63 72 137 255 
6.78884 -0.550457 -1.05929 62 74 137 255 
6.46176 -0.52842 -1.06982 66 64 134 255 
6.16427 -0.507423 -1.0817 64 69 136 255 
5.88597 -0.478178 -1.08384 59 81 139 255 
5.63403 -0.459791 -1.0906 61 77 138 255 
5.40251 -0.441798 -1.09987 61 77 138 255 
5.2013 -0.427241 -1.11215 61 77 138 255 
4.98279 -0.407425 -1.10926 59 81 139 255 
4.79361 -0.392889 -1.11394 64 69 136 255 
4.5957 -0.377435 -1.11471 70 51 127 255 
4.39031 -0.359084 -1.11136 72 37 118 255 
4.27431 -0.353244 -1.12117 71 44 122 255 
4.08777 -0.33791 -1.11287 72 23 105 255 
3.9934 -0.328671 -1.12931 70 10 93 255 
0 -0 -0 69 4 87 255 
10.0154 -0.849167 3.01936 49 104 142 255 
12.0042 -1.00741 3.48383 72 32 113 255 
10.141 -0.847401 2.83554 59 82 139 255 
10.0565 -0.840538 2.70968 61 78 138 255 
10.0608 -0.847723 2.62053 64 69 136 255 
14.7076 -1.23688 3.67448 71 46 124 255 
16.406 -1.38245 3.93142 72 33 115 255 
12.5016 -1.05588 2.87345 65 68 135 255 
14.6839 -1.23469 3.25064 70 48 126 255 
10.0997 -0.851142 2.13035 72 27 109 255 
14.8163 -1.2563 2.97931 72 36 117 255 
18.2154 -1.55125 3.48735 72 41 121 255 
10.2902 -0.865246 1.8841 61 77 138 255 
10.2701 -0.867307 1.77842 51 98 141 255 
10.3884 -0.884502 1.6961 38 130 142 255 
10.3503 -0.890526 1.59338 40 124 142 255 
10.4589 -0.881267 1.52371 37 133 142 255 
10.4233 -0.882075 1.41618 39 128 142 255 
10.3987 -0.890862 1.31292 40 124 142 255 
10.3709 -0.895939 1.21363 40 124 142 255 
10.4564 -0.881056 1.1381 39 126 142 255 
10.3677 -0.882834 1.02941 60 79 138 255 
10.3118 -0.885232 0.925507 71 13 96 255 
10.2901 -0.894384 0.827416 71 14 97 255 
10.3452 -0.873497 0.749653 70 11 94 255 
10.4474 -0.89146 0.657847 71 13 96 255 
10.2681 -0.886902 0.549154 71 13 96 255 
10.3019 -0.899027 0.453309 71 14 97 255 
10.4836 -0.888866 0.37844 68 57 131 255 
10.3813 -0.889468 0.276479 71 19 101 255 
10.3368 -0.894652 0.177482 71 13 96 255 
10.345 -0.906424 0.0815628 39 126 142 255 
10.4792 -0.890337 -0.00183556 40 124 142 255 
10.434 -0.89765 -0.100532 39 126 142 255 
10.378 -0.901867 -0.196382 42 119 142 255 
10.3837 -0.913461 -0.294805 44 114 142 255 
10.445 -0.892928 -0.380733 42 120 142 255 
10.3984 -0.898248 -0.475774 45 113 142 255 
10.3611 -0.902214 -0.572361 53 95 141 255 
10.3254 -0.910146 -0.668488 47 108 142 255 
10.4263 -0.893161 -0.759283 44 115 142 255 
10.262 -0.890072 -0.843239 67 62 133 255 
10.1785 -0.891683 -0.933457 67 62 133 255 
9.69006 -0.854141 -0.981236 71 45 123 255 
9.1596 -0.789473 -1.00199 61 78 138 255 
8.55068 -0.743143 -1.01737 69 56 130 255 
8.01938 -0.703947 -1.03126 68 58 131 255 
7.54998 -0.668153 -1.04365 68 59 132 255 
7.13621 -0.618835 -1.04624 63 72 137 255 
6.7686 -0.590642 -1.05667 64 70 136 255 
6.46232 -0.568404 -1.07047 64 70 136 255 
6.16988 -0.546018 -1.08325 64 70 136 255 
5.89175 -0.515055 -1.08546 63 71 136 255 
5.64088 -0.49521 -1.09249 58 83 139 255 
5.4036 -0.475282 -1.10066 62 76 138 255 
5.17812 -0.45734 -1.10777 62 73 137 255 
5.00743 -0.440386 -1.11532 60 79 138 255 
4.80858 -0.423835 -1.118 62 76 138 255 
4.59718 -0.405969 -1.11565 70 51 127 255 
4.39188 -0.386356 -1.11233 70 50 126 255 
4.28073 -0.380234 -1.12344 71 44 122 255 
4.10869 -0.365035 -1.11916 72 26 108 255 
3.98651 -0.352743 -1.12795 70 11 94 255 
3.9779 -0.34854 -1.16995 70 7 90 255 
10.1588 -0.924139 3.06424 54 92 141 255 
10.4134 -0.938291 3.02377 65 68 135 255 
10.1078 -0.907112 2.82776 72 29 111 255 
10.0434 -0.901537 2.70761 71 44 122 255 
10.0304 -0.907172 2.61399 58 83 139 255 
14.5547 -1.31401 3.63824 72 40 120 255 
14.7727 -1.33615 3.54192 67 61 132 255 
14.9238 -1.35273 3.43202 71 44 122 255 
17.3778 -1.56864 3.84907 72 32 113 255 
14.7697 -1.33601 3.11705 70 50 126 255 
17.8549 -1.62436 3.59226 71 19 101 255 
9.9504 -0.908918 1.90604 72 40 120 255 
10.1524 -0.91643 1.85987 41 121 142 255 
10.1498 -0.9199 1.75853 38 130 142 255 
10.1026 -0.922643 1.65034 39 126 142 255 
10.0995 -0.931415 1.55563 37 132 142 255 
10.2089 -0.923318 1.48809 36 134 142 255 
10.1483 -0.921549 1.37956 41 123 142 255 
10.1223 -0.929784 1.27872 37 131 142 255 
10.0685 -0.932088 1.17888 38 129 142 255 
10.1676 -0.919587 1.10726 38 129 142 255 
10.1213 -0.924437 1.00548 59 81 139 255 
9.86478 -0.907868 0.885872 72 24 106 255 
9.8646 -0.918418 0.793639 72 38 119 255 
10.0525 -0.910944 0.728839 70 11 94 255 
9.94879 -0.910435 0.626789 71 17 100 255 
9.92941 -0.919058 0.531329 72 29 111 255 
9.88539 -0.923829 0.435222 70 52 128 255 
9.96837 -0.90682 0.360036 71 13 96 255 
9.95656 -0.91465 0.265312 71 17 100 255 
9.85427 -0.913837 0.169289 72 36 117 255 
10.0625 -0.94392 0.0793794 42 120 142 255 
10.1509 -0.925211 -0.00177901 39 127 142 255 
10.1505 -0.936036 -0.0978539 41 123 142 255 
10.1085 -0.940971 -0.191387 49 104 142 255 
10.0147 -0.942955 -0.284487 51 99 141 255 
10.1378 -0.929357 -0.369736 40 125 142 255 
10.0694 -0.932109 -0.460975 46 110 142 255 
10.0541 -0.937677 -0.555711 46 111 142 255 
10.0315 -0.946305 -0.649824 46 109 142 255 
10.1326 -0.930663 -0.738297 44 114 142 255 
10.0797 -0.936608 -0.828716 46 110 142 255 
9.92294 -0.930686 -0.91053 69 53 129 255 
9.68761 -0.913862 -0.981538 71 47 125 255 
9.1724 -0.847307 -1.00394 62 74 137 255 
8.5509 -0.796056 -1.01796 68 58 131 255 
8.02478 -0.754068 -1.03253 68 58 131 255 
7.54968 -0.71484 -1.0442 66 65 134 255 
7.1579 -0.66499 -1.05 62 74 137 255 
6.76091 -0.631795 -1.05606 65 68 135 255 
6.45773 -0.607953 -1.07031 65 66 135 255 
6.16837 -0.584051 -1.0836 65 66 135 255 
5.90512 -0.552755 -1.08853 63 72 137 255 
5.64556 -0.530548 -1.09401 58 83 139 255 
5.3918 -0.507602 -1.09887 60 79 138 255 
5.18106 -0.489656 -1.10902 62 74 137 255 
5.04448 -0.474854 -1.12421 62 76 138 255 
4.81947 -0.454612 -1.12116 61 78 138 255 
4.61395 -0.435998 -1.12035 69 53 129 255 
4.39812 -0.414115 -1.11454 71 47 125 255 
4.29662 -0.408232 -1.12825 71 46 124 255 
4.14961 -0.394348 -1.13094 72 27 109 255 
3.97852 -0.376653 -1.12632 71 14 97 255 
3.9776 -0.373121 -1.17051 69 5 89 255 
9.88694 -0.960615 2.98397 50 102 142 255 
9.85471 -0.948948 2.86319 72 31 112 255 
10.0598 -0.965068 2.81595 72 31 112 255 
10.1329 -0.972278 2.73328 57 86 140 255 
9.98221 -0.964604 2.60294 56 89 140 255 
16.8018 -1.62087 4.20234 72 29 111 255 
14.7361 -1.42406 3.53519 72 26 108 255 
16.8421 -1.63085 3.8754 72 27 109 255 
17.1958 -1.65865 3.81094 72 26 108 255 
15.6846 -1.51586 3.31205 72 35 116 255 
14.8095 -1.43898 2.98127 69 55 129 255 
9.70609 -0.946689 1.86032 62 74 137 255 
9.87735 -0.952733 1.81051 38 130 142 255 
9.85265 -0.953955 1.70803 37 131 142 255 
9.84624 -0.960185 1.6094 35 137 142 255 
9.83492 -0.967906 1.51576 35 136 142 255 
9.89274 -0.955957 1.44283 36 135 142 255 
9.86725 -0.957107 1.34213 37 132 142 255 
9.81817 -0.962637 1.24102 38 130 142 255 
9.78776 -0.966709 1.14669 37 133 142 255 
9.88868 -0.955565 1.0775 37 132 142 255 
9.82915 -0.958607 0.977031 48 105 142 255 
9.8511 -0.967601 0.885159 34 141 141 255 
9.81117 -0.974201 0.789806 37 132 142 255 
9.87203 -0.955693 0.716164 36 134 142 255 
9.8854 -0.965834 0.623158 33 142 141 255 
9.85402 -0.973097 0.527605 36 135 142 255 
9.76521 -0.973076 0.430186 40 124 142 255 
9.89597 -0.961493 0.357627 39 128 142 255 
9.88609 -0.969384 0.263588 35 137 142 255 
9.83256 -0.97271 0.169016 41 123 142 255 
9.78987 -0.978979 0.0772745 42 120 142 255 
9.90618 -0.964228 -0.00173713 37 132 142 255 
9.84797 -0.969117 -0.0949933 41 121 142 255 
9.77719 -0.970678 -0.185224 42 118 142 255 
9.73519 -0.976938 -0.276712 45 113 142 255 
9.88722 -0.9676 -0.360807 38 130 142 255 
9.82594 -0.970412 -0.450091 42 118 142 255 
9.77491 -0.972175 -0.5406 42 120 142 255 
9.72766 -0.977895 -0.630517 44 114 142 255 
9.83884 -0.964597 -0.71731 43 116 142 255 
9.7802 -0.969341 -0.804565 43 116 142 255 
9.65446 -0.965299 -0.88642 68 58 131 255 
9.66499 -0.971595 -0.979831 68 58 131 255 
9.15812 -0.902694 -1.00296 62 74 137 255 
8.55772 -0.849685 -1.01937 68 59 132 255 
8.02494 -0.803787 -1.03316 69 55 129 255 
7.53431 -0.760057 -1.0427 67 62 133 255 
7.14187 -0.707726 -1.04827 64 70 136 255 
6.78542 -0.676108 -1.06052 63 71 136 255 
6.45977 -0.648156 -1.07129 64 69 136 255 
6.16565 -0.621987 -1.08377 64 69 136 255 
5.88792 -0.58761 -1.086 63 72 137 255 
5.65685 -0.566646 -1.09685 59 81 139 255 
5.40711 -0.542535 -1.10265 60 80 139 255 
5.17309 -0.520947 -1.10798 62 76 138 255 
5.04827 -0.50648 -1.12572 60 79 138 255 
4.83307 -0.485832 -1.125 65 68 135 255 
4.60539 -0.463716 -1.11894 68 58 131 255 
4.40611 -0.442158 -1.11723 69 56 130 255 
4.28248 -0.433419 -1.12521 71 46 124 255 
4.13559 -0.418635 -1.1278 72 32 113 255 
3.97039 -0.400478 -1.1247 71 17 100 255 
3.82436 -0.382433 -1.12608 70 7 90 255 
10.0647 -1.04027 3.0395 59 82 139 255 
9.83245 -1.00773 2.85847 58 83 139 255 
10.1352 -1.03509 2.83876 67 62 133 255 
13.3252 -1.36115 3.59658 72 31 112 255 
9.97803 -1.02603 2.60344 71 46 124 255 
16.6042 -1.7047 4.15547 72 38 119 255 
14.7639 -1.51823 3.54401 72 41 121 255 
16.8667 -1.73776 3.88344 72 40 120 255 
17.6817 -1.81509 3.92102 71 17 100 255 
17.3893 -1.78837 3.67427 72 28 110 255 
9.46251 -0.978076 1.90605 72 38 119 255 
9.56136 -0.991835 1.83371 41 122 142 255 
9.62568 -0.988106 1.76545 38 130 142 255 
9.60155 -0.989146 1.66552 36 135 142 255 
9.58098 -0.993701 1.56701 35 138 141 255 
9.55845 -0.999952 1.47406 35 138 141 255 
9.62975 -0.990219 1.40533 36 135 142 255 
9.61575 -0.992305 1.30872 35 138 141 255 
9.58017 -0.998687 1.21169 35 138 141 255 
9.56234 -1.00373 1.12098 37 132 142 255 
9.62253 -0.989478 1.04915 36 135 142 255 
9.55979 -0.991589 0.950843 44 114 142 255 
9.55967 -0.998236 0.859508 35 137 142 255 
9.54628 -1.00709 0.768965 38 129 142 255 
9.64969 -0.993969 0.700464 34 140 141 255 
9.58644 -0.996044 0.604686 32 146 140 255 
9.56085 -1.00342 0.512228 36 134 142 255 
9.49479 -1.005 0.418537 42 120 142 255 
9.62745 -0.995071 0.348137 33 143 141 255 
9.5956 -1.00038 0.256001 44 114 142 255 
9.52809 -1.00166 0.163885 43 116 142 255 
9.4436 -1.00291 0.0745885 43 116 142 255 
9.61361 -0.995333 -0.00168686 36 134 142 255 
9.57929 -1.00206 -0.0924591 40 125 142 255 
9.52943 -1.00517 -0.180643 43 116 142 255 
9.42784 -1.00456 -0.268146 48 105 142 255 
9.60576 -0.999597 -0.350754 37 133 142 255 
9.55156 -1.00253 -0.437796 42 118 142 255 
9.49669 -1.00339 -0.525544 45 113 142 255 
9.42081 -1.00547 -0.611016 46 109 142 255 
9.58374 -0.998994 -0.699146 44 115 142 255 
9.50348 -1.00084 -0.782291 46 111 142 255 
9.42653 -1.00097 -0.866041 57 85 140 255 
9.41448 -1.0048 -0.955042 62 76 138 255 
9.10792 -0.954209 -0.998087 62 76 138 255 
8.56814 -0.903845 -1.02126 68 59 132 255 
8.04747 -0.855949 -1.03672 69 55 129 255 
7.5561 -0.80912 -1.04638 66 65 134 255 
7.13739 -0.751535 -1.04827 62 73 137 255 
6.76739 -0.716274 -1.05836 61 77 138 255 
6.45175 -0.687363 -1.07063 62 74 137 255 
6.14899 -0.658444 -1.08153 65 66 135 255 
5.89007 -0.624349 -1.08709 60 80 139 255 
5.65424 -0.601449 -1.09704 58 84 140 255 
5.40758 -0.576118 -1.10345 62 76 138 255 
5.16493 -0.552159 -1.10694 63 72 137 255 
5.01012 -0.533723 -1.11792 62 76 138 255 
4.82806 -0.515271 -1.12455 66 65 134 255 
4.58892 -0.490519 -1.11565 68 57 131 255 
4.44863 -0.474014 -1.12873 70 50 126 255 
4.27205 -0.458861 -1.12319 70 48 126 255 
4.13582 -0.444312 -1.12858 72 32 113 255 
3.96786 -0.424832 -1.1247 72 24 106 255 
3.81144 -0.404776 -1.12299 70 11 94 255 
9.8744 -1.08187 2.98397 58 84 140 255 
9.84041 -1.0696 2.86263 56 89 140 255 
10.188 -1.1037 2.8554 67 62 133 255 
13.4433 -1.45662 3.63081 71 17 100 255 
13.9369 -1.51959 3.63874 72 33 115 255 
16.6272 -1.81023 4.16393 72 26 108 255 
16.7935 -1.83115 4.03384 72 35 116 255 
17.658 -1.92886 4.06829 72 40 120 255 
17.3188 -1.88529 3.84304 72 24 106 255 
15.1278 -1.64966 3.19851 72 36 117 255 
9.27212 -1.01593 1.86892 67 61 132 255 
9.26119 -1.01817 1.77731 64 69 136 255 
9.33875 -1.0166 1.71394 58 83 139 255 
9.31121 -1.01701 1.61621 62 74 137 255 
9.30293 -1.0226 1.52253 67 62 133 255 
9.25839 -1.02603 1.42873 70 52 128 255 
9.35295 -1.01979 1.36583 59 82 139 255 
9.27553 -1.01475 1.26324 67 61 132 255 
9.25829 -1.02259 1.17175 71 45 123 255 
9.24602 -1.02792 1.08462 72 38 119 255 
9.34351 -1.01876 1.01939 65 68 135 255 
9.25974 -1.01793 0.921603 69 55 129 255 
9.26627 -1.02511 0.833678 72 37 118 255 
9.2774 -1.03632 0.747804 72 35 116 255 
9.30927 -1.01667 0.676193 68 59 132 255 
9.28551 -1.02241 0.586089 71 45 123 255 
9.31732 -1.0357 0.499511 44 114 142 255 
9.32165 -1.04455 0.41118 46 111 142 255 
9.38175 -1.02789 0.339474 35 138 141 255 
9.33988 -1.03169 0.249343 33 144 141 255 
9.33892 -1.03975 0.160738 31 148 140 255 
9.34287 -1.05023 0.0738424 33 145 140 255 
9.35683 -1.02681 -0.00164288 34 141 141 255 
9.33741 -1.03472 -0.0901841 32 146 140 255 
9.35715 -1.04509 -0.177496 32 147 140 255 
9.37581 -1.05724 -0.266846 34 139 141 255 
9.368 -1.033 -0.342297 31 148 140 255 
9.37049 -1.04169 -0.429781 31 148 140 255 
9.37426 -1.04865 -0.519114 33 143 141 255 
9.37381 -1.05867 -0.608377 35 138 141 255 
9.37421 -1.03533 -0.68431 33 144 141 255 
9.37235 -1.04521 -0.77201 33 144 141 255 
9.38755 -1.05512 -0.863038 38 130 142 255 
9.40122 -1.06177 -0.95434 41 121 142 255 
9.11672 -1.01172 -0.999712 60 80 139 255 
8.56441 -0.956622 -1.02149 67 62 133 255 
8.05291 -0.906532 -1.03812 68 57 131 255 
7.56477 -0.857029 -1.04829 67 62 133 255 
7.1592 -0.798275 -1.05217 63 71 136 255 
6.75305 -0.756684 -1.05683 62 73 137 255 
6.45133 -0.727379 -1.07129 66 64 134 255 
6.15364 -0.697159 -1.08308 66 64 134 255 
5.90274 -0.662342 -1.09016 62 76 138 255 
5.64654 -0.635692 -1.09628 59 82 139 255 
5.40005 -0.608848 -1.10265 60 79 138 255 
5.15173 -0.582741 -1.10485 64 70 136 255 
4.98832 -0.562376 -1.11381 62 74 137 255 
4.819 -0.54423 -1.12319 65 66 135 255 
4.59838 -0.520087 -1.1187 68 58 131 255 
4.45045 -0.501844 -1.12995 69 55 129 255 
4.28453 -0.486813 -1.12724 70 48 126 255 
4.10904 -0.466956 -1.12204 72 41 121 255 
4.00056 -0.453179 -1.13473 72 24 106 255 
3.76311 -0.42301 -1.10949 71 16 99 255 
9.82191 -1.13715 2.97016 52 96 141 255 
13.443 -1.5447 3.91334 72 33 115 255 
13.0752 -1.49769 3.66709 71 42 122 255 
10.3119 -1.18138 2.78696 70 52 128 255 
10.2407 -1.18021 2.67554 69 56 130 255 
14.8545 -1.70952 3.72256 72 24 106 255 
18.7966 -2.16635 4.5181 72 29 111 255 
18.9192 -2.18418 4.36186 72 35 116 255 
11.8879 -1.36794 2.63972 72 29 111 255 
17.3349 -1.99804 3.66769 72 35 116 255 
9.20435 -1.0657 1.85654 72 35 116 255 
9.21086 -1.06988 1.76888 72 28 110 255 
9.18574 -1.05701 1.68702 72 28 110 255 
9.23529 -1.0661 1.60413 72 32 113 255 
9.21805 -1.07055 1.50968 72 33 115 255 
9.23425 -1.08075 1.426 72 32 113 255 
9.21772 -1.06232 1.34701 72 32 113 255 
9.21302 -1.06516 1.2556 72 31 112 255 
9.24592 -1.07869 1.171 72 29 111 255 
9.21291 -1.08151 1.08149 72 32 113 255 
9.24227 -1.06514 1.00903 72 29 111 255 
9.23553 -1.07266 0.919831 72 32 113 255 
9.28256 -1.08461 0.835726 72 35 116 255 
9.30155 -1.09684 0.75028 72 31 112 255 
9.27511 -1.07057 0.674176 72 33 115 255 
9.28105 -1.07959 0.586214 72 37 118 255 
9.31773 -1.09366 0.499884 43 116 142 255 
9.3617 -1.10724 0.413238 31 154 138 255 
9.3713 -1.08498 0.339331 36 135 142 255 
9.34827 -1.09072 0.249741 38 130 142 255 
9.35521 -1.09972 0.161131 38 130 142 255 
9.34121 -1.10812 0.0738816 38 130 142 255 
9.37121 -1.08663 -0.00164654 31 159 136 255 
9.35373 -1.09466 -0.0904049 31 152 139 255 
9.3585 -1.10342 -0.177647 32 147 140 255 
9.38701 -1.11687 -0.267355 32 146 140 255 
9.3873 -1.09346 -0.343241 31 149 139 255 
9.37979 -1.10103 -0.43051 32 146 140 255 
9.38252 -1.10791 -0.519939 34 141 141 255 
9.39389 -1.11935 -0.610115 33 143 141 255 
9.40334 -1.09699 -0.686916 32 146 140 255 
9.39645 -1.10631 -0.77454 35 136 142 255 
9.46199 -1.12232 -0.870499 38 129 142 255 
9.43701 -1.12449 -0.958655 53 95 141 255 
9.12712 -1.06961 -1.00155 66 65 134 255 
8.55542 -1.00881 -1.02114 66 64 134 255 
8.06197 -0.957682 -1.04002 68 59 132 255 
7.56429 -0.904017 -1.04897 67 62 133 255 
7.1748 -0.844618 -1.05521 65 68 135 255 
6.75711 -0.79915 -1.05821 64 69 136 255 
6.44087 -0.766251 -1.07031 68 59 132 255 
6.1424 -0.734085 -1.08187 67 61 132 255 
5.89662 -0.698317 -1.08979 61 78 138 255 
5.64156 -0.670211 -1.09609 59 81 139 255 
5.40302 -0.642781 -1.10404 60 79 138 255 
5.16359 -0.616194 -1.10819 62 73 137 255 
4.99835 -0.594588 -1.11684 61 77 138 255 
4.80589 -0.572636 -1.12094 66 64 134 255 
4.60379 -0.549329 -1.12082 67 62 133 255 
4.43574 -0.527768 -1.12701 69 53 129 255 
4.29011 -0.514129 -1.12951 69 53 129 255 
4.11951 -0.493768 -1.1257 72 41 121 255 
3.98719 -0.476461 -1.13175 72 33 115 255 
3.77093 -0.447335 -1.11259 72 22 104 255 
12.9178 -1.57596 3.9092 72 35 116 255 
10.8145 -1.30995 3.15045 62 73 137 255 
13.3564 -1.613 3.74869 64 70 136 255 
10.2814 -1.24185 2.78074 69 55 129 255 
10.2966 -1.25072 2.69212 61 78 138 255 
13.6762 -1.65901 3.42976 71 16 99 255 
15.475 -1.87981 3.72239 72 22 104 255 
17.3882 -2.11562 4.0118 71 45 123 255 
12.0547 -1.46214 2.67871 66 65 134 255 
17.6002 -2.13812 3.72652 72 38 119 255 
9.15481 -1.11694 1.8479 72 36 117 255 
9.20023 -1.1259 1.76813 72 32 113 255 
9.24354 -1.12117 1.69886 72 33 115 255 
9.24129 -1.1243 1.60634 72 38 119 255 
9.25539 -1.13249 1.51691 72 36 117 255 
9.24412 -1.13945 1.42858 72 38 119 255 
9.24247 -1.12267 1.3516 72 38 119 255 
9.23484 -1.12515 1.25949 72 41 121 255 
9.24208 -1.13577 1.17138 72 40 120 255 
9.26426 -1.14521 1.08833 72 38 119 255 
9.27207 -1.12627 1.01302 72 36 117 255 
9.26532 -1.13378 0.923474 72 41 121 255 
9.28463 -1.14264 0.836528 72 36 117 255 
9.26398 -1.15009 0.747804 72 33 115 255 
9.24956 -1.12517 0.672808 72 40 120 255 
9.28713 -1.1381 0.587028 72 41 121 255 
9.33661 -1.154 0.501267 40 125 142 255 
9.35869 -1.16516 0.413413 30 157 137 255 
9.36943 -1.14307 0.33951 32 163 134 255 
9.35827 -1.15013 0.250192 30 157 137 255 
9.35821 -1.15833 0.161302 30 157 137 255 
9.35607 -1.16815 0.0740544 35 136 142 255 
9.3733 -1.1452 -0.00164811 34 141 141 255 
9.36371 -1.15412 -0.0905681 31 153 138 255 
9.37338 -1.16353 -0.178061 31 148 140 255 
9.39684 -1.17656 -0.267835 33 144 141 255 
9.39231 -1.1525 -0.343676 31 153 138 255 
9.40161 -1.16212 -0.431831 31 150 139 255 
9.38743 -1.16694 -0.520598 34 139 141 255 
9.39576 -1.17809 -0.610694 34 139 141 255 
9.40732 -1.15601 -0.687712 32 147 140 255 
9.39443 -1.16456 -0.774948 33 142 141 255 
9.46678 -1.18183 -0.87159 41 123 142 255 
9.45659 -1.18572 -0.961365 50 101 142 255 
9.14308 -1.12839 -1.00405 68 59 132 255 
8.56089 -1.06275 -1.02255 66 64 134 255 
8.07858 -1.00996 -1.04295 69 56 130 255 
7.56352 -0.951032 -1.04965 67 62 133 255 
7.17439 -0.889234 -1.05593 63 71 136 255 
6.76875 -0.842671 -1.06082 64 70 136 255 
6.438 -0.806002 -1.07063 64 69 136 255 
6.16905 -0.775693 -1.08739 66 64 134 255 
5.86977 -0.731687 -1.08564 58 83 139 255 
5.6276 -0.703596 -1.0942 60 79 138 255 
5.40286 -0.676408 -1.10484 59 82 139 255 
5.18107 -0.650547 -1.11277 65 66 135 255 
5.00526 -0.62658 -1.11922 62 76 138 255 
4.81872 -0.604174 -1.12477 59 81 139 255 
4.59358 -0.576719 -1.11917 66 63 133 255 
4.42087 -0.553529 -1.12408 67 61 132 255 
4.28111 -0.539717 -1.128 68 57 131 255 
4.11832 -0.519277 -1.12623 70 52 128 255 
3.99279 -0.501998 -1.13419 72 40 120 255 
3.79382 -0.473675 -1.12018 72 29 111 255 
11.9047 -1.52656 3.60539 66 64 134 255 
10.8406 -1.38065 3.16045 70 51 127 255 
13.1867 -1.67466 3.70387 72 36 117 255 
12.8624 -1.63373 3.48144 72 22 104 255 
13.872 -1.77146 3.6297 72 28 110 255 
15.6872 -2.0007 3.93708 72 32 113 255 
17.2056 -2.19725 4.14184 72 23 105 255 
15.4876 -1.98088 3.57602 72 20 103 255 
12.279 -1.56585 2.73063 71 44 122 255 
12.0555 -1.53966 2.55449 72 40 120 255 
9.20225 -1.18007 1.8589 72 35 116 255 
9.21068 -1.18458 1.7715 72 29 111 255 
9.17306 -1.16978 1.6872 72 26 108 255 
9.24888 -1.18285 1.60889 72 36 117 255 
9.22379 -1.18611 1.51289 72 32 113 255 
9.21147 -1.19284 1.42464 72 31 112 255 
9.24719 -1.18087 1.35333 72 38 119 255 
9.21892 -1.18066 1.25828 72 29 111 255 
9.2251 -1.19118 1.17013 72 27 109 255 
9.2413 -1.19998 1.08647 72 27 109 255 
9.26696 -1.18339 1.01324 72 31 112 255 
9.2651 -1.1915 0.924163 72 26 108 255 
9.25077 -1.19614 0.834123 72 31 112 255 
9.26663 -1.2082 0.748603 72 24 106 255 
9.2682 -1.18519 0.67468 72 29 111 255 
9.28393 -1.19557 0.587279 72 35 116 255 
9.33133 -1.21152 0.501373 47 107 142 255 
9.35929 -1.2236 0.413763 31 150 139 255 
9.36917 -1.20142 0.339762 31 158 137 255 
9.36095 -1.20881 0.250457 31 154 138 255 
9.36282 -1.21727 0.161507 31 148 140 255 
9.38442 -1.23021 0.0743372 33 143 141 255 
9.36312 -1.20231 -0.00164759 41 122 142 255 
9.36339 -1.21245 -0.0906353 49 103 142 255 
9.39085 -1.22425 -0.178532 36 135 142 255 
9.39638 -1.23511 -0.268033 37 132 142 255 
9.393 -1.21114 -0.343967 32 146 140 255 
9.4052 -1.2212 -0.432332 34 141 141 255 
9.40188 -1.22736 -0.521807 37 132 142 255 
9.41111 -1.23871 -0.612175 38 130 142 255 
9.40104 -1.21384 -0.687784 35 137 142 255 
9.39896 -1.22372 -0.775927 36 135 142 255 
9.47022 -1.24132 -0.872591 39 126 142 255 
9.46196 -1.24541 -0.96267 48 105 142 255 
9.1557 -1.18703 -1.00621 69 55 129 255 
8.57981 -1.1186 -1.02561 64 70 136 255 
8.04175 -1.05551 -1.03901 68 57 131 255 
7.55557 -0.997164 -1.04938 67 61 132 255 
7.17076 -0.933494 -1.05622 64 69 136 255 
6.77227 -0.885341 -1.06221 64 69 136 255 
6.43978 -0.846389 -1.07177 64 69 136 255 
6.16613 -0.813789 -1.08773 66 65 134 255 
5.86517 -0.767689 -1.08564 61 77 138 255 
5.6222 -0.737986 -1.09401 59 81 139 255 
5.38987 -0.708397 -1.10305 58 83 139 255 
5.16049 -0.680152 -1.10923 64 70 136 255 
5.00132 -0.65728 -1.11922 59 81 139 255 
4.81106 -0.633221 -1.12387 60 79 138 255 
4.60827 -0.607307 -1.12364 67 61 132 255 
4.43854 -0.583425 -1.12946 68 58 131 255 
4.27484 -0.565594 -1.12724 67 62 133 255 
4.12654 -0.546056 -1.12937 69 56 130 255 
3.9925 -0.526866 -1.135 70 50 126 255 
3.83081 -0.502183 -1.13199 72 35 116 255 
10.3451 -1.39114 3.13559 64 69 136 255 
10.4739 -1.39931 3.05599 64 69 136 255 
13.1227 -1.74841 3.68883 72 40 120 255 
12.9842 -1.73022 3.51722 71 42 122 255 
11.6054 -1.55444 3.03907 69 55 129 255 
11.1157 -1.48702 2.79198 72 36 117 255 
17.1957 -2.30329 4.14277 72 37 118 255 
18.5328 -2.48604 4.28261 71 17 100 255 
11.7736 -1.57487 2.62033 67 62 133 255 
11.5851 -1.55189 2.45678 59 82 139 255 
9.24537 -1.24331 1.86912 72 33 115 255 
9.2305 -1.24475 1.77675 72 29 111 255 
9.19594 -1.23008 1.69276 72 26 108 255 
9.23559 -1.23879 1.60787 72 29 111 255 
9.22026 -1.24321 1.51354 72 29 111 255 
9.25491 -1.25626 1.43252 72 22 104 255 
9.25448 -1.23956 1.35548 72 28 110 255 
9.25078 -1.24248 1.26364 72 23 105 255 
9.22647 -1.24896 1.17125 72 24 106 255 
9.27903 -1.26282 1.0918 72 20 103 255 
9.28613 -1.24379 1.01615 72 23 105 255 
9.28621 -1.25218 0.927018 72 22 104 255 
9.28767 -1.2589 0.838131 71 19 101 255 
9.27583 -1.26733 0.74996 71 19 101 255 
9.2825 -1.24496 0.676265 72 27 109 255 
9.28136 -1.25318 0.587592 72 24 106 255 
9.35934 -1.2736 0.503289 54 93 141 255 
9.39714 -1.28724 0.415778 35 136 142 255 
9.38144 -1.26155 0.340481 33 142 141 255 
9.38506 -1.27052 0.251306 36 134 142 255 
9.40372 -1.28131 0.162345 36 134 142 255 
9.40641 -1.29185 0.0745728 36 135 142 255 
9.40314 -1.26614 -0.00165597 35 136 142 255 
9.39838 -1.27566 -0.0910481 38 129 142 255 
9.401 -1.28429 -0.178872 54 93 141 255 
9.40942 -1.29561 -0.268627 47 107 142 255 
9.39826 -1.27049 -0.344438 37 132 142 255 
9.42723 -1.28293 -0.433698 39 128 142 255 
9.43176 -1.29017 -0.523895 39 128 142 255 
9.432 -1.30039 -0.614041 38 129 142 255 
9.42406 -1.27565 -0.690027 39 128 142 255 
9.42683 -1.28622 -0.778864 39 127 142 255 
9.47722 -1.30144 -0.873956 39 127 142 255 
9.464 -1.3048 -0.963673 53 94 141 255 
9.13643 -1.24158 -1.00491 66 63 133 255 
8.56 -1.16947 -1.02408 65 68 135 255 
8.02627 -1.10362 -1.03786 69 56 130 255 
7.55618 -1.04445 -1.05034 67 61 132 255 
7.1698 -0.978144 -1.05694 65 68 135 255 
6.78335 -0.929157 -1.06482 63 71 136 255 
6.45304 -0.888444 -1.07487 65 68 135 255 
6.15419 -0.850664 -1.08653 63 72 137 255 
5.87594 -0.805801 -1.08853 58 83 139 255 
5.60979 -0.771399 -1.09249 61 78 138 255 
5.39027 -0.742124 -1.10404 61 77 138 255 
5.15816 -0.712071 -1.10965 63 72 137 255 
4.98849 -0.686757 -1.11727 60 79 138 255 
4.80419 -0.66233 -1.12319 59 82 139 255 
4.60831 -0.636103 -1.12458 63 71 136 255 
4.44352 -0.611839 -1.13166 66 65 134 255 
4.30771 -0.596859 -1.13685 66 65 134 255 
4.12024 -0.570968 -1.12858 67 61 132 255 
3.99014 -0.551485 -1.13528 70 51 127 255 
3.84762 -0.528421 -1.13789 70 48 126 255 
10.3269 -1.45326 3.13271 63 71 136 255 
10.3633 -1.44932 3.02627 64 69 136 255 
10.9117 -1.52202 3.06987 67 61 132 255 
11.6926 -1.63118 3.16999 71 42 122 255 
11.4912 -1.61097 3.01168 68 58 131 255 
15.1829 -2.12604 3.81677 72 24 106 255 
15.3106 -2.14651 3.69173 72 41 121 255 
11.8104 -1.65811 2.73147 72 35 116 255 
12.4348 -1.74106 2.76983 70 51 127 255 
11.775 -1.65093 2.49916 72 24 106 255 
9.24824 -1.30152 1.87128 72 28 110 255 
9.26645 -1.30754 1.78518 72 22 104 255 
9.23888 -1.29358 1.70209 72 20 103 255 
9.26685 -1.30092 1.61468 72 22 104 255 
9.26816 -1.30762 1.52269 72 29 111 255 
9.29302 -1.31955 1.43965 72 29 111 255 
9.2761 -1.30044 1.35979 72 24 106 255 
9.26359 -1.30211 1.26646 72 22 104 255 
9.27266 -1.3132 1.17812 72 24 106 255 
9.31536 -1.32604 1.09701 72 28 110 255 
9.31278 -1.30558 1.01992 72 20 103 255 
9.32171 -1.31526 0.93135 72 27 109 255 
9.32119 -1.32174 0.841872 72 28 110 255 
9.31328 -1.33071 0.753634 72 29 111 255 
9.29839 -1.30522 0.677993 72 26 108 255 
9.34959 -1.32086 0.592413 72 31 112 255 
9.38892 -1.33636 0.505311 43 117 142 255 
9.40093 -1.34657 0.416303 31 148 140 255 
9.42201 -1.32592 0.342242 31 158 137 255 
9.41668 -1.33369 0.252367 31 151 139 255 
9.4135 -1.34153 0.162653 31 150 139 255 
9.4181 -1.35239 0.0747299 31 148 140 255 
9.42787 -1.32842 -0.00166173 31 149 139 255 
9.41909 -1.33738 -0.0913264 32 147 140 255 
9.43748 -1.34831 -0.17972 33 145 140 255 
9.42108 -1.35616 -0.269192 46 109 142 255 
9.43185 -1.33401 -0.345963 31 149 139 255 
9.42907 -1.34215 -0.434153 33 142 141 255 
9.4385 -1.35013 -0.524719 35 136 142 255 
9.4515 -1.36222 -0.615843 33 142 141 255 
9.43975 -1.3368 -0.691764 34 140 141 255 
9.43849 -1.34686 -0.780496 34 139 141 255 
9.49271 -1.36296 -0.876139 39 128 142 255 
9.45975 -1.36341 -0.964075 55 90 140 255 
9.19556 -1.30713 -1.01228 66 64 134 255 
8.54971 -1.22155 -1.02373 65 66 135 255 
8.0223 -1.15327 -1.03824 68 58 131 255 
7.5565 -1.09179 -1.05129 63 71 136 255 
7.15681 -1.02114 -1.05593 64 69 136 255 
6.78633 -0.972023 -1.0662 64 70 136 255 
6.46602 -0.930693 -1.07796 62 73 137 255 
6.13911 -0.887001 -1.0848 65 66 135 255 
5.85726 -0.839885 -1.086 58 84 140 255 
5.61758 -0.807622 -1.09495 58 83 139 255 
5.3895 -0.775743 -1.10484 59 81 139 255 
5.18467 -0.748178 -1.11632 61 78 138 255 
4.97935 -0.716657 -1.11619 61 78 138 255 
4.81739 -0.694297 -1.12725 61 78 138 255 
4.60624 -0.664645 -1.12505 64 70 136 255 
4.42625 -0.637158 -1.12824 66 63 133 255 
4.29535 -0.622032 -1.13457 64 69 136 255 
4.12144 -0.596931 -1.12989 64 70 136 255 
3.99049 -0.576508 -1.13636 68 58 131 255 
3.83956 -0.551338 -1.13649 71 47 125 255 
10.3187 -1.51673 3.133 57 85 140 255 
10.6993 -1.56329 3.12712 54 92 141 255 
11.0213 -1.60631 3.10342 58 83 139 255 
10.762 -1.56874 2.92026 71 17 100 255 
11.9178 -1.74541 3.12624 72 37 118 255 
16.1201 -2.35822 4.05594 72 26 108 255 
15.2971 -2.24041 3.69173 71 17 100 255 
15.2855 -2.24172 3.53829 72 22 104 255 
11.9157 -1.74298 2.65652 70 48 126 255 
12.1859 -1.78485 2.58863 72 38 119 255 
9.22747 -1.35638 1.86872 72 33 115 255 
9.27478 -1.36681 1.78837 66 64 134 255 
9.20546 -1.34654 1.69743 72 32 113 255 
9.27722 -1.36047 1.61791 72 35 116 255 
9.29902 -1.37022 1.52911 72 35 116 255 
9.32386 -1.38235 1.44571 72 27 109 255 
9.26991 -1.35762 1.36008 72 33 115 255 
9.3123 -1.36728 1.27424 72 35 116 255 
9.28308 -1.37283 1.18049 72 35 116 255 
9.32866 -1.38638 1.09956 72 31 112 255 
9.3282 -1.36616 1.02251 72 28 110 255 
9.31937 -1.3733 0.931941 72 35 116 255 
9.3198 -1.37993 0.842496 72 35 116 255 
9.32465 -1.39077 0.755231 72 31 112 255 
9.32771 -1.36774 0.68073 72 36 117 255 
9.34131 -1.3782 0.592413 72 37 118 255 
9.38746 -1.39497 0.505683 41 122 142 255 
9.40336 -1.40586 0.416785 31 149 139 255 
9.42161 -1.38487 0.34253 30 157 137 255 
9.41919 -1.39305 0.252659 31 153 138 255 
9.42586 -1.40235 0.163012 31 150 139 255 
9.41358 -1.41074 0.0747613 31 148 140 255 
9.4324 -1.38813 -0.001664 31 149 139 255 
9.42851 -1.39779 -0.0914992 31 150 139 255 
9.43298 -1.40678 -0.179795 33 145 140 255 
9.41951 -1.41499 -0.26939 34 139 141 255 
9.43831 -1.39405 -0.346507 41 121 142 255 
9.42065 -1.39998 -0.434153 33 142 141 255 
9.433 -1.40846 -0.524884 35 138 141 255 
9.43704 -1.4193 -0.615457 35 138 141 255 
9.44025 -1.39601 -0.692416 34 139 141 255 
9.44287 -1.40665 -0.781556 33 142 141 255 
9.49501 -1.42281 -0.87714 39 127 142 255 
9.45219 -1.42158 -0.964175 57 85 140 255 
9.18048 -1.3625 -1.01152 66 65 134 255 
8.55483 -1.27589 -1.02526 68 58 131 255 
8.02096 -1.20335 -1.03901 68 57 131 255 
7.55553 -1.13902 -1.05211 67 62 133 255 
7.1416 -1.06372 -1.05463 63 72 137 255 
6.78317 -1.01408 -1.06666 64 69 136 255 
6.45824 -0.970057 -1.07764 61 78 138 255 
6.13647 -0.925094 -1.08532 64 69 136 255 
5.85783 -0.876682 -1.08709 62 76 138 255 
5.61932 -0.843095 -1.09628 58 84 140 255 
5.37301 -0.807051 -1.10245 60 80 139 255 
5.17708 -0.779539 -1.11569 61 77 138 255 
4.99899 -0.750821 -1.12161 59 82 139 255 
4.80919 -0.723263 -1.12635 62 76 138 255 
4.63764 -0.69825 -1.13374 60 80 139 255 
4.42225 -0.664305 -1.12824 65 66 135 255 
4.2838 -0.64722 -1.13255 65 68 135 255 
4.14632 -0.626534 -1.13775 64 69 136 255 
3.98022 -0.599978 -1.13446 68 57 131 255 
3.8323 -0.574318 -1.13536 70 51 127 255 
10.3925 -1.59279 3.15831 50 102 142 255 
11.2707 -1.71748 3.29714 71 47 125 255 
10.6731 -1.62251 3.00813 54 92 141 255 
10.6796 -1.62372 2.90055 68 58 131 255 
11.9509 -1.82523 3.1378 70 50 126 255 
19.1213 -2.91721 4.81548 71 17 100 255 
14.4995 -2.21455 3.50244 72 22 104 255 
17.8596 -2.73126 4.13794 71 16 99 255 
11.8825 -1.81267 2.65157 66 64 134 255 
17.5892 -2.68661 3.73989 72 26 108 255 
9.30427 -1.42605 1.88601 34 139 141 255 
9.34292 -1.43548 1.80317 31 151 139 255 
9.35262 -1.42674 1.72615 33 145 140 255 
9.3437 -1.42884 1.631 31 148 140 255 
9.34605 -1.43579 1.53826 33 144 141 255 
9.30836 -1.43847 1.44465 46 109 142 255 
9.2477 -1.41238 1.35807 72 29 111 255 
9.32724 -1.42799 1.27746 72 31 112 255 
9.25977 -1.4275 1.17862 72 31 112 255 
9.30231 -1.44086 1.09747 72 35 116 255 
9.34127 -1.42667 1.02488 72 35 116 255 
9.31569 -1.43121 0.932433 72 31 112 255 
9.27966 -1.43222 0.839645 72 38 119 255 
9.30609 -1.44643 0.754432 72 32 113 255 
9.3359 -1.42752 0.681955 72 37 118 255 
9.31887 -1.43337 0.591536 72 38 119 255 
9.37675 -1.45224 0.505577 42 119 142 255 
9.39653 -1.46384 0.416873 31 149 139 255 
9.41293 -1.44265 0.34253 31 161 136 255 
9.40948 -1.45066 0.252633 30 155 138 255 
9.42696 -1.4617 0.163183 31 151 139 255 
9.40179 -1.46801 0.0747377 31 148 140 255 
9.43162 -1.4472 -0.00166539 31 152 139 255 
9.42667 -1.45668 -0.0915664 32 146 140 255 
9.4222 -1.46433 -0.179758 33 145 140 255 
9.40768 -1.47229 -0.269305 35 136 142 255 
9.41773 -1.45011 -0.346072 45 112 142 255 
9.40596 -1.45684 -0.43388 35 137 142 255 
9.43108 -1.46739 -0.525269 33 142 141 255 
9.43801 -1.47872 -0.6161 35 138 141 255 
9.43348 -1.45421 -0.69256 34 141 141 255 
9.42913 -1.4638 -0.781148 33 143 141 255 
9.50184 -1.4835 -0.878596 38 129 142 255 
9.45214 -1.48094 -0.965078 62 76 138 255 
9.16999 -1.4185 -1.01131 66 64 134 255 
8.57431 -1.33263 -1.02856 70 50 126 255 
8.0242 -1.25423 -1.04041 69 55 129 255 
7.59244 -1.19228 -1.05825 68 58 131 255 
7.13494 -1.10752 -1.05463 63 72 137 255 
6.80025 -1.05933 -1.07035 63 72 137 255 
6.42877 -1.00601 -1.07373 64 69 136 255 
6.13652 -0.963646 -1.08635 64 69 136 255 
5.86692 -0.914882 -1.08979 61 78 138 255 
5.61113 -0.877104 -1.09571 58 83 139 255 
5.37086 -0.840458 -1.10305 60 80 139 255 
5.1693 -0.810836 -1.11507 63 71 136 255 
5.00201 -0.782688 -1.12334 61 77 138 255 
4.79696 -0.751552 -1.12455 60 79 138 255 
4.62174 -0.724886 -1.13092 61 77 138 255 
4.43725 -0.694425 -1.13313 65 66 135 255 
4.28548 -0.674395 -1.13407 64 70 136 255 
4.13192 -0.650313 -1.13487 64 69 136 255 
4.00499 -0.628868 -1.1426 66 64 134 255 
3.84009 -0.599598 -1.13874 69 55 129 255 
10.4071 -1.66045 3.16579 59 82 139 255 
10.6537 -1.69041 3.11961 66 63 133 255 
10.6496 -1.68586 3.00437 51 99 141 255 
10.7382 -1.70009 2.91922 55 90 140 255 
13.9144 -2.21256 3.65683 72 27 109 255 
18.1485 -2.88286 4.57486 72 22 104 255 
18.8217 -2.99298 4.55085 71 42 122 255 
12.1475 -1.93407 2.81719 72 41 121 255 
11.8529 -1.88264 2.64748 62 76 138 255 
17.7725 -2.8263 3.78247 72 31 112 255 
9.31083 -1.48558 1.88916 34 139 141 255 
9.34848 -1.49511 1.80598 33 143 141 255 
9.34758 -1.48471 1.72686 32 146 140 255 
9.34741 -1.48816 1.63321 33 144 141 255 
9.35363 -1.49576 1.54099 32 146 140 255 
9.34718 -1.50325 1.45208 32 146 140 255 
9.35321 -1.48728 1.37488 33 145 140 255 
9.35451 -1.49096 1.28243 34 140 141 255 
9.30276 -1.49262 1.18523 46 109 142 255 
9.34233 -1.50581 1.10326 49 103 142 255 
9.36474 -1.48911 1.02844 49 104 142 255 
9.30968 -1.48882 0.932728 72 28 110 255 
9.31298 -1.49593 0.843475 72 31 112 255 
9.29606 -1.50334 0.754352 72 26 108 255 
9.31712 -1.4832 0.681234 72 32 113 255 
9.3237 -1.49273 0.592413 72 36 117 255 
9.37062 -1.51022 0.505736 44 113 142 255 
9.40414 -1.52418 0.417617 32 146 140 255 
9.42265 -1.50337 0.343213 31 159 136 255 
9.42705 -1.51265 0.253349 31 151 139 255 
9.44249 -1.52349 0.163611 31 150 139 255 
9.43406 -1.53241 0.0750676 33 144 141 255 
9.44033 -1.50788 -0.00166853 31 150 139 255 
9.42743 -1.51609 -0.0916624 35 138 141 255 
9.41698 -1.52275 -0.179833 35 138 141 255 
9.42511 -1.53433 -0.270069 38 130 142 255 
9.40569 -1.50739 -0.345963 31 148 140 255 
9.40375 -1.51564 -0.434199 50 100 142 255 
9.43274 -1.52699 -0.525873 38 130 142 255 
9.44452 -1.53918 -0.61713 39 126 142 255 
9.44801 -1.51586 -0.694297 34 141 141 255 
9.43965 -1.52481 -0.78278 36 134 142 255 
9.5073 -1.54417 -0.879961 37 131 142 255 
9.53322 -1.55363 -0.974312 56 88 140 255 
9.11007 -1.46653 -1.00567 63 72 137 255 
8.57676 -1.38696 -1.02985 67 61 132 255 
8.04377 -1.3079 -1.04396 68 58 131 255 
7.61236 -1.24331 -1.06207 67 62 133 255 
7.14266 -1.15365 -1.0568 65 66 135 255 
6.80728 -1.10325 -1.0725 62 76 138 255 
6.41761 -1.04464 -1.07291 63 71 136 255 
6.13049 -1.00128 -1.08635 67 62 133 255 
5.86411 -0.951336 -1.09034 63 71 136 255 
5.63665 -0.91656 -1.10177 57 86 140 255 
5.40526 -0.879853 -1.1112 60 79 138 255 
5.17871 -0.844901 -1.11819 62 76 138 255 
4.98362 -0.811169 -1.12031 61 77 138 255 
4.79514 -0.781442 -1.12522 59 81 139 255 
4.6009 -0.75057 -1.12693 64 70 136 255 
4.44822 -0.724131 -1.13704 64 69 136 255 
4.26694 -0.698333 -1.13027 67 62 133 255 
4.12118 -0.674562 -1.13303 63 71 136 255 
4.00675 -0.654361 -1.14423 67 62 133 255 
3.8136 -0.619456 -1.13199 69 55 129 255 
10.6613 -1.76815 3.24635 64 69 136 255 
10.5379 -1.73839 3.08878 72 35 116 255 
10.6505 -1.75305 3.0076 66 65 134 255 
10.8543 -1.78681 2.95371 66 64 134 255 
13.9349 -2.30358 3.66587 72 40 120 255 
10.5603 -1.74397 2.66466 72 33 115 255 
18.7752 -3.10382 4.54411 71 45 123 255 
12.7115 -2.10391 2.95092 70 50 126 255 
18.5517 -3.06346 4.14786 72 37 118 255 
12.2784 -2.02992 2.61578 72 20 103 255 
9.32379 -1.54638 1.89367 35 136 142 255 
9.36239 -1.5563 1.81048 35 137 142 255 
9.33829 -1.54204 1.72686 34 139 141 255 
9.35754 -1.5487 1.63661 33 145 140 255 
9.37349 -1.55798 1.54581 34 139 141 255 
9.35728 -1.56383 1.45511 35 137 142 255 
9.37516 -1.54981 1.37947 32 147 140 255 
9.37549 -1.55336 1.28659 34 140 141 255 
9.36878 -1.56224 1.19484 45 112 142 255 
9.38679 -1.57213 1.10963 37 133 142 255 
9.39368 -1.55287 1.03265 49 104 142 255 
9.32393 -1.54983 0.935091 65 68 135 255 
9.36356 -1.56305 0.848908 72 28 110 255 
9.39578 -1.57869 0.763216 71 19 101 255 
9.3167 -1.54181 0.681882 71 17 100 255 
9.33011 -1.55253 0.593415 72 22 104 255 
9.39466 -1.5733 0.507545 48 105 142 255 
9.42416 -1.58683 0.418931 35 137 142 255 
9.42508 -1.56312 0.343644 33 142 141 255 
9.43534 -1.57342 0.253826 35 136 142 255 
9.44282 -1.58306 0.163782 35 138 141 255 
9.43237 -1.5916 0.0751304 35 138 141 255 
9.45162 -1.56922 -0.0016722 35 138 141 255 
9.43571 -1.57687 -0.0918352 35 137 142 255 
9.44099 -1.58614 -0.180474 35 137 142 255 
9.45297 -1.59846 -0.271143 37 133 142 255 
9.44556 -1.57328 -0.347777 35 138 141 255 
9.44945 -1.58256 -0.436749 42 118 142 255 
9.45569 -1.5903 -0.527687 42 120 142 255 
9.4595 -1.60126 -0.618739 37 133 142 255 
9.46805 -1.57873 -0.696468 38 130 142 255 
9.48418 -1.59178 -0.787268 35 138 141 255 
9.52711 -1.60744 -0.88269 37 132 142 255 
9.60591 -1.62604 -0.982742 61 78 138 255 
9.09992 -1.52223 -1.00556 66 65 134 255 
8.53381 -1.4338 -1.02573 65 68 135 255 
8.04244 -1.35839 -1.04485 68 58 131 255 
7.60947 -1.29082 -1.06275 66 65 134 255 
7.17156 -1.20351 -1.06214 63 71 136 255 
6.79258 -1.14369 -1.07127 62 74 137 255 
6.43832 -1.0886 -1.07747 60 79 138 255 
6.13394 -1.04053 -1.08808 65 68 135 255 
5.88531 -0.991877 -1.09539 62 74 137 255 
5.61834 -0.949002 -1.09931 58 83 139 255 
5.39976 -0.913002 -1.1112 62 76 138 255 
5.16475 -0.875191 -1.11632 63 72 137 255 
5.00262 -0.845802 -1.12572 60 79 138 255 
4.78449 -0.809874 -1.12387 60 80 139 255 
4.60483 -0.780248 -1.12904 60 79 138 255 
4.4284 -0.748825 -1.13313 64 69 136 255 
4.27402 -0.726447 -1.13331 63 71 136 255 
4.13314 -0.702586 -1.13749 64 70 136 255 
4.00171 -0.678773 -1.14396 65 66 135 255 
3.83244 -0.646677 -1.13874 64 69 136 255 
10.4766 -1.80363 3.19341 62 73 137 255 
10.5356 -1.80448 3.09128 62 76 138 255 
10.9643 -1.87387 3.09939 63 72 137 255 
10.7165 -1.83173 2.91922 61 77 138 255 
10.6665 -1.83058 2.80894 71 46 124 255 
10.5886 -1.81546 2.67457 60 80 139 255 
18.495 -3.17421 4.48094 71 17 100 255 
12.7242 -2.18633 2.95695 71 42 122 255 
12.0185 -2.06046 2.68991 72 32 113 255 
17.6959 -3.03723 3.77383 72 22 104 255 
9.32862 -1.60605 1.89662 38 130 142 255 
9.36912 -1.61656 1.81366 34 140 141 255 
9.3655 -1.60563 1.73368 35 136 142 255 
9.37506 -1.61076 1.64137 31 151 139 255 
9.40169 -1.62201 1.55207 31 150 139 255 
9.39718 -1.62983 1.46284 31 156 137 255 
9.3879 -1.61115 1.38278 31 148 140 255 
9.38043 -1.61337 1.2886 42 119 142 255 
9.39226 -1.62545 1.19909 31 148 140 255 
9.40045 -1.63378 1.11241 32 146 140 255 
9.42415 -1.61737 1.03707 45 113 142 255 
9.41525 -1.62444 0.945232 31 151 139 255 
9.40384 -1.62914 0.853451 32 146 140 255 
9.39082 -1.63716 0.763615 50 101 142 255 
9.32771 -1.60249 0.683395 72 31 112 255 
9.37057 -1.61841 0.596608 72 36 117 255 
9.41336 -1.63587 0.509088 46 111 142 255 
9.43491 -1.64824 0.419851 31 156 137 255 
9.45175 -1.6272 0.344974 31 156 137 255 
9.44521 -1.6347 0.254357 31 151 139 255 
9.44278 -1.64268 0.163953 31 153 138 255 
