ply
format ascii 1.0
comment VTK generated PLY File
obj_info vtkPolyData points and polygons: vtk4.0
element vertex 1231
property float x
property float y
property float z
property uchar red
property uchar green
property uchar blue
property uchar alpha
element face 0
property list uchar int vertex_indices
end_header
-15.6095 26.3825 3.85625 67 61 132 255 
-15.5826 26.3799 3.57209 70 51 127 255 
-8.71881 14.6891 1.85266 71 44 122 255 
-8.34914 14.0948 1.62071 62 73 137 255 
-8.17748 13.8267 1.43649 61 77 138 255 
-7.81918 13.253 1.23266 69 56 130 255 
-7.71654 13.0057 1.09196 62 76 138 255 
-7.01021 11.8392 0.863229 58 83 139 255 
-7.00225 11.8538 0.733571 61 77 138 255 
-6.97464 11.831 0.602033 66 65 134 255 
-5.94643 10.0303 0.419418 53 95 141 255 
-5.75094 9.72017 0.29969 57 86 140 255 
-5.59782 9.48004 0.188325 59 82 139 255 
-4.37439 7.42612 0.0676928 35 137 142 255 
-5.40302 9.11729 -0.0018497 53 95 141 255 
-5.38495 9.10883 -0.101578 51 98 141 255 
-5.18635 8.79022 -0.192405 58 83 139 255 
-5.02224 8.53274 -0.28002 61 77 138 255 
-5.03125 8.50008 -0.358739 52 97 141 255 
-4.84397 8.20028 -0.434153 60 79 138 255 
-4.85276 8.22811 -0.525708 51 99 141 255 
-4.67836 7.95166 -0.594991 67 62 133 255 
-4.66234 7.87995 -0.664337 53 95 141 255 
-4.6552 7.887 -0.749736 50 101 142 255 
-4.48689 7.61687 -0.807631 52 97 141 255 
-4.47874 7.61238 -0.890911 55 91 141 255 
-4.30815 7.29002 -0.922894 56 88 140 255 
-4.29783 7.28443 -1.00254 49 104 142 255 
-4.29812 7.29933 -1.08513 52 97 141 255 
-4.05059 6.89015 -1.10053 64 69 136 255 
-3.8503 6.52305 -1.10637 62 73 137 255 
-3.67481 6.23343 -1.12537 53 94 141 255 
-3.46738 5.89086 -1.12794 63 71 136 255 
-3.28734 5.59184 -1.13442 65 66 135 255 
-3.14805 5.34183 -1.13799 61 78 138 255 
-3.01418 5.11895 -1.1461 62 76 138 255 
-2.86841 4.87325 -1.14739 62 74 137 255 
-2.75323 4.68145 -1.15738 62 73 137 255 
-2.64448 4.4927 -1.1567 62 73 137 255 
-2.53038 4.30075 -1.15568 61 78 138 255 
-2.44212 4.15233 -1.16452 62 73 137 255 
-2.35096 3.99425 -1.16933 63 71 136 255 
-2.27528 3.87319 -1.17428 61 77 138 255 
-2.18895 3.7264 -1.17257 65 68 135 255 
-2.12242 3.61018 -1.18031 58 84 140 255 
-2.03108 3.44803 -1.17248 65 68 135 255 
-9.40871 16.0947 5.60027 72 23 105 255 
-9.19821 15.7036 5.26326 70 11 94 255 
-9.23573 15.7548 5.08862 71 13 96 255 
-11.123 18.9751 5.90586 72 24 106 255 
-11.9074 20.3445 6.11833 72 22 104 255 
-11.7917 20.1395 5.81008 71 17 100 255 
-12.7574 21.7971 6.03079 70 8 92 255 
-12.9979 22.2178 5.89537 72 20 103 255 
-11.8953 20.3157 5.19328 72 27 109 255 
-11.7786 20.125 4.90122 72 33 115 255 
-11.7049 20.0228 4.64705 72 27 109 255 
-0 0 0 68 1 84 255 
-11.7324 20.0376 4.23648 72 38 119 255 
-12.5762 21.4964 4.29736 72 31 112 255 
-12.8101 21.9309 4.13179 71 13 96 255 
-28.0097 48.0508 8.53071 69 5 89 255 
-27.6783 47.2902 7.95461 70 8 92 255 
-15.4763 26.4642 4.15048 65 66 135 255 
-15.4478 26.4786 3.85637 68 59 132 255 
-15.4259 26.4845 3.57336 70 51 127 255 
-8.61848 14.7252 1.85051 72 38 119 255 
-8.26099 14.1432 1.62041 66 64 134 255 
-8.07593 13.8482 1.43355 63 71 136 255 
-7.80238 13.4119 1.24296 65 68 135 255 
-7.64415 13.0657 1.09304 61 78 138 255 
-6.97921 11.9535 0.868426 57 86 140 255 
-6.94798 11.9284 0.735539 63 72 137 255 
-6.94258 11.9435 0.60558 66 65 134 255 
-5.8999 10.0925 0.420497 54 93 141 255 
-5.7199 9.80449 0.301202 60 80 139 255 
-5.55011 9.53235 0.188685 60 79 138 255 
-5.51351 9.49264 0.0862201 62 73 137 255 
-5.34042 9.13905 -0.00184743 68 57 131 255 
-5.34507 9.16934 -0.101886 56 89 140 255 
-5.16802 8.88324 -0.193743 57 86 140 255 
-4.98886 8.59625 -0.281094 62 73 137 255 
-4.99613 8.56013 -0.359973 53 95 141 255 
-4.80563 8.25057 -0.435246 57 85 140 255 
-4.81273 8.27586 -0.526862 56 88 140 255 
-4.63249 7.9854 -0.595377 63 72 137 255 
-4.63803 7.94976 -0.66781 51 98 141 255 
-4.62577 7.94815 -0.752837 53 95 141 255 
-4.45858 7.67612 -0.810998 52 97 141 255 
-4.44393 7.66037 -0.89332 54 93 141 255 
-4.27685 7.33951 -0.92582 51 98 141 255 
-4.26903 7.33813 -1.00631 48 105 142 255 
-4.25027 7.32042 -1.08437 56 88 140 255 
-4.00178 6.90373 -1.09876 65 66 135 255 
-3.80871 6.54399 -1.10594 62 73 137 255 
-3.63997 6.26184 -1.12644 55 90 140 255 
-3.42126 5.89496 -1.12469 57 85 140 255 
-3.25791 5.62043 -1.13614 66 64 134 255 
-3.11274 5.35679 -1.13709 62 76 138 255 
-2.97679 5.12716 -1.14383 62 73 137 255 
-2.83206 4.87974 -1.14481 61 78 138 255 
-2.722 4.69403 -1.15634 62 76 138 255 
-2.60951 4.49618 -1.15345 60 80 139 255 
-2.51372 4.33305 -1.1602 57 86 140 255 
-2.41904 4.17144 -1.1657 62 73 137 255 
-2.30694 3.97506 -1.15955 61 78 138 255 
-2.23984 3.86699 -1.16821 63 71 136 255 
-2.1733 3.75229 -1.1765 63 72 137 255 
-2.08961 3.60482 -1.17434 61 78 138 255 
-2.00554 3.45296 -1.16995 64 70 136 255 
-9.31743 16.1654 5.60487 63 72 137 255 
-9.34477 16.1807 5.40383 61 77 138 255 
-9.12057 15.7795 5.07842 70 8 92 255 
-9.34775 16.1732 5.01586 68 58 131 255 
-9.35125 16.2045 4.85592 65 68 135 255 
-9.35522 16.2053 4.65845 65 68 135 255 
-9.35939 16.2187 4.47142 69 55 129 255 
-9.34243 16.1966 4.28238 69 53 129 255 
-9.33752 16.1742 4.11985 70 48 126 255 
-9.35743 16.2157 3.93509 66 65 134 255 
-9.34222 16.2086 3.74845 67 62 133 255 
-9.34044 16.2192 3.57036 69 55 129 255 
-9.32557 16.1535 3.40311 72 35 116 255 
-9.32477 16.1656 3.22017 72 37 118 255 
-9.33405 16.2075 3.04265 71 42 122 255 
-9.30691 16.1936 2.86474 71 44 122 255 
-9.34076 16.1863 2.71298 70 8 92 255 
-15.3072 26.5475 4.14874 68 58 131 255 
-15.2846 26.572 3.85625 71 47 125 255 
-15.2587 26.5709 3.57232 71 42 122 255 
-8.51107 14.7485 1.84684 72 41 121 255 
-8.15618 14.1625 1.61687 66 65 134 255 
-7.93073 13.793 1.42277 62 73 137 255 
-7.70506 13.4336 1.24056 66 64 134 255 
-7.55537 13.0977 1.09182 58 84 140 255 
-6.91967 12.0203 0.870179 57 85 140 255 
-6.91544 12.0418 0.739902 62 73 137 255 
-6.8955 12.0318 0.607901 66 64 134 255 
-5.86481 10.1752 0.422438 52 96 141 255 
-5.67409 9.86453 0.301971 51 98 141 255 
-5.49998 9.58097 0.188975 62 76 138 255 
-5.50137 9.607 0.0869505 55 90 140 255 
-4.24536 7.36851 -0.00148423 33 145 140 255 
-5.30316 9.22711 -0.102164 62 74 137 255 
-5.12485 8.93473 -0.194177 58 84 140 255 
-4.94297 8.63885 -0.28149 62 76 138 255 
-4.95298 8.60708 -0.360662 55 91 141 255 
-4.77979 8.32321 -0.437523 55 90 140 255 
-4.77229 8.32342 -0.528016 56 89 140 255 
-4.58539 8.01714 -0.595635 62 76 138 255 
-4.59413 7.98672 -0.668534 53 94 141 255 
-4.57939 7.9807 -0.753245 58 84 140 255 
-4.41535 7.71024 -0.811725 50 100 142 255 
-4.40623 7.7039 -0.895226 54 92 141 255 
-4.24214 7.38372 -0.928095 51 98 141 255 
-4.24319 7.39778 -1.0109 50 100 142 255 
-4.21858 7.3696 -1.0878 65 68 135 255 
-3.94754 6.90752 -1.09549 64 69 136 255 
-3.77735 6.58268 -1.10854 64 69 136 255 
-3.59804 6.27806 -1.12537 54 93 141 255 
-3.39483 5.93296 -1.12794 50 100 142 255 
-3.21114 5.61894 -1.13183 64 69 136 255 
-3.08324 5.38177 -1.13835 60 79 138 255 
-2.92869 5.11636 -1.13739 63 72 137 255 
-2.80109 4.89533 -1.14441 61 78 138 255 
-2.69072 4.70639 -1.15529 61 78 138 255 
-2.59497 4.53498 -1.1593 62 76 138 255 
-2.48998 4.35347 -1.16155 62 76 138 255 
-2.39436 4.18789 -1.16617 63 72 137 255 
-2.28876 4.00008 -1.16273 62 73 137 255 
-2.21031 3.87057 -1.16517 64 69 136 255 
-2.14736 3.76052 -1.17493 64 69 136 255 
-2.05885 3.60253 -1.16946 62 74 137 255 
-1.98432 3.4652 -1.16995 63 71 136 255 
-9.19441 16.1806 5.59049 65 66 135 255 
-9.21727 16.1885 5.38744 64 69 136 255 
-9.21435 16.1699 5.18579 67 62 133 255 
-9.22969 16.1976 5.00575 69 53 129 255 
-9.19995 16.1707 4.82879 67 62 133 255 
-9.21194 16.1857 4.63646 68 57 131 255 
-9.22074 16.2074 4.4526 66 63 133 255 
-9.21589 16.2062 4.26988 70 52 128 255 
-9.22892 16.215 4.11576 62 76 138 255 
-9.23647 16.2354 3.92604 62 76 138 255 
-9.22757 16.2392 3.74236 60 80 139 255 
-9.21795 16.2361 3.56156 63 72 137 255 
-9.23504 16.2258 3.40634 56 88 140 255 
-9.23271 16.2354 3.22272 57 86 140 255 
-9.23345 16.2627 3.04233 57 86 140 255 
-9.21176 16.2582 2.86611 59 82 139 255 
-9.2486 16.2562 2.71513 55 91 141 255 
-9.24634 16.2659 2.53306 61 77 138 255 
-9.22369 16.2654 2.35224 62 76 138 255 
-9.18992 16.2328 2.1748 68 58 131 255 
-8.40468 14.7728 1.84339 69 53 129 255 
-8.09664 14.2608 1.62238 65 66 135 255 
-7.81648 13.7895 1.41743 67 62 133 255 
-7.64604 13.5222 1.2444 65 66 135 255 
-7.47634 13.1464 1.09203 63 71 136 255 
-6.86746 12.1007 0.872934 62 74 137 255 
-6.86159 12.1197 0.742084 66 63 133 255 
-6.85398 12.1313 0.610792 68 58 131 255 
-5.82152 10.2449 0.42384 54 92 141 255 
-5.5819 9.84351 0.300273 54 92 141 255 
-5.46374 9.65456 0.189762 57 86 140 255 
-5.45461 9.66234 0.0871469 57 85 140 255 
-5.26836 9.27519 -0.00186174 66 65 134 255 
-4.13731 7.30196 -0.0805658 33 145 140 255 
-4.08813 7.22972 -0.156574 65 68 135 255 
-4.08594 7.24377 -0.235211 61 77 138 255 
-4.91141 8.6573 -0.361497 56 88 140 255 
-4.73257 8.35934 -0.437887 55 90 140 255 
-4.71179 8.33603 -0.526972 61 78 138 255 
-4.43024 7.85736 -0.581733 64 70 136 255 
-4.56964 8.05814 -0.672153 53 95 141 255 
-4.52592 8.00084 -0.75251 62 76 138 255 
-4.36796 7.73719 -0.811725 54 93 141 255 
-4.35595 7.72559 -0.894624 57 86 140 255 
-4.21194 7.43642 -0.931454 50 102 142 255 
-4.19234 7.41417 -1.0096 50 100 142 255 
-4.16255 7.37634 -1.085 63 72 137 255 
-3.89779 6.91866 -1.09344 65 66 135 255 
-3.75832 6.64363 -1.1149 55 90 140 255 
-3.55896 6.29916 -1.12521 55 91 141 255 
-3.35981 5.95626 -1.12843 48 105 142 255 
-3.18385 5.65141 -1.13442 68 59 132 255 
-3.05403 5.40744 -1.1398 61 78 138 255 
-2.89387 5.12825 -1.13606 65 68 135 255 
-2.771 4.91242 -1.14441 61 77 138 255 
-2.65891 4.7177 -1.15404 63 72 137 255 
-2.56709 4.55082 -1.1593 62 73 137 255 
-2.46179 4.36612 -1.16087 61 78 138 255 
-2.36337 4.19319 -1.16358 62 76 138 255 
-2.27513 4.03347 -1.16836 61 77 138 255 
-2.18794 3.88659 -1.16593 63 72 137 255 
-2.12709 3.77867 -1.1765 62 76 138 255 
-2.04096 3.62264 -1.1719 62 73 137 255 
-1.96019 3.4723 -1.16826 64 70 136 255 
-9.09495 16.2367 5.59049 65 66 135 255 
-9.09896 16.2112 5.37633 67 61 132 255 
-9.11921 16.2337 5.1882 67 61 132 255 
-9.1027 16.2051 4.99071 69 53 129 255 
-9.09677 16.2201 4.82678 69 56 130 255 
-9.10153 16.2224 4.63091 69 56 130 255 
-9.0959 16.2187 4.44029 68 58 131 255 
-9.10198 16.2369 4.26318 69 56 130 255 
-9.10871 16.2347 4.1065 59 81 139 255 
-9.10413 16.2337 3.91205 59 81 139 255 
-9.09949 16.245 3.73077 57 85 140 255 
-9.07881 16.2221 3.54619 62 74 137 255 
-9.09824 16.2161 3.39252 56 88 140 255 
-9.10064 16.2341 3.21133 59 81 139 255 
-9.09926 16.2579 3.03093 57 86 140 255 
-9.08773 16.2712 2.85853 57 85 140 255 
-9.11867 16.2591 2.70622 55 91 141 255 
-9.1173 16.2705 2.52501 61 78 138 255 
-9.08063 16.2446 2.34113 62 74 137 255 
-9.06739 16.2481 2.16936 68 59 132 255 
-8.30318 14.805 1.84102 68 58 131 255 
-8.00218 14.298 1.621 65 66 135 255 
-7.74921 13.8685 1.42064 66 64 134 255 
-7.58233 13.6037 1.24759 62 76 138 255 
-7.44235 13.2756 1.09895 63 71 136 255 
-6.82086 12.1923 0.876503 62 73 137 255 
-6.80657 12.1964 0.744212 66 64 134 255 
-6.79934 12.2089 0.612587 69 56 130 255 
-5.78248 10.3231 0.425601 56 88 140 255 
-5.4853 9.813 0.29831 53 95 141 255 
-5.41365 9.7045 0.190087 57 86 140 255 
-5.4064 9.71573 0.0873275 52 96 141 255 
-5.25239 9.38064 -0.0018764 55 91 141 255 
-4.06561 7.27919 -0.0800378 50 101 142 255 
-4.05489 7.27476 -0.157008 31 148 140 255 
-4.04287 7.27132 -0.235296 38 130 142 255 
-4.0763 7.28911 -0.303316 34 167 133 255 
-4.07316 7.29869 -0.381011 31 159 136 255 
-4.06571 7.29716 -0.459713 31 153 138 255 
-4.06635 7.31655 -0.539836 31 152 139 255 
-4.0938 7.32339 -0.608758 34 140 141 255 
-4.08067 7.31815 -0.685932 31 151 139 255 
-4.06182 7.29916 -0.763142 31 154 138 255 
-4.06389 7.31213 -0.843841 31 149 139 255 
-4.10517 7.35276 -0.917802 37 131 142 255 
-4.09842 7.35301 -0.997834 35 136 142 255 
-4.07575 7.3272 -1.07408 39 128 142 255 
-3.84084 6.91646 -1.08935 65 68 135 255 
-3.71845 6.66829 -1.11519 57 86 140 255 
-3.51832 6.31742 -1.1246 53 94 141 255 
-3.32177 5.97418 -1.12794 49 103 142 255 
-3.14338 5.6605 -1.13235 64 69 136 255 
-3.02893 5.44068 -1.14287 62 76 138 255 
-2.87428 5.16736 -1.1408 61 78 138 255 
-2.74271 4.93276 -1.1452 62 76 138 255 
-2.62754 4.72965 -1.153 63 71 136 255 
-2.53817 4.56478 -1.15886 60 79 138 255 
-2.42833 4.36922 -1.15771 61 77 138 255 
-2.33618 4.20506 -1.16288 62 73 137 255 
-2.24327 4.03464 -1.16469 62 74 137 255 
-2.16405 3.89995 -1.16593 63 71 136 255 
-2.09825 3.78153 -1.17336 64 70 136 255 
-2.01963 3.63678 -1.17244 63 72 137 255 
-1.93138 3.47084 -1.16376 66 64 134 255 
-9.07338 16.4339 5.63911 65 68 135 255 
-9.07605 16.4054 5.42217 65 68 135 255 
-9.08616 16.4099 5.22659 65 66 135 255 
-9.06485 16.3721 5.02494 70 50 126 255 
-9.03922 16.3518 4.84939 70 51 127 255 
-9.06803 16.3977 4.66497 67 61 132 255 
-9.08374 16.4325 4.48349 66 64 134 255 
-9.04084 16.3624 4.28149 70 50 126 255 
-9.04153 16.3493 4.12136 67 61 132 255 
-9.04554 16.3638 3.92995 61 77 138 255 
-9.02618 16.3486 3.74177 63 72 137 255 
-9.01232 16.3377 3.55931 64 69 136 255 
-9.04142 16.3491 3.40868 62 76 138 255 
-9.01229 16.3104 3.21541 62 76 138 255 
-9.01507 16.342 3.03622 61 77 138 255 
-8.99582 16.3414 2.86111 62 74 137 255 
-9.02017 16.3174 2.70666 59 82 139 255 
-9.01729 16.3261 2.52501 65 66 135 255 
-8.98605 16.3096 2.3425 66 64 134 255 
-8.96944 16.3069 2.16982 67 61 132 255 
-8.16216 14.7652 1.8298 70 48 126 255 
-7.89074 14.3042 1.61618 65 66 135 255 
-7.68127 13.9472 1.42384 64 69 136 255 
-7.51696 13.6832 1.25063 62 73 137 255 
-7.38439 13.3638 1.10248 63 72 137 255 
-6.77917 12.2942 0.880824 62 73 137 255 
-6.76337 12.2957 0.747724 65 66 135 255 
-6.75122 12.2995 0.615039 69 56 130 255 
-5.75188 10.4179 0.428045 52 96 141 255 
-5.36758 9.74228 0.295154 53 95 141 255 
-5.34003 9.71212 0.189591 58 83 139 255 
-5.32745 9.71365 0.0870134 57 86 140 255 
-5.22517 9.46785 -0.0018874 52 97 141 255 
-5.06394 9.19877 -0.100801 61 77 138 255 
-5.02596 9.14847 -0.196778 57 86 140 255 
-4.84941 8.84934 -0.285391 61 78 138 255 
-4.84436 8.78869 -0.364473 62 76 138 255 
-4.66189 8.47543 -0.440938 61 78 138 255 
-4.66585 8.4965 -0.533456 61 78 138 255 
-4.49265 8.20171 -0.6031 62 76 138 255 
-4.14408 7.52133 -0.623087 59 81 139 255 
-4.18066 7.60683 -0.710573 65 66 135 255 
-4.21761 7.6898 -0.801263 59 82 139 255 
-4.24313 7.74618 -0.890911 58 83 139 255 
-4.06142 7.38042 -0.918127 38 130 142 255 
-4.05562 7.38237 -0.998422 41 122 142 255 
-4.02404 7.33989 -1.0723 50 102 142 255 
-3.81878 6.97727 -1.09521 63 71 136 255 
-3.67413 6.68491 -1.11417 52 96 141 255 
-3.47806 6.33629 -1.12414 51 99 141 255 
-3.27604 5.97801 -1.12485 51 99 141 255 
-3.10764 5.67795 -1.13201 62 74 137 255 
-2.98555 5.44106 -1.13908 62 73 137 255 
-2.84205 5.18404 -1.14061 61 77 138 255 
-2.71569 4.95551 -1.1466 58 84 140 255 
-2.5764 4.70537 -1.1432 65 68 135 255 
-2.50871 4.5777 -1.15821 63 71 136 255 
-2.39024 4.36353 -1.1523 63 71 136 255 
-2.301 4.20227 -1.15818 61 78 138 255 
-2.22174 4.05429 -1.1664 62 73 137 255 
-2.14658 3.92503 -1.16947 59 81 139 255 
-2.07084 3.78671 -1.171 63 72 137 255 
-2.00098 3.65586 -1.17461 61 78 138 255 
-1.91743 3.49609 -1.16826 64 69 136 255 
-10.6706 19.6103 6.70645 72 20 103 255 
-9.01431 16.5325 5.44578 72 37 118 255 
-9.0176 16.5245 5.24538 70 52 128 255 
-9.03269 16.5529 5.06332 71 46 124 255 
-9.03689 16.5872 4.90265 72 37 118 255 
-9.00765 16.5272 4.68599 70 51 127 255 
-9.053 16.6169 4.51856 70 52 128 255 
-9.01066 16.5468 4.3152 70 48 126 255 
-9.01254 16.5356 4.15432 67 62 133 255 
-9.02736 16.5702 3.96615 62 76 138 255 
-9.00911 16.557 3.77674 63 72 137 255 
-8.98087 16.5195 3.58685 65 66 135 255 
-9.00119 16.5148 3.43165 62 73 137 255 
-9.0162 16.5566 3.25299 60 79 138 255 
-8.99383 16.5427 3.0632 61 78 138 255 
-8.96986 16.5336 2.88506 63 72 137 255 
-8.99232 16.5054 2.72864 59 82 139 255 
-8.97191 16.4821 2.54057 65 68 135 255 
-8.96392 16.5082 2.3631 66 64 134 255 
-8.94306 16.4979 2.18788 68 58 131 255 
-8.06903 14.8107 1.82927 69 53 129 255 
-7.80568 14.3576 1.61677 64 70 136 255 
-7.60932 14.0194 1.42643 63 71 136 255 
-7.43903 13.7404 1.25166 65 66 135 255 
-7.31609 13.4342 1.10457 60 79 138 255 
-6.72219 12.3698 0.883266 62 76 138 255 
-6.70778 12.3739 0.749958 67 62 133 255 
-6.69511 12.3767 0.616835 70 52 128 255 
-5.69501 10.4662 0.428585 53 94 141 255 
-5.23233 9.63623 0.290963 54 92 141 255 
-5.22937 9.65064 0.187761 55 90 140 255 
-5.2202 9.65818 0.086228 57 85 140 255 
-5.17702 9.51818 -0.00189106 53 94 141 255 
-5.01885 9.25076 -0.101031 61 78 138 255 
-4.97925 9.19673 -0.197155 57 85 140 255 
-4.80262 8.893 -0.285844 62 73 137 255 
-4.80895 8.8525 -0.365889 56 88 140 255 
-4.64645 8.5715 -0.444444 57 85 140 255 
-4.64595 8.58468 -0.537193 59 81 139 255 
-4.45836 8.25898 -0.605288 55 90 140 255 
-4.47052 8.23291 -0.679751 52 97 141 255 
-4.32188 7.97938 -0.742882 65 68 135 255 
-4.3072 7.96871 -0.827556 51 99 141 255 
-4.2631 7.89727 -0.905263 60 80 139 255 
-4.12269 7.60182 -0.942505 49 104 142 255 
-4.12372 7.6167 -1.02667 50 101 142 255 
-4.0157 7.43251 -1.08221 64 69 136 255 
-3.77307 6.99534 -1.0944 65 68 135 255 
-3.6288 6.6995 -1.11287 52 96 141 255 
-3.43771 6.35491 -1.12368 52 97 141 255 
-3.23601 5.99192 -1.12371 51 99 141 255 
-3.07321 5.69778 -1.13218 62 74 137 255 
-2.93994 5.43678 -1.13438 59 81 139 255 
-2.80505 5.19187 -1.13852 61 78 138 255 
-2.67266 4.9488 -1.14123 61 78 138 255 
-2.54933 4.72453 -1.14404 66 65 134 255 
-2.47083 4.57497 -1.15366 65 68 135 255 
-2.36157 4.37469 -1.1514 62 73 137 255 
-2.27702 4.21973 -1.15912 58 84 140 255 
-2.20649 4.08576 -1.17154 59 82 139 255 
-2.10548 3.90662 -1.16012 61 77 138 255 
-2.04069 3.7866 -1.16708 65 68 135 255 
-1.97165 3.65536 -1.17054 61 77 138 255 
-1.89777 3.51117 -1.16938 64 69 136 255 
-10.6003 19.7691 6.73839 72 35 116 255 
-12.0473 22.4213 7.36106 71 19 101 255 
-10.7899 20.0639 6.34776 71 14 97 255 
-11.1247 20.6875 6.30704 72 31 112 255 
-11.1303 20.7315 6.10727 72 20 103 255 
-11.1687 20.795 5.87651 70 11 94 255 
-11.1735 20.8122 5.6406 71 19 101 255 
-11.7731 21.939 5.70248 72 28 110 255 
-11.4698 21.3549 5.3473 72 31 112 255 
-11.352 21.145 5.04439 72 24 106 255 
-11.2509 20.9827 4.77043 72 23 105 255 
-0 0 0 68 2 86 255 
-8.94717 16.6581 3.44996 71 17 100 255 
-8.93261 16.6455 3.25962 71 17 100 255 
-8.89495 16.6028 3.06416 71 17 100 255 
-8.8687 16.5892 2.88521 71 16 99 255 
-8.92036 16.6152 2.73769 71 47 125 255 
-14.4964 27.0247 4.15182 72 33 115 255 
-8.88353 16.6023 2.36872 72 32 113 255 
-14.4594 27.0693 3.578 72 33 115 255 
-8.0697 15.0307 1.85029 71 45 123 255 
-7.72448 14.4183 1.61825 67 62 133 255 
-7.54195 14.101 1.42999 59 81 139 255 
-7.36349 13.8025 1.25318 66 65 134 255 
-7.21466 13.4437 1.10169 61 77 138 255 
-6.66643 12.4486 0.885958 62 76 138 255 
-6.67266 12.4914 0.754587 65 68 135 255 
-6.66792 12.5092 0.62139 65 66 135 255 
-5.66752 10.5696 0.431388 52 96 141 255 
-5.14858 9.62232 0.289583 56 88 140 255 
-5.14462 9.63492 0.186837 57 85 140 255 
-5.13969 9.65031 0.0858746 55 91 141 255 
-5.14686 9.60265 -0.00190154 50 102 142 255 
-4.97189 9.2999 -0.101233 62 74 137 255 
-4.93826 9.25622 -0.197777 60 80 139 255 
-4.76863 8.96113 -0.287088 63 72 137 255 
-4.79416 8.95584 -0.368937 55 91 141 255 
-4.60883 8.62804 -0.445902 54 93 141 255 
-4.61151 8.64739 -0.539336 56 89 140 255 
-4.424 8.31701 -0.607541 55 90 140 255 
-4.44015 8.298 -0.682863 55 91 141 255 
-4.27518 8.01015 -0.74329 65 68 135 255 
-4.25729 7.99323 -0.827374 54 93 141 255 
-4.23466 7.96105 -0.909578 62 74 137 255 
-4.09143 7.65591 -0.946081 51 99 141 255 
-4.09607 7.67779 -1.0315 46 110 142 255 
-3.9551 7.429 -1.07814 67 62 133 255 
-3.73659 7.0306 -1.0963 64 70 136 255 
-3.59042 6.72688 -1.11374 50 101 142 255 
-3.39354 6.36629 -1.12199 51 98 141 255 
-3.1978 6.00905 -1.12322 48 106 142 255 
-3.04097 5.72175 -1.13321 64 70 136 255 
-2.90052 5.44343 -1.13204 60 79 138 255 
-2.77037 5.20379 -1.13739 61 78 138 255 
-2.63764 4.95645 -1.13924 60 79 138 255 
-2.52259 4.7444 -1.14508 65 68 135 255 
-2.4317 4.56936 -1.14847 62 73 137 255 
-2.32828 4.37705 -1.14824 63 71 136 255 
-2.25336 4.23791 -1.16029 61 78 138 255 
-2.17045 4.07868 -1.16566 62 74 137 255 
-2.08056 3.91776 -1.15961 62 74 137 255 
-2.01606 3.79649 -1.16629 63 72 137 255 
-1.94196 3.65379 -1.1662 61 77 138 255 
-1.87439 3.51936 -1.16826 63 71 136 255 
-10.5634 19.9938 6.79276 72 26 108 255 
-10.5934 20.009 6.54761 72 35 116 255 
-10.8627 20.5 6.46452 72 20 103 255 
-11.036 20.8279 6.32908 72 26 108 255 
-11.1627 21.1014 6.19596 72 26 108 255 
-11.0173 20.8185 5.86395 72 38 119 255 
-11.0165 20.8253 5.62573 72 31 112 255 
-11.0655 20.9277 5.42185 71 19 101 255 
-10.9823 20.7516 5.17927 71 42 122 255 
-11.1186 21.0188 4.9979 72 28 110 255 
-11.2805 21.3513 4.83841 72 28 110 255 
-11.0505 20.9346 4.5157 72 24 106 255 
-11.0632 20.9046 4.31528 72 40 120 255 
-28.3652 53.6447 10.4707 69 5 89 255 
-27.4629 52.0249 9.57031 70 7 90 255 
-27.217 51.6702 8.95733 69 4 87 255 
-14.3297 27.0881 4.44874 72 26 108 255 
-14.3498 27.1499 4.15746 68 59 132 255 
-27.8895 52.9001 7.5229 69 5 89 255 
-14.2898 27.1514 3.57719 69 55 129 255 
-8.11865 15.3471 1.88307 72 33 115 255 
-7.64098 14.4751 1.61933 65 66 135 255 
-7.46504 14.1655 1.43186 60 80 139 255 
-7.28608 13.8616 1.25446 63 71 136 255 
-7.08121 13.3916 1.09384 62 74 137 255 
-6.62578 12.5573 0.89078 65 66 135 255 
-6.61543 12.5692 0.756822 67 61 132 255 
-6.59801 12.5632 0.622046 69 56 130 255 
-5.61843 10.6343 0.432611 55 91 141 255 
-5.09597 9.66611 0.289955 56 88 140 255 
-5.09146 9.67781 0.18706 61 77 138 255 
-5.08596 9.6923 0.0859688 56 89 140 255 
-5.10465 9.66588 -0.00190782 54 92 141 255 
-4.93477 9.36828 -0.101646 60 79 138 255 
-4.89952 9.32086 -0.198512 60 79 138 255 
-4.73073 9.02297 -0.288134 60 79 138 255 
-4.7545 9.01426 -0.370135 54 92 141 255 
-4.57674 8.69594 -0.447951 54 93 141 255 
-4.57694 8.71088 -0.541534 57 85 140 255 
-4.38725 8.3714 -0.609536 57 86 140 255 
-4.40264 8.35068 -0.684962 53 94 141 255 
-4.23662 8.05652 -0.745167 61 77 138 255 
-4.23454 8.06947 -0.83256 52 96 141 255 
-4.19173 7.99834 -0.910883 63 72 137 255 
-4.06661 7.72309 -0.951281 52 97 141 255 
-4.05397 7.71244 -1.03279 51 98 141 255 
-3.91774 7.46894 -1.08043 68 59 132 255 
-3.70579 7.07709 -1.09999 60 79 138 255 
-3.54816 6.74703 -1.11345 50 101 142 255 
-3.34844 6.37562 -1.11999 48 106 142 255 
-3.15674 6.02069 -1.12176 50 102 142 255 
-3.00078 5.7307 -1.13132 62 73 137 255 
-2.87163 5.46983 -1.13384 61 78 138 255 
-2.73976 5.2233 -1.13796 61 77 138 255 
-2.60354 4.9656 -1.13765 62 73 137 255 
-2.50342 4.77885 -1.14967 63 72 137 255 
-2.40679 4.59025 -1.14998 61 77 138 255 
-2.31268 4.41283 -1.15388 62 76 138 255 
-2.22055 4.23875 -1.15677 62 74 137 255 
-2.14673 4.09449 -1.1664 62 73 137 255 
-2.05289 3.92359 -1.15759 62 73 137 255 
-1.99228 3.80794 -1.16603 64 70 136 255 
-1.92218 3.67075 -1.16783 63 72 137 255 
-1.85499 3.53504 -1.16966 63 71 136 255 
-10.4122 20.0039 6.77435 72 29 111 255 
-10.378 19.8964 6.48982 72 35 116 255 
-10.6538 20.4074 6.41459 72 26 108 255 
-10.7721 20.635 6.25025 72 22 104 255 
-10.9605 21.0304 6.15526 72 35 116 255 
-10.9181 20.9408 5.87941 72 28 110 255 
-11.2081 21.5058 5.79087 72 31 112 255 
-11.4881 22.0533 5.69511 72 26 108 255 
-10.8918 20.8896 5.19694 69 53 129 255 
-10.8348 20.7898 4.92755 72 32 113 255 
-0 0 0 68 2 86 255 
-11.1004 21.3454 4.58953 72 23 105 255 
-11.1281 21.3428 4.39156 70 7 90 255 
-28.1967 54.1271 10.5309 69 5 89 255 
-28.1797 54.1855 9.93577 69 4 87 255 
-0 0 0 69 4 87 255 
-14.1714 27.1913 4.45133 72 31 112 255 
-14.1847 27.241 4.15799 68 59 132 255 
-14.1309 27.2065 3.85662 71 46 124 255 
-14.1151 27.2236 3.57522 69 55 129 255 
-8.23936 15.8092 1.93353 71 47 125 255 
-7.5488 14.5156 1.61864 69 56 130 255 
-7.38853 14.2313 1.43391 61 78 138 255 
-7.19723 13.8989 1.25382 64 69 136 255 
-6.96665 13.3729 1.08879 66 65 134 255 
-6.57208 12.6428 0.893973 64 69 136 255 
-6.56392 12.6592 0.759802 66 63 133 255 
-6.54834 12.6566 0.624674 68 59 132 255 
-5.58261 10.7253 0.434911 53 94 141 255 
-5.07112 9.76373 0.291944 50 101 142 255 
-5.06005 9.76302 0.188103 47 107 142 255 
-5.04062 9.75086 0.0862123 51 99 141 255 
-5.06279 9.73073 -0.00191445 52 96 141 255 
-4.89332 9.42944 -0.101982 56 89 140 255 
-4.88177 9.4271 -0.200133 55 90 140 255 
-4.69179 9.08381 -0.289151 63 72 137 255 
-4.71707 9.07785 -0.371551 54 93 141 255 
-4.54905 8.77352 -0.450501 54 92 141 255 
-4.53304 8.75742 -0.542688 58 84 140 255 
-4.36235 8.44959 -0.613269 56 89 140 255 
-4.36511 8.40409 -0.687133 57 86 140 255 
-4.20178 8.11068 -0.747778 59 81 139 255 
-4.19729 8.11919 -0.835016 54 93 141 255 
-4.1225 7.98501 -0.906467 66 64 134 255 
-4.03104 7.77084 -0.954098 49 103 142 255 
-4.01844 7.7601 -1.03585 56 88 140 255 
-3.88049 7.50958 -1.08284 66 64 134 255 
-3.68455 7.14284 -1.10667 57 85 140 255 
-3.5035 6.76253 -1.11244 53 94 141 255 
-3.30971 6.39692 -1.12014 46 110 142 255 
-3.11657 6.03381 -1.12062 50 100 142 255 
-2.96014 5.7385 -1.12925 62 73 137 255 
-2.84163 5.49434 -1.13528 61 78 138 255 
-2.70856 5.24175 -1.13833 60 79 138 255 
-2.57437 4.98409 -1.13824 63 72 137 255 
-2.45745 4.76196 -1.14195 61 78 138 255 
-2.35529 4.55982 -1.13872 65 68 135 255 
-2.28422 4.42434 -1.1532 60 79 138 255 
-2.19049 4.24452 -1.15465 63 72 137 255 
-2.11356 4.09208 -1.162 64 70 136 255 
-2.02612 3.93095 -1.15607 66 65 134 255 
-1.968 3.81838 -1.1655 63 71 136 255 
-1.89344 3.6705 -1.16403 64 69 136 255 
-1.83767 3.55488 -1.17248 64 69 136 255 
-10.8246 21.1114 7.12678 71 16 99 255 
-10.5833 20.5972 6.69707 72 24 106 255 
-10.5403 20.4955 6.42184 72 36 117 255 
-10.4761 20.3717 6.15092 72 36 117 255 
-10.7508 20.9406 6.10954 72 28 110 255 
-10.9437 21.3078 5.96348 72 38 119 255 
-10.8001 21.0368 5.64664 72 40 120 255 
-11.1163 21.6629 5.57656 72 41 121 255 
-11.4134 22.2217 5.5108 72 40 120 255 
-10.7437 20.9273 4.94442 71 16 99 255 
-10.9747 21.4044 4.81955 71 44 122 255 
-0 0 0 68 2 86 255 
-11.0953 21.6023 4.43087 71 44 122 255 
-0 0 0 68 2 86 255 
-26.9088 52.5267 9.60114 69 5 89 255 
-0 0 0 69 4 87 255 
-14.0115 27.2918 4.45363 72 38 119 255 
-14.0205 27.3337 4.15893 67 62 133 255 
-13.9854 27.3351 3.86261 67 62 133 255 
-13.9686 27.3504 3.58054 69 53 129 255 
-8.11178 15.8002 1.92631 72 37 118 255 
-7.5027 14.6458 1.62799 65 66 135 255 
-7.30515 14.2844 1.43471 66 65 134 255 
-7.1032 13.926 1.2523 65 68 135 255 
-6.88447 13.4154 1.08879 65 68 135 255 
-6.53032 12.7531 0.89892 64 69 136 255 
-6.50611 12.7384 0.762143 67 62 133 255 
-6.5005 12.7553 0.627564 66 63 133 255 
-5.53447 10.794 0.436313 54 93 141 255 
-5.03115 9.83382 0.293111 52 97 141 255 
-5.01914 9.83128 0.188821 53 94 141 255 
-5.00566 9.83061 0.0866442 55 90 140 255 
-5.03081 9.8159 -0.0019251 49 103 142 255 
-4.83628 9.46107 -0.102001 55 90 140 255 
-4.81838 9.44619 -0.199907 54 92 141 255 
-4.65364 9.14717 -0.290254 62 74 137 255 
-4.67267 9.12886 -0.372458 56 88 140 255 
-4.51785 8.84575 -0.452778 57 86 140 255 
-4.51052 8.84645 -0.54648 60 79 138 255 
-4.32399 8.50289 -0.615199 54 92 141 255 
-4.34708 8.49642 -0.692488 52 96 141 255 
-4.16552 8.16294 -0.750226 57 86 140 255 
-4.16999 8.18916 -0.839565 55 90 140 255 
-4.0617 7.9871 -0.903858 67 61 132 255 
-4.00907 7.84589 -0.960274 58 83 139 255 
-3.98474 7.81203 -1.0395 57 86 140 255 
-3.83794 7.54032 -1.08386 67 62 133 255 
-3.63347 7.15118 -1.10449 61 77 138 255 
-3.4534 6.76715 -1.10969 52 97 141 255 
-3.26995 6.41623 -1.11999 47 108 142 255 
-3.08173 6.05722 -1.12143 52 97 141 255 
-2.92175 5.75041 -1.12804 64 69 136 255 
-2.80251 5.50116 -1.13312 60 80 139 255 
-2.67456 5.25477 -1.13758 58 84 140 255 
-2.54596 5.00416 -1.13924 63 72 137 255 
-2.42154 4.76388 -1.13883 61 77 138 255 
-2.32284 4.56549 -1.13655 63 72 137 255 
-2.25041 4.42525 -1.14982 60 80 139 255 
-2.16837 4.26568 -1.15677 64 69 136 255 
-2.08577 4.09979 -1.16053 64 70 136 255 
-2.00546 3.95021 -1.15809 63 72 137 255 
-1.94366 3.82866 -1.16498 61 77 138 255 
-1.88092 3.70179 -1.17027 64 70 136 255 
-1.82627 3.58661 -1.17922 67 61 132 255 
-10.8813 21.5467 7.25106 72 27 109 255 
-10.4059 20.5614 6.66457 72 41 121 255 
-10.4566 20.6432 6.44788 70 10 93 255 
-10.3422 20.4184 6.14574 72 37 118 255 
-10.3933 20.5535 5.97789 71 13 96 255 
-11.0116 21.7677 6.07316 72 36 117 255 
-10.6019 20.9664 5.61017 72 40 120 255 
-11.0143 21.7925 5.59242 72 28 110 255 
-11.2659 22.2695 5.50542 72 33 115 255 
-11.3159 22.3788 5.27085 72 37 118 255 
-10.8188 21.4232 4.80874 72 20 103 255 
-10.8261 21.4572 4.58466 72 26 108 255 
-10.967 21.6788 4.43266 71 19 101 255 
-0 0 0 68 2 86 255 
-27.0356 53.5817 9.76348 70 7 90 255 
-0 0 0 68 2 86 255 
-13.8393 27.3684 4.45219 70 8 92 255 
-13.8556 27.4254 4.15987 70 50 126 255 
-13.8187 27.423 3.86299 71 45 123 255 
-13.8108 27.456 3.58321 72 36 117 255 
-8.10575 16.0298 1.9482 72 31 112 255 
-7.49921 14.863 1.64699 66 65 134 255 
-7.2344 14.3628 1.43809 64 69 136 255 
-7.02299 13.98 1.25326 67 61 132 255 
-6.89651 13.6443 1.10392 64 69 136 255 
-6.47936 12.8473 0.90274 64 70 136 255 
-6.46776 12.8575 0.766878 65 68 135 255 
-6.43779 12.8262 0.629097 67 61 132 255 
-5.48481 10.8608 0.437643 56 88 140 255 
-4.98241 9.88772 0.293801 64 69 136 255 
-4.97489 9.89405 0.189437 65 66 135 255 
-4.96945 9.90941 0.0870683 66 65 134 255 
-4.98355 9.87247 -0.00193016 63 71 136 255 
-4.75385 9.44234 -0.101482 55 90 140 255 
-4.7352 9.42554 -0.198851 56 89 140 255 
-4.63235 9.24526 -0.292459 62 76 138 255 
-4.64176 9.20733 -0.374491 57 86 140 255 
-4.46977 8.8858 -0.453415 55 90 140 255 
-4.47363 8.90876 -0.548623 57 86 140 255 
-4.29855 8.5828 -0.619061 56 89 140 255 
-4.31416 8.56123 -0.6956 53 95 141 255 
-4.1346 8.22664 -0.753734 55 91 141 255 
-4.13038 8.23596 -0.841749 52 96 141 255 
-4.00949 8.00564 -0.903155 66 63 133 255 
-3.97069 7.88988 -0.962658 53 94 141 255 
-3.96437 7.89135 -1.0468 57 86 140 255 
-3.79471 7.56993 -1.08475 66 64 134 255 
-3.58287 7.16005 -1.10244 57 85 140 255 
-3.40203 6.76876 -1.10651 49 103 142 255 
-3.22653 6.42823 -1.11861 46 109 142 255 
-3.04627 6.07954 -1.12208 51 98 141 255 
-2.882 5.75942 -1.12632 64 69 136 255 
-2.76649 5.51385 -1.13222 61 77 138 255 
-2.63787 5.26231 -1.13568 60 79 138 255 
-2.50028 4.9899 -1.13248 61 77 138 255 
-2.38876 4.77165 -1.13716 62 74 137 255 
-2.30046 4.591 -1.13937 62 76 138 255 
-2.22234 4.43723 -1.14937 60 79 138 255 
-2.14694 4.28846 -1.15935 61 78 138 255 
-2.04842 4.08824 -1.15368 65 66 135 255 
-1.97383 3.94773 -1.15379 63 72 137 255 
-1.92617 3.8526 -1.16865 64 69 136 255 
-1.85429 3.70551 -1.16783 65 68 135 255 
-1.79606 3.58145 -1.17388 68 59 132 255 
-10.0576 20.223 6.78471 71 13 96 255 
-10.454 20.9748 6.77764 72 24 106 255 
-0 0 0 68 2 86 255 
-10.1555 20.3588 6.10891 72 24 106 255 
-10.2156 20.5138 5.948 70 8 92 255 
-10.7558 21.5899 6.00503 70 11 94 255 
-10.4648 21.0145 5.60576 71 46 124 255 
-10.5829 21.2619 5.43949 72 22 104 255 
-11.0811 22.2421 5.48172 72 36 117 255 
-11.2032 22.4977 5.28258 71 14 97 255 
-0 0 0 68 1 84 255 
-10.755 21.6455 4.6107 69 5 89 255 
-0 0 0 68 2 86 255 
-0 0 0 69 4 87 255 
-27.4446 55.2325 10.0334 70 7 90 255 
-27.5393 55.5469 9.50933 69 5 89 255 
-0 0 0 69 4 87 255 
-0 0 0 68 2 86 255 
-26.5833 53.5695 7.52302 69 5 89 255 
-0 0 0 69 4 87 255 
-7.90664 15.8772 1.92372 72 28 110 255 
-7.53806 15.1707 1.67594 69 53 129 255 
-7.13462 14.3837 1.43578 68 59 132 255 
-6.94548 14.0398 1.25478 65 68 135 255 
-6.82866 13.7185 1.10651 62 73 137 255 
-6.66056 13.4106 0.939433 64 69 136 255 
-6.5368 13.1958 0.78465 61 77 138 255 
-6.46699 13.084 0.639783 60 80 139 255 
-5.43942 10.9372 0.439368 54 93 141 255 
-4.95187 9.979 0.295605 65 66 135 255 
-4.93051 9.95755 0.19007 57 86 140 255 
-4.9267 9.97648 0.0873904 59 81 139 255 
-4.94915 9.9557 -0.00194046 53 95 141 255 
-4.62432 9.32709 -0.0999369 60 80 139 255 
-4.63072 9.36032 -0.196872 54 92 141 255 
-4.59102 9.30488 -0.293448 56 88 140 255 
-4.61006 9.28577 -0.376523 53 95 141 255 
-4.44133 8.96587 -0.456102 56 88 140 255 
-4.44544 8.98974 -0.55192 56 88 140 255 
-4.26126 8.64033 -0.621313 53 95 141 255 
-4.2682 8.60094 -0.696685 52 97 141 255 
-4.09952 8.28312 -0.75659 51 98 141 255 
-4.09432 8.29061 -0.844751 56 88 140 255 
-3.94709 8.00332 -0.900144 67 61 132 255 
-3.95266 7.97555 -0.970133 52 96 141 255 
-3.93392 7.95202 -1.05163 52 96 141 255 
-3.74687 7.5904 -1.08437 64 69 136 255 
-3.53844 7.18101 -1.10231 57 85 140 255 
-3.35561 6.77975 -1.10492 50 102 142 255 
-3.18308 6.43993 -1.11722 47 107 142 255 
-3.01022 6.10077 -1.12257 50 102 142 255 
-2.84878 5.78141 -1.12718 60 80 139 255 
-2.72956 5.52455 -1.13095 62 76 138 255 
-2.60684 5.28104 -1.13625 61 77 138 255 
-2.47005 5.00603 -1.13268 61 78 138 255 
-2.35511 4.77744 -1.13508 66 65 134 255 
-2.27528 4.61116 -1.14088 62 73 137 255 
-2.19076 4.44204 -1.14711 58 84 140 255 
-2.11027 4.28063 -1.15371 62 74 137 255 
-2.02715 4.10855 -1.15588 64 69 136 255 
-1.95299 3.96671 -1.15582 65 66 135 255 
-1.88971 3.83837 -1.16079 64 70 136 255 
-1.82854 3.71078 -1.16593 63 71 136 255 
-1.77362 3.59155 -1.1736 69 56 130 255 
-0 0 0 68 2 86 255 
-10.6349 21.6698 6.981 72 26 108 255 
-0 0 0 68 2 86 255 
-0 0 0 68 1 84 255 
-0 0 0 68 2 86 255 
-0 0 0 68 2 86 255 
-10.3228 21.0521 5.59879 72 26 108 255 
-10.3814 21.182 5.40265 72 27 109 255 
-10.9066 22.2325 5.46276 72 32 113 255 
-0 0 0 68 2 86 255 
-0 0 0 68 2 86 255 
-0 0 0 68 1 84 255 
-0 0 0 68 1 84 255 
-0 0 0 68 2 86 255 
-27.2019 55.5975 10.0692 70 7 90 255 
-0 0 0 68 2 86 255 
-0 0 0 68 2 86 255 
-25.8568 52.7795 7.95684 70 7 90 255 
-25.8359 52.8758 7.4032 69 4 87 255 
-13.4985 27.6761 3.59004 70 7 90 255 
-7.79594 15.8986 1.92049 72 23 105 255 
-7.31407 14.9494 1.6465 70 50 126 255 
-7.04886 14.4326 1.43631 66 65 134 255 
-6.864 14.092 1.25566 56 89 140 255 
-6.74128 13.7539 1.10601 63 72 137 255 
-6.58999 13.4754 0.941123 62 76 138 255 
-6.51568 13.3586 0.791939 61 78 138 255 
-6.40975 13.1711 0.642104 61 78 138 255 
-5.40254 11.0323 0.441849 54 93 141 255 
-4.9059 10.0406 0.296533 66 65 134 255 
-4.88334 10.0164 0.190617 57 85 140 255 
-4.8877 10.0524 0.0877909 62 73 137 255 
-4.90116 10.0128 -0.00194569 62 74 137 255 
-4.53278 9.2852 -0.0991882 57 86 140 255 
-4.52811 9.29598 -0.194931 54 92 141 255 
-4.51593 9.29601 -0.292289 55 90 140 255 
-4.54949 9.30669 -0.376233 53 94 141 255 
-4.40594 9.03336 -0.458151 54 92 141 255 
-4.39544 9.02762 -0.552579 57 85 140 255 
-4.21949 8.68966 -0.622987 57 86 140 255 
-4.22629 8.64937 -0.698494 54 93 141 255 
-4.06259 8.33679 -0.759201 55 91 141 255 
-4.06296 8.35588 -0.848845 53 95 141 255 
-3.90269 8.03723 -0.901248 66 65 134 255 
-3.90844 8.00948 -0.971325 49 104 142 255 
-3.8981 8.00279 -1.05516 51 99 141 255 
-3.69546 7.60344 -1.08297 67 61 132 255 
-3.47917 7.17139 -1.09753 58 83 139 255 
-3.31178 6.79577 -1.1042 49 104 142 255 
-3.14048 6.45312 -1.11615 47 107 142 255 
-2.96885 6.11114 -1.12111 49 103 142 255 
-2.80982 5.79169 -1.1258 61 78 138 255 
-2.68572 5.52085 -1.1268 61 77 138 255 
-2.56709 5.28192 -1.13303 56 88 140 255 
-2.441 5.02461 -1.13347 60 80 139 255 
-2.33216 4.805 -1.1382 64 69 136 255 
-2.24907 4.62942 -1.14197 59 81 139 255 
-2.16559 4.45978 -1.14824 57 86 140 255 
-2.08439 4.29437 -1.15395 63 72 137 255 
-2.00403 4.12528 -1.1571 64 70 136 255 
-1.9379 3.99777 -1.16138 64 69 136 255 
-1.87749 3.87334 -1.16786 63 72 137 255 
-1.79733 3.70461 -1.1605 65 68 135 255 
-1.7398 3.5782 -1.16573 69 53 129 255 
-0 0 0 68 2 86 255 
-0 0 0 68 1 84 255 
-0 0 0 68 1 84 255 
-0 0 0 68 2 86 255 
-0 0 0 68 1 84 255 
-0 0 0 68 1 84 255 
-0 0 0 68 2 86 255 
-0 0 0 68 1 84 255 
-10.7627 22.284 5.4591 72 41 121 255 
-0 0 0 68 2 86 255 
-0 0 0 68 2 86 255 
-0 0 0 68 1 84 255 
-0 0 0 68 2 86 255 
-0 0 0 68 1 84 255 
-0 0 0 68 2 86 255 
-0 0 0 69 4 87 255 
-0 0 0 68 2 86 255 
-25.6483 53.1772 7.99293 69 5 89 255 
-13.3555 27.7639 3.87572 70 50 126 255 
-13.3297 27.761 3.59039 69 56 130 255 
-13.3893 27.7346 3.34023 72 23 105 255 
-7.37162 15.3042 1.68056 69 53 129 255 
-7.01757 14.5949 1.44816 68 58 131 255 
-6.79034 14.1608 1.25805 64 69 136 255 
-6.66023 13.8022 1.10658 64 70 136 255 
-6.52277 13.548 0.943378 59 82 139 255 
-6.43921 13.41 0.792631 60 80 139 255 
-6.33615 13.2255 0.642848 61 78 138 255 
-5.35645 11.1102 0.443646 58 83 139 255 
-4.86847 10.121 0.298018 63 71 136 255 
-4.86202 10.13 0.192208 59 82 139 255 
-4.84017 10.1119 0.0880501 56 88 140 255 
-4.85178 10.0679 -0.00195058 66 63 133 255 
-4.4571 9.27408 -0.0987754 56 89 140 255 
-4.44115 9.26138 -0.19363 52 96 141 255 
-4.42775 9.25862 -0.290254 55 91 141 255 
-4.46803 9.28401 -0.3742 55 90 140 255 
-4.36642 9.09354 -0.459836 56 89 140 255 
-4.34385 9.06252 -0.553074 61 77 138 255 
-4.1803 8.7451 -0.625111 56 88 140 255 
-4.20816 8.74794 -0.704356 55 91 141 255 
-4.03852 8.41817 -0.764341 50 101 142 255 
-4.02882 8.41658 -0.852485 54 92 141 255 
-3.85674 8.06821 -0.902051 63 71 136 255 
-3.86956 8.05482 -0.973926 52 97 141 255 
-3.85837 8.04626 -1.05775 53 94 141 255 
-3.64959 7.62776 -1.08323 69 53 129 255 
-3.44535 7.21406 -1.10081 56 89 140 255 
-3.26574 6.80704 -1.10276 51 99 141 255 
-3.0957 6.46157 -1.1143 46 109 142 255 
-2.92917 6.12479 -1.12029 49 103 142 255 
-2.7738 5.80794 -1.12563 62 76 138 255 
-2.64924 5.53191 -1.12572 59 81 139 255 
-2.5342 5.29669 -1.13284 61 77 138 255 
-2.40759 5.03419 -1.13228 59 81 139 255 
-2.30896 4.83246 -1.14133 65 66 135 255 
-2.21894 4.63961 -1.1411 60 79 138 255 
-2.12768 4.45101 -1.1426 59 82 139 255 
-2.04962 4.28954 -1.14925 62 76 138 255 
-1.97951 4.13924 -1.15759 62 76 138 255 
-1.90958 4.00173 -1.1591 63 72 137 255 
-1.83789 3.85169 -1.15791 66 64 134 255 
-1.76835 3.70254 -1.15643 66 65 134 255 
-1.71574 3.58448 -1.16432 67 61 132 255 
-0 0 0 68 2 86 255 
-0 0 0 68 1 84 255 
-0 0 0 68 1 84 255 
-0 0 0 68 2 86 255 
-0 0 0 68 2 86 255 
-0 0 0 68 2 86 255 
-0 0 0 68 1 84 255 
-0 0 0 68 1 84 255 
-0 0 0 68 2 86 255 
-0 0 0 68 2 86 255 
-0 0 0 68 2 86 255 
-0 0 0 68 2 86 255 
-0 0 0 68 2 86 255 
-0 0 0 68 1 84 255 
-0 0 0 68 2 86 255 
-25.9065 54.764 9.29208 69 5 89 255 
-0 0 0 69 4 87 255 
-13.2116 27.827 4.17034 68 57 131 255 
-13.1789 27.8328 3.87397 68 57 131 255 
-13.1549 27.8333 3.58923 69 53 129 255 
-13.221 27.8207 3.34077 69 56 130 255 
-7.33172 15.4634 1.69307 67 61 132 255 
-7.0097 14.8106 1.46526 67 62 133 255 
-6.75991 14.3221 1.26867 68 59 132 255 
-6.56172 13.814 1.10428 62 73 137 255 
-6.45875 13.6283 0.946195 60 80 139 255 
-6.34358 13.4213 0.790981 60 80 139 255 
-6.27875 13.3147 0.645301 61 77 138 255 
-5.30917 11.1871 0.445407 59 82 139 255 
-4.8221 10.1841 0.299 63 72 137 255 
-4.81686 10.1958 0.192892 63 72 137 255 
-4.79466 10.1767 0.0883564 61 77 138 255 
-4.80963 10.1391 -0.00195861 64 70 136 255 
-4.36248 9.22171 -0.0979307 60 80 139 255 
-4.3437 9.20256 -0.191839 54 93 141 255 
-4.34234 9.22502 -0.28836 54 93 141 255 
-4.37205 9.22906 -0.370897 54 93 141 255 
-4.32719 9.15539 -0.461612 53 94 141 255 
-4.29711 9.10797 -0.554228 60 79 138 255 
-4.1529 8.82657 -0.629101 55 91 141 255 
-4.16935 8.80515 -0.706889 57 86 140 255 
-4.00466 8.48064 -0.767768 52 97 141 255 
-3.9962 8.48168 -0.856579 54 93 141 255 
-3.82368 8.12683 -0.905965 62 76 138 255 
-3.83323 8.10627 -0.977284 53 95 141 255 
-3.82376 8.10122 -1.06187 57 86 140 255 
-3.60652 7.65809 -1.08437 62 74 137 255 
-3.39765 7.22789 -1.09971 59 81 139 255 
-3.2218 6.82248 -1.10203 56 88 140 255 
-3.05558 6.47955 -1.11415 46 110 142 255 
-2.88523 6.12926 -1.11785 50 101 142 255 
-2.73644 5.82128 -1.12494 57 86 140 255 
-2.61734 5.55251 -1.12662 61 78 138 255 
-2.5071 5.32368 -1.1353 60 79 138 255 
-2.38166 5.05951 -1.13467 60 79 138 255 
-2.27593 4.83945 -1.13966 64 69 136 255 
-2.19043 4.65314 -1.1411 61 77 138 255 
-2.10324 4.47016 -1.14418 59 81 139 255 
-2.02202 4.2994 -1.14855 63 71 136 255 
-1.94623 4.13464 -1.15294 62 73 137 255 
-1.88211 4.00724 -1.15733 63 71 136 255 
-1.80889 3.85153 -1.15451 64 70 136 255 
-1.74805 3.71854 -1.15806 65 66 135 255 
-1.69412 3.5958 -1.1646 67 61 132 255 
-0 0 0 68 2 86 255 
-0 0 0 68 1 84 255 
-0 0 0 68 1 84 255 
-0 0 0 68 2 86 255 
-0 0 0 68 1 84 255 
-0 0 0 68 1 84 255 
-0 0 0 68 2 86 255 
-0 0 0 68 2 86 255 
-0 0 0 68 2 86 255 
-0 0 0 68 2 86 255 
-0 0 0 68 2 86 255 
-0 0 0 68 2 86 255 
-0 0 0 68 1 84 255 
-0 0 0 68 2 86 255 
-0 0 0 68 2 86 255 
-0 0 0 68 2 86 255 
-17.5303 37.4802 6.00679 70 11 94 255 
-13.0406 27.9075 4.17034 66 63 133 255 
-13.0096 27.9167 3.87447 71 46 124 255 
-25.2543 54.2933 6.98124 70 7 90 255 
-13.0622 27.9274 3.34389 71 42 122 255 
-7.32886 15.7056 1.71463 64 70 136 255 
-7.02719 15.0862 1.48824 65 66 135 255 
-6.69836 14.4203 1.2737 65 66 135 255 
-6.46754 13.8341 1.10269 61 77 138 255 
-6.38598 13.6912 0.947823 62 76 138 255 
-6.26026 13.4582 0.790875 60 79 138 255 
-6.20029 13.3602 0.645651 60 80 139 255 
-5.26919 11.281 0.447852 57 85 140 255 
-4.77261 10.2416 0.299822 63 71 136 255 
-4.77318 10.2659 0.193662 63 72 137 255 
-4.76872 10.2849 0.0890397 60 80 139 255 
-4.7909 10.2617 -0.00197659 61 78 138 255 
-4.31046 9.25828 -0.0980363 62 76 138 255 
-4.29937 9.25534 -0.192386 58 83 139 255 
-4.29111 9.26328 -0.288727 59 82 139 255 
-4.309 9.24213 -0.370353 52 96 141 255 
-4.29284 9.22886 -0.46398 59 81 139 255 
-4.2382 9.12783 -0.553843 66 65 134 255 
-4.11586 8.88901 -0.631739 56 88 140 255 
-4.1342 8.87125 -0.710146 56 88 140 255 
-3.95969 8.52042 -0.769155 51 99 141 255 
-3.96 8.54037 -0.860036 53 94 141 255 
-3.80217 8.21154 -0.91279 57 86 140 255 
-3.81949 8.20715 -0.986602 52 96 141 255 
-3.78026 8.13803 -1.06363 62 76 138 255 
-3.56781 7.69807 -1.08691 60 80 139 255 
-3.35032 7.24231 -1.09876 55 90 140 255 
-3.18196 6.8466 -1.10276 53 94 141 255 
-3.01202 6.49011 -1.11277 44 113 142 255 
-2.84881 6.14953 -1.11834 53 95 141 255 
-2.70894 5.85584 -1.12839 55 91 141 255 
-2.58985 5.58274 -1.12951 58 83 139 255 
-2.47562 5.34164 -1.13587 59 81 139 255 
-2.34439 5.06069 -1.13168 60 80 139 255 
-2.2462 4.85333 -1.13966 63 71 136 255 
-2.16471 4.6727 -1.14262 62 73 137 255 
-2.07454 4.48033 -1.1435 61 77 138 255 
-1.99846 4.3179 -1.15019 63 72 137 255 
-1.9196 4.14387 -1.15221 64 69 136 255 
-1.8514 4.00554 -1.15354 62 74 137 255 
-1.78846 3.86957 -1.1566 64 69 136 255 
-1.72197 3.72221 -1.15589 66 63 133 255 
-1.66355 3.58785 -1.1587 64 69 136 255 
-0 0 0 68 1 84 255 
-0 0 0 68 1 84 255 
-0 0 0 68 1 84 255 
-0 0 0 68 2 86 255 
-0 0 0 68 1 84 255 
-0 0 0 68 1 84 255 
-0 0 0 68 1 84 255 
-0 0 0 68 2 86 255 
-0 0 0 68 1 84 255 
-0 0 0 68 2 86 255 
-0 0 0 68 2 86 255 
-0 0 0 68 1 84 255 
-0 0 0 68 1 84 255 
-0 0 0 68 2 86 255 
-17.0873 37.211 6.66126 70 10 93 255 
-17.2821 37.7235 6.36426 69 5 89 255 
-12.8847 27.9941 4.47374 72 24 106 255 
-12.8707 27.9906 4.17087 66 64 134 255 
-24.8961 54.2911 7.51354 69 5 89 255 
-0 0 0 68 1 84 255 
-0 0 0 69 4 87 255 
-7.25686 15.8036 1.72044 64 69 136 255 
-7.03285 15.3437 1.50935 68 59 132 255 
-6.61555 14.4738 1.27482 68 59 132 255 
-6.41297 13.9396 1.10795 61 78 138 255 
-6.33765 13.8082 0.953208 55 90 140 255 
-6.23658 13.6253 0.79843 64 70 136 255 
-6.11779 13.3971 0.645608 61 78 138 255 
-5.21698 11.3504 0.449325 58 83 139 255 
-4.73635 10.3288 0.30152 64 69 136 255 
-4.72341 10.3241 0.194209 62 73 137 255 
-4.71797 10.3412 0.0892753 62 76 138 255 
-4.74663 10.3318 -0.00198444 61 77 138 255 
-4.25732 9.29273 -0.0981226 64 70 136 255 
-4.24915 9.29609 -0.192688 63 71 136 255 
-4.24207 9.30672 -0.289264 63 72 137 255 
-4.25846 9.28202 -0.370897 59 82 139 255 
-4.25651 9.29954 -0.466211 56 89 140 255 
-4.168 9.12278 -0.551975 63 72 137 255 
-4.08192 8.9595 -0.634957 58 84 140 255 
-4.09965 8.93997 -0.713619 57 85 140 255 
-3.92557 8.58444 -0.772745 53 95 141 255 
-3.93108 8.61615 -0.865222 56 88 140 255 
-3.7645 8.26278 -0.915901 61 78 138 255 
-3.7761 8.2458 -0.988444 54 93 141 255 
-3.73397 8.16921 -1.06469 62 76 138 255 
-3.52174 7.72252 -1.08729 57 85 140 255 
-3.30705 7.26544 -1.09917 57 85 140 255 
-3.13495 6.8552 -1.10102 51 98 141 255 
-2.96803 6.49949 -1.11123 47 108 142 255 
-2.80979 6.16421 -1.11785 53 94 141 255 
-2.66969 5.86518 -1.12701 54 93 141 255 
-2.54738 5.58063 -1.1259 59 81 139 255 
-2.44158 5.35405 -1.1353 62 76 138 255 
-2.31208 5.07231 -1.13109 61 78 138 255 
-2.21556 4.86524 -1.13924 64 70 136 255 
-2.13559 4.685 -1.1424 61 77 138 255 
-2.03691 4.47081 -1.13786 63 71 136 255 
-1.97112 4.32831 -1.14972 64 69 136 255 
-1.88972 4.14586 -1.14952 64 69 136 255 
-1.82639 4.01595 -1.15329 61 78 138 255 
-1.76988 3.89189 -1.16001 66 65 134 255 
-1.70109 3.73709 -1.15725 67 62 133 255 
-1.64111 3.59712 -1.15842 66 64 134 255 
-4.72208 10.442 3.44256 69 4 87 255 
-4.67523 10.3148 3.27519 72 40 120 255 
-4.70625 10.3734 3.17401 69 53 129 255 
-0 0 0 68 1 84 255 
-0 0 0 68 1 84 255 
-0 0 0 68 1 84 255 
-0 0 0 68 1 84 255 
-0 0 0 68 1 84 255 
-0 0 0 68 2 86 255 
-0 0 0 68 2 86 255 
-0 0 0 68 1 84 255 
-0 0 0 68 1 84 255 
-0 0 0 68 2 86 255 
-0 0 0 68 1 84 255 
-16.9318 37.477 6.69016 69 5 89 255 
-16.7034 37.0593 6.23479 70 10 93 255 
-12.7225 28.0943 4.47719 71 47 125 255 
-12.709 28.0916 4.17423 64 69 136 255 
-17.2486 38.2316 5.27625 69 5 89 255 
-24.485 54.3745 6.95252 69 4 87 255 
-7.38866 16.316 1.94259 70 7 90 255 
-7.17245 15.8759 1.72349 65 68 135 255 
-6.98402 15.4873 1.51924 66 64 134 255 
-6.52866 14.5187 1.27522 66 64 134 255 
-6.34089 14.0087 1.11033 60 79 138 255 
-6.27047 13.8859 0.955901 59 81 139 255 
-6.16352 13.6869 0.799814 61 78 138 255 
-6.03751 13.4389 0.645826 60 80 139 255 
-5.1703 11.4332 0.451338 59 81 139 255 
-4.70043 10.4187 0.303297 64 70 136 255 
-4.67557 10.3876 0.194859 62 74 137 255 
-4.66631 10.3965 0.0895031 61 77 138 255 
-4.6955 10.3881 -0.00198968 62 74 137 255 
-4.22405 9.37156 -0.0986794 64 69 136 255 
-4.19859 9.33658 -0.192989 65 68 135 255 
-4.20166 9.36997 -0.290424 62 74 137 255 
-4.22568 9.36172 -0.373039 57 86 140 255 
-4.21824 9.36738 -0.468306 59 82 139 255 
-4.09926 9.11995 -0.550271 62 74 137 255 
-4.05136 9.03902 -0.638819 58 84 140 255 
-4.02749 8.92677 -0.71058 56 88 140 255 
-3.899 8.66653 -0.777966 54 93 141 255 
-3.89527 8.67827 -0.869043 52 97 141 255 
-3.73082 8.32386 -0.920116 59 82 139 255 
-3.7385 8.29782 -0.991911 52 96 141 255 
-3.67441 8.17113 -1.06199 64 69 136 255 
-3.47591 7.74761 -1.0878 58 84 140 255 
-3.2531 7.2648 -1.09603 56 89 140 255 
-3.09567 6.88062 -1.10203 53 95 141 255 
-2.93215 6.52659 -1.11277 47 108 142 255 
-2.77676 6.19213 -1.1198 51 98 141 255 
-2.62922 5.87156 -1.12511 54 92 141 255 
-2.50462 5.57731 -1.12211 57 86 140 255 
-2.41149 5.3752 -1.13663 56 89 140 255 
-2.27811 5.08014 -1.12969 61 77 138 255 
-2.18807 4.8841 -1.1405 63 72 137 255 
-2.10081 4.68466 -1.13915 62 74 137 255 
-2.02418 4.51611 -1.14621 63 71 136 255 
-1.93738 4.32436 -1.14549 64 69 136 255 
-1.86662 4.16269 -1.15099 63 71 136 255 
-1.79539 4.01295 -1.14924 62 73 137 255 
-1.74951 3.91061 -1.16236 66 65 134 255 
-1.68167 3.75536 -1.15969 66 65 134 255 
-1.6249 3.62025 -1.16263 66 64 134 255 
-4.71514 10.5994 3.48485 71 19 101 255 
-4.6228 10.3679 3.28297 62 74 137 255 
-4.64408 10.4056 3.17509 62 73 137 255 
-0 0 0 68 2 86 255 
-0 0 0 68 1 84 255 
-7.69842 17.2739 4.70821 71 16 99 255 
-7.73734 17.369 4.5404 72 37 118 255 
-0 0 0 68 1 84 255 
-0 0 0 68 2 86 255 
-0 0 0 68 2 86 255 
-0 0 0 68 2 86 255 
-0 0 0 68 2 86 255 
-0 0 0 68 2 86 255 
-0 0 0 68 2 86 255 
-16.5155 37.1617 6.61566 70 10 93 255 
-16.4757 37.1611 6.23479 71 13 96 255 
-12.5478 28.1673 4.47647 70 51 127 255 
-12.5436 28.1854 4.17664 67 62 133 255 
-12.5221 28.2159 3.88333 72 31 112 255 
-12.5069 28.2359 3.60046 72 31 112 255 
-7.21518 16.1966 1.92307 70 7 90 255 
-7.12784 16.0388 1.73639 66 64 134 255 
-6.93248 15.6282 1.52885 66 63 133 255 
-6.48381 14.6587 1.284 65 68 135 255 
-6.29619 14.1403 1.11767 61 78 138 255 
-6.21797 13.998 0.960973 57 85 140 255 
-6.07902 13.7236 0.799761 57 85 140 255 
-5.96221 13.4922 0.646615 61 78 138 255 
-5.1167 11.5021 0.452812 62 76 138 255 
-4.65101 10.4803 0.304252 66 64 134 255 
-4.64372 10.4883 0.19621 62 74 137 255 
-4.63797 10.5054 0.0901942 68 59 132 255 
-4.65199 10.4624 -0.0019984 65 68 135 255 
