ply
format ascii 1.0
comment VTK generated PLY File
obj_info vtkPolyData points and polygons: vtk4.0
element vertex 1172
property float x
property float y
property float z
property uchar red
property uchar green
property uchar blue
property uchar alpha
element face 0
property list uchar int vertex_indices
end_header
-7.17829 1.851 -0.878711 54 93 141 255 
-7.17796 1.85752 -0.949808 60 79 138 255 
-7.16574 1.8598 -1.01937 59 82 139 255 
-7.18175 1.85042 -1.08324 51 99 141 255 
-7.16978 1.85147 -1.15165 56 88 140 255 
-7.13019 1.84649 -1.21537 65 66 135 255 
-7.14141 1.85348 -1.29032 63 71 136 255 
-6.98888 1.80592 -1.32483 67 61 132 255 
-6.64263 1.71905 -1.32379 67 62 133 255 
-6.27871 1.62598 -1.31602 69 56 130 255 
-5.99556 1.55497 -1.31995 71 47 125 255 
-5.68185 1.47135 -1.30226 67 61 132 255 
-5.45181 1.41291 -1.30437 69 53 129 255 
-5.21904 1.35351 -1.30339 67 62 133 255 
-4.97578 1.28864 -1.29679 70 51 127 255 
-4.75776 1.23648 -1.28505 71 45 123 255 
-4.63488 1.20464 -1.29931 71 45 123 255 
-4.42342 1.14799 -1.288 70 52 128 255 
-4.28405 1.1079 -1.29647 68 58 131 255 
-17.5296 4.59557 5.44376 62 76 138 255 
-17.5478 4.58425 5.2452 57 86 140 255 
-17.5237 4.57124 5.04621 56 88 140 255 
-17.5258 4.57217 4.86338 57 86 140 255 
-17.5082 4.58016 4.69715 64 70 136 255 
-17.5167 4.57937 4.50746 61 78 138 255 
-17.4986 4.57775 4.31906 62 74 137 255 
-17.479 4.57623 4.13816 65 68 135 255 
-17.4887 4.57181 3.98759 56 88 140 255 
-17.4913 4.57599 3.80016 57 86 140 255 
-17.4782 4.58219 3.62036 58 84 140 255 
-17.4825 4.59017 3.448 61 78 138 255 
-17.4746 4.56812 3.29542 57 85 140 255 
-17.4694 4.57352 3.11594 53 94 141 255 
-17.4734 4.58743 2.93892 55 91 141 255 
-17.4552 4.59924 2.76863 56 88 140 255 
-17.4459 4.56386 2.61787 53 95 141 255 
-17.4591 4.57409 2.44344 49 103 142 255 
-17.4471 4.5903 2.26949 55 91 141 255 
-17.437 4.60097 2.10254 62 74 137 255 
-17.4481 4.56444 1.95607 58 84 140 255 
-17.4361 4.57781 1.78345 57 85 140 255 
-17.431 4.58933 1.61187 60 79 138 255 
-17.3984 4.6005 1.44163 62 74 137 255 
-17.4375 4.5649 1.30154 57 85 140 255 
-17.4262 4.57845 1.13041 65 68 135 255 
-17.4242 4.59727 0.960181 64 70 136 255 
-17.3942 4.60589 0.788769 68 58 131 255 
-17.4033 4.56243 0.647137 67 61 132 255 
-17.0718 4.49172 0.468421 70 51 127 255 
-16.7166 4.41371 0.295752 71 46 124 255 
-7.40582 1.96378 0.0601766 52 97 141 255 
-7.36574 1.93237 -0.00132907 44 114 142 255 
-7.37688 1.94367 -0.073232 50 102 142 255 
-7.42546 1.96333 -0.144794 49 103 142 255 
-7.45458 1.97949 -0.218136 58 84 140 255 
-7.2642 1.90979 -0.272792 43 116 142 255 
-7.29548 1.92495 -0.343944 42 120 142 255 
-7.27912 1.92599 -0.414379 42 119 142 255 
-7.30769 1.94185 -0.487642 40 124 142 255 
-7.32097 1.92608 -0.549272 42 120 142 255 
-7.32815 1.9363 -0.620497 41 123 142 255 
-7.33686 1.94538 -0.693451 50 100 142 255 
-7.3359 1.94935 -0.76566 53 95 141 255 
-7.14797 1.88456 -0.805664 60 80 139 255 
-7.1476 1.88993 -0.876356 55 90 140 255 
-7.14917 1.89695 -0.947521 57 85 140 255 
-7.14366 1.90093 -1.01787 58 83 139 255 
-7.16261 1.89243 -1.08209 53 95 141 255 
-7.1602 1.89593 -1.15195 60 79 138 255 
-7.12349 1.89147 -1.21619 61 77 138 255 
-7.14038 1.90005 -1.29222 62 76 138 255 
-6.96626 1.84575 -1.32266 66 64 134 255 
-6.62057 1.75676 -1.32152 62 73 137 255 
-6.2743 1.66599 -1.31721 68 58 131 255 
-5.96133 1.5852 -1.31453 71 46 124 255 
-5.68498 1.50945 -1.30508 69 53 129 255 
-5.45434 1.44934 -1.30708 66 63 133 255 
-5.21064 1.3855 -1.30339 69 55 129 255 
-4.96965 1.31964 -1.29728 70 52 128 255 
-4.76691 1.27013 -1.28961 70 48 126 255 
-4.60222 1.22635 -1.29224 71 44 122 255 
-4.41536 1.17487 -1.28773 71 47 125 255 
-4.28552 1.13638 -1.299 68 58 131 255 
-17.5159 4.70702 5.44837 60 80 139 255 
-17.5277 4.69407 5.2477 59 82 139 255 
-17.5055 4.68142 5.04916 59 81 139 255 
-17.4956 4.67913 4.86286 59 82 139 255 
-17.4957 4.69177 4.70142 63 72 137 255 
-17.5107 4.69279 4.51326 59 82 139 255 
-17.5012 4.69334 4.32672 62 73 137 255 
-17.4742 4.68971 4.14375 66 64 134 255 
-17.4698 4.68156 3.98974 62 76 138 255 
-17.4752 4.68653 3.80283 58 83 139 255 
-17.4696 4.69469 3.62448 56 89 140 255 
-17.4711 4.70194 3.45138 58 83 139 255 
-17.47 4.68163 3.29991 57 86 140 255 
-17.4553 4.68446 3.11849 53 94 141 255 
-17.4525 4.69661 2.9402 53 94 141 255 
-17.4342 4.70832 2.76984 54 93 141 255 
-17.4348 4.67544 2.62046 54 93 141 255 
-17.4556 4.68781 2.44693 51 98 141 255 
-17.4454 4.7045 2.27298 54 93 141 255 
-17.4363 4.7154 2.1059 60 79 138 255 
-17.4274 4.67347 1.95693 61 77 138 255 
-17.4201 4.68807 1.78473 59 82 139 255 
-17.4083 4.69776 1.6124 63 71 136 255 
-17.4064 4.71708 1.44466 63 71 136 255 
-17.4207 4.67491 1.3024 59 82 139 255 
-17.4083 4.68815 1.1311 60 80 139 255 
-17.3985 4.70488 0.96034 65 66 135 255 
-17.3657 4.71253 0.788769 72 41 121 255 
-11.507 3.09227 0.428585 58 84 140 255 
-11.5241 3.10781 0.316719 61 78 138 255 
-14.1866 3.83898 0.251403 49 104 142 255 
-7.39942 2.01076 0.0602237 46 109 142 255 
-7.37113 1.98221 -0.00133221 48 106 142 255 
-7.36965 1.9902 -0.07328 49 103 142 255 
-7.50013 2.03239 -0.14649 53 95 141 255 
-14.1236 3.8433 -0.413966 62 73 137 255 
-7.26102 1.95667 -0.273119 44 113 142 255 
-7.27871 1.96837 -0.343716 44 114 142 255 
-7.26909 1.97114 -0.414489 40 125 142 255 
-7.30431 1.98901 -0.488221 44 115 142 255 
-7.31672 1.97304 -0.549851 39 126 142 255 
-7.32094 1.98253 -0.620905 43 116 142 255 
-7.32575 1.99062 -0.693542 52 97 141 255 
-7.32476 1.99458 -0.76576 55 90 140 255 
-7.12955 1.92657 -0.804905 57 85 140 255 
-7.13395 1.93323 -0.876121 53 95 141 255 
-7.12687 1.93792 -0.946123 56 89 140 255 
-7.1223 1.94212 -1.01651 58 83 139 255 
-7.14418 1.93453 -1.08108 50 100 142 255 
-7.14176 1.93802 -1.15088 55 91 141 255 
-7.11556 1.93618 -1.21684 58 84 140 255 
-7.09342 1.93424 -1.28585 62 74 137 255 
-6.96334 1.89078 -1.32429 66 64 134 255 
-6.60398 1.7958 -1.32038 64 69 136 255 
-6.2545 1.70188 -1.31523 64 70 136 255 
-5.96281 1.62483 -1.31703 68 59 132 255 
-5.69916 1.55071 -1.31049 68 57 131 255 
-5.3645 1.46076 -1.28768 70 52 128 255 
-5.19923 1.41668 -1.30269 70 52 128 255 
-4.99046 1.358 -1.30486 70 52 128 255 
-4.76276 1.30038 -1.29062 70 52 128 255 
-4.57412 1.24897 -1.28648 70 48 126 255 
-4.40714 1.20168 -1.28746 71 46 124 255 
-4.26735 1.15963 -1.29563 68 58 131 255 
-17.4987 4.81771 5.45211 59 82 139 255 
-17.5107 4.80484 5.25131 59 82 139 255 
-17.4997 4.7951 5.05587 59 82 139 255 
-17.4824 4.79073 4.86727 60 79 138 255 
-17.474 4.80108 4.70343 62 74 137 255 
-17.4975 4.80451 4.51736 60 80 139 255 
-17.4946 4.80683 4.33229 61 78 138 255 
-17.4498 4.79814 4.14486 64 69 136 255 
-17.4737 4.79771 3.99728 59 82 139 255 
-17.4612 4.79781 3.80612 58 84 140 255 
-17.4566 4.80622 3.62782 55 91 141 255 
-17.4609 4.81428 3.45512 59 82 139 255 
-17.4666 4.79576 3.30475 55 91 141 255 
-17.4462 4.79696 3.12206 56 89 140 255 
-17.4529 4.81174 2.94518 55 91 141 255 
-17.4288 4.82179 2.77363 55 91 141 255 
-17.4258 4.78783 2.62347 53 95 141 255 
-17.4322 4.79641 2.44773 50 102 142 255 
-17.4353 4.81673 2.27548 55 90 140 255 
-17.4185 4.82548 2.10729 62 74 137 255 
-17.409 4.78321 1.95812 62 74 137 255 
-17.4102 4.80016 1.7867 57 86 140 255 
-17.4195 4.81563 1.61614 59 81 139 255 
-17.3954 4.82886 1.44618 62 74 137 255 
-17.408 4.78621 1.30363 59 81 139 255 
-17.4196 4.80602 1.13373 61 77 138 255 
-17.3751 4.81315 0.96066 68 59 132 255 
-11.4812 3.19144 0.522372 58 83 139 255 
-11.4262 3.14584 0.426284 57 85 140 255 
-11.4297 3.1577 0.31465 57 85 140 255 
-16.6833 4.62466 0.296145 72 36 117 255 
-7.37346 2.05237 0.0601138 69 56 130 255 
-7.37425 2.03165 -0.001335 46 111 142 255 
-7.37946 2.04151 -0.0735008 54 92 141 255 
-7.40755 2.05617 -0.144926 70 52 128 255 
-11.4508 3.19157 -0.336194 72 35 116 255 
-7.25948 2.00411 -0.273518 42 118 142 255 
-7.28094 2.01699 -0.344399 43 116 142 255 
-7.27033 2.01945 -0.415258 42 120 142 255 
-7.29677 2.03513 -0.488543 43 116 142 255 
-7.30832 2.01896 -0.55014 42 119 142 255 
-7.32496 2.03194 -0.622292 41 123 142 255 
-7.32874 2.03981 -0.694998 48 106 142 255 
-7.32868 2.04403 -0.767466 53 94 141 255 
-7.09748 1.96471 -0.80263 62 76 138 255 
-7.10282 1.97165 -0.873767 58 84 140 255 
-7.09955 1.97735 -0.94409 62 76 138 255 
-7.09594 1.98179 -1.01446 63 72 137 255 
-7.1112 1.97251 -1.0779 56 88 140 255 
-7.11545 1.97784 -1.14857 59 82 139 255 
-7.09594 1.97768 -1.21553 61 78 138 255 
-7.08142 1.97773 -1.28585 66 65 134 255 
-6.94782 1.93241 -1.32357 67 61 132 255 
-6.56163 1.82759 -1.31413 62 73 137 255 
-6.21373 1.73181 -1.30886 66 65 134 255 
-5.9565 1.66244 -1.31786 66 63 133 255 
-5.6538 1.57569 -1.30226 66 65 134 255 
-5.41737 1.51093 -1.30257 68 58 131 255 
-5.18107 1.44595 -1.30034 69 56 130 255 
-4.93347 1.37506 -1.29214 70 51 127 255 
-4.7519 1.3288 -1.28986 69 53 129 255 
-4.56173 1.27571 -1.28517 71 46 124 255 
-4.39598 1.22767 -1.28637 68 57 131 255 
-4.24536 1.18168 -1.29113 69 53 129 255 
-17.4707 4.92551 5.45268 59 82 139 255 
-17.5012 4.91791 5.25742 57 86 140 255 
-17.5015 4.91124 5.065 57 86 140 255 
-17.4834 4.90652 4.87582 57 86 140 255 
-17.4824 4.91896 4.71373 60 79 138 255 
-17.4752 4.91389 4.5193 62 76 138 255 
-17.4779 4.91777 4.33555 63 71 136 255 
-17.4725 4.91991 4.15736 62 74 137 255 
-17.4533 4.90748 3.99943 61 78 138 255 
-17.4512 4.91043 3.81044 60 80 139 255 
-17.4456 4.91856 3.63175 55 91 141 255 
-17.4395 4.92373 3.45681 58 83 139 255 
-17.4463 4.90551 3.30655 56 88 140 255 
-17.4306 4.90792 3.12461 55 90 140 255 
-17.4315 4.92115 2.94663 57 86 140 255 
-17.4189 4.9343 2.77681 59 82 139 255 
-17.4161 4.9003 2.62649 51 98 141 255 
-17.4053 4.90409 2.44814 51 98 141 255 
-17.4093 4.92471 2.27598 54 93 141 255 
-17.3895 4.93253 2.1074 60 80 139 255 
-17.4166 4.90044 1.96232 60 80 139 255 
-17.3986 4.91203 1.78857 57 86 140 255 
-17.3992 4.92514 1.61703 60 79 138 255 
-17.3827 4.94041 1.44762 63 71 136 255 
-17.387 4.89537 1.30428 60 80 139 255 
-17.3946 4.91418 1.13404 61 78 138 255 
-17.3769 4.92866 0.962416 64 70 136 255 
-11.4307 3.25308 0.52097 59 82 139 255 
-11.3788 3.20802 0.425242 52 96 141 255 
-11.3735 3.21743 0.313642 59 82 139 255 
-11.4875 3.2604 0.204266 71 45 123 255 
-11.2084 3.19404 0.0915372 62 74 137 255 
-7.47714 2.10944 -0.00135595 48 106 142 255 
-7.41105 2.09929 -0.0739424 49 103 142 255 
-11.36 3.2285 -0.222638 51 98 141 255 
-11.3416 3.23627 -0.333564 69 56 130 255 
-7.25955 2.05215 -0.27399 44 114 142 255 
-7.3011 2.0709 -0.345947 45 113 142 255 
-7.28373 2.0714 -0.416742 43 117 142 255 
-7.30909 2.08699 -0.490216 46 111 142 255 
-7.31691 2.06974 -0.551732 42 119 142 255 
-7.3392 2.08447 -0.624576 44 115 142 255 
-7.33812 2.09102 -0.69709 52 97 141 255 
-7.32078 2.09033 -0.767968 57 86 140 255 
-7.06424 2.00226 -0.800246 59 81 139 255 
-7.0753 2.01086 -0.871883 58 84 140 255 
-7.06726 2.01517 -0.941422 62 76 138 255 
-7.0646 2.01984 -1.01173 62 73 137 255 
-7.0666 2.00692 -1.07298 56 89 140 255 
-7.07562 2.01361 -1.14412 63 72 137 255 
-7.07039 2.0174 -1.21326 64 69 136 255 
-7.05494 2.01708 -1.28326 64 70 136 255 
-6.92259 1.97124 -1.32104 68 57 131 255 
-6.55595 1.86944 -1.31527 63 71 136 255 
-6.20016 1.76909 -1.30827 65 68 135 255 
-5.93396 1.69546 -1.31515 68 59 132 255 
-5.64497 1.61062 -1.30248 63 71 136 255 
-5.41175 1.54521 -1.30347 65 68 135 255 
-5.16182 1.47477 -1.29775 68 57 131 255 
-4.92774 1.4061 -1.29287 68 59 132 255 
-4.74552 1.35846 -1.29037 70 50 126 255 
-4.55567 1.30421 -1.28569 70 50 126 255 
-4.38096 1.2525 -1.2842 69 53 129 255 
-4.22511 1.20402 -1.28719 68 59 132 255 
-17.4778 5.0435 5.46448 57 86 140 255 
-17.5058 5.03529 5.26798 57 85 140 255 
-17.4794 5.02093 5.06742 59 81 139 255 
-17.4752 5.0201 4.88205 59 82 139 255 
-17.4705 5.03149 4.71875 63 72 137 255 
-17.4736 5.02934 4.52679 61 77 138 255 
-17.4614 5.02895 4.33903 61 77 138 255 
-17.4551 5.03081 4.16049 63 71 136 255 
-17.4407 5.01961 4.00353 60 79 138 255 
-17.4395 5.02283 3.81455 59 82 139 255 
-17.4283 5.02932 3.6345 56 88 140 255 
-17.4212 5.03419 3.45925 59 81 139 255 
-17.4272 5.01573 3.3087 55 90 140 255 
-17.4182 5.01997 3.12784 57 86 140 255 
-17.4096 5.03049 2.94807 56 88 140 255 
-17.394 5.04274 2.77772 58 83 139 255 
-17.4066 5.01309 2.62965 50 100 142 255 
-17.4006 5.01821 2.45176 54 93 141 255 
-17.3863 5.03364 2.27698 54 93 141 255 
-17.3923 5.04883 2.11145 62 74 137 255 
-17.4072 5.01327 1.96469 60 80 139 255 
-17.3911 5.02533 1.79093 59 82 139 255 
-17.3907 5.03818 1.61908 61 77 138 255 
-17.3635 5.05031 1.44858 62 76 138 255 
-17.371 5.0061 1.30536 59 81 139 255 
-17.39 5.0283 1.13574 60 79 138 255 
-17.3425 5.03408 0.962203 67 61 132 255 
-11.4259 3.32762 0.521671 58 84 140 255 
-11.3445 3.27363 0.424702 56 89 140 255 
-11.4102 3.30356 0.315207 62 76 138 255 
-11.4644 3.32999 0.204215 62 73 137 255 
-11.2232 3.27283 0.09182 58 83 139 255 
-11.2456 3.2472 -0.00204291 65 68 135 255 
-11.2714 3.26762 -0.112656 62 74 137 255 
-11.3295 3.29507 -0.22243 49 103 142 255 
-11.311 3.30271 -0.333253 66 63 133 255 
-7.26026 2.10054 -0.274498 45 112 142 255 
-7.33047 2.12791 -0.347951 44 115 142 255 
-7.29389 2.12275 -0.418061 44 115 142 255 
-7.33159 2.14215 -0.492597 46 110 142 255 
-7.36251 2.13152 -0.556147 42 118 142 255 
-7.3636 2.14032 -0.627758 44 113 142 255 
-7.34809 2.14269 -0.699274 50 102 142 255 
-7.39473 2.1606 -0.777101 64 69 136 255 
-7.06137 2.04834 -0.80133 57 86 140 255 
-7.05806 2.05284 -0.871295 57 85 140 255 
-7.05381 2.05822 -0.941295 61 78 138 255 
-7.04827 2.06204 -1.01119 61 77 138 255 
-7.0475 2.04831 -1.07197 57 86 140 255 
-7.06598 2.05782 -1.14458 56 88 140 255 
-7.04083 2.05576 -1.21032 61 78 138 255 
-7.02447 2.05508 -1.27999 63 72 137 255 
-6.89714 2.00982 -1.31851 66 64 134 255 
-6.54907 1.911 -1.31622 63 72 137 255 
-6.18449 1.80573 -1.30727 66 64 134 255 
-5.89528 1.72361 -1.3089 67 62 133 255 
-5.62842 1.64331 -1.30096 66 65 134 255 
-5.40404 1.57893 -1.30392 68 59 132 255 
-5.14708 1.50478 -1.29634 69 56 130 255 
-4.91901 1.43631 -1.29287 69 53 129 255 
-4.72874 1.38511 -1.28809 70 50 126 255 
-4.55592 1.33458 -1.28805 70 52 128 255 
-4.39167 1.28476 -1.28963 68 57 131 255 
-4.22501 1.23207 -1.28944 69 56 130 255 
-17.4613 5.15499 5.46908 59 81 139 255 
-17.4856 5.14586 5.27131 61 78 138 255 
-17.476 5.13623 5.07547 59 82 139 255 
-17.4607 5.13214 4.88672 59 82 139 255 
-17.4402 5.13887 4.71901 63 72 137 255 
-17.4554 5.1403 4.53017 61 78 138 255 
-17.4498 5.14177 4.34391 62 74 137 255 
-17.4408 5.14278 4.16451 64 69 136 255 
-17.4292 5.13232 4.00805 60 79 138 255 
-17.4215 5.13362 3.81743 59 81 139 255 
-17.4122 5.1406 3.63765 54 93 141 255 
-17.3957 5.14266 3.46037 57 85 140 255 
-17.4159 5.1284 3.31247 57 86 140 255 
-17.4022 5.13121 3.13056 54 93 141 255 
-17.4124 5.14729 2.95385 55 90 140 255 
-17.3731 5.15246 2.77939 56 88 140 255 
-17.3945 5.1254 2.63252 55 91 141 255 
-17.4094 5.13666 2.45739 51 99 141 255 
-17.3808 5.14783 2.28035 52 97 141 255 
-17.3734 5.15913 2.11296 61 78 138 255 
-17.3781 5.12055 1.96491 58 83 139 255 
-17.3676 5.1342 1.79172 57 85 140 255 
-17.3757 5.1496 1.62059 60 80 139 255 
-17.3551 5.16358 1.45049 61 78 138 255 
-17.3744 5.12275 1.30795 58 83 139 255 
-17.3723 5.13887 1.13661 61 77 138 255 
-17.3419 5.14949 0.963905 68 58 131 255 
-11.4167 3.40109 0.522197 60 79 138 255 
-11.3635 3.35477 0.426176 58 84 140 255 
-11.476 3.39906 0.317595 56 89 140 255 
-17.3315 5.14967 0.309281 69 56 130 255 
-11.2029 3.34164 0.09182 58 83 139 255 
-11.236 3.31926 -0.00204483 62 74 137 255 
-11.2578 3.33871 -0.112723 49 104 142 255 
-11.3234 3.36881 -0.222713 48 106 142 255 
-11.2876 3.3712 -0.333169 64 69 136 255 
-7.27215 2.15243 -0.275442 46 111 142 255 
-7.34505 2.1811 -0.349271 46 109 142 255 
-7.31805 2.17857 -0.420204 50 102 142 255 
-7.35369 2.19767 -0.494978 56 88 140 255 
-7.38181 2.18628 -0.558607 50 101 142 255 
-7.3446 2.18375 -0.627269 70 48 126 255 
-7.71558 2.30131 -0.735575 68 58 131 255 
-7.39182 2.20907 -0.778205 66 63 133 255 
-7.06011 2.09502 -0.80263 59 82 139 255 
-7.04724 2.09668 -0.87153 58 84 140 255 
-7.04009 2.10117 -0.941168 58 83 139 255 
-7.04687 2.10866 -1.01282 58 83 139 255 
-7.03764 2.09236 -1.0724 57 85 140 255 
-7.05038 2.10029 -1.14412 52 97 141 255 
-7.01485 2.09497 -1.20805 58 83 139 255 
-7.00418 2.09588 -1.27861 61 77 138 255 
-6.88939 2.05351 -1.31941 66 64 134 255 
-6.51841 1.94553 -1.31243 62 73 137 255 
-6.16953 1.84252 -1.30648 62 73 137 255 
-5.87054 1.75554 -1.30578 67 62 133 255 
-5.61074 1.67558 -1.29923 67 61 132 255 
-5.38305 1.60871 -1.30122 68 59 132 255 
-5.1275 1.53327 -1.29376 65 66 135 255 
-4.91475 1.46786 -1.2941 68 59 132 255 
-4.70995 1.41104 -1.28531 70 50 126 255 
-4.55226 1.3639 -1.28936 70 48 126 255 
-4.35512 1.30313 -1.28122 69 55 129 255 
-4.24588 1.26648 -1.29816 67 62 133 255 
-17.4247 5.26064 5.46764 61 77 138 255 
-17.4684 5.25748 5.27576 58 84 140 255 
-17.4515 5.24559 5.07762 59 82 139 255 
-17.4317 5.24001 4.88749 60 80 139 255 
-17.4408 5.25556 4.7278 65 66 135 255 
-17.4357 5.25094 4.53331 63 72 137 255 
-17.4365 5.25436 4.34855 61 78 138 255 
-17.4238 5.2542 4.16808 65 66 135 255 
-17.417 5.24508 4.01257 63 72 137 255 
-17.43 5.25256 3.82628 58 83 139 255 
-17.4066 5.25528 3.64315 57 85 140 255 
-17.3882 5.25669 3.46524 60 80 139 255 
-17.4096 5.24283 3.31732 56 88 140 255 
-17.3854 5.24244 3.13328 56 88 140 255 
-17.3834 5.25489 2.95433 56 88 140 255 
-17.3781 5.27015 2.7853 57 85 140 255 
-17.3959 5.24202 2.63755 52 97 141 255 
-17.3861 5.24596 2.4586 53 94 141 255 
-17.3679 5.26014 2.28284 53 94 141 255 
-17.3633 5.27227 2.11562 60 79 138 255 
-17.3549 5.22966 1.96588 61 78 138 255 
-17.3701 5.25103 1.79526 57 86 140 255 
-17.3628 5.2619 1.62238 60 80 139 255 
-17.3393 5.27491 1.45185 61 78 138 255 
-17.3655 5.23617 1.30968 59 82 139 255 
-17.3614 5.25173 1.13799 62 73 137 255 
-17.3368 5.26393 0.965395 66 64 134 255 
-14.1002 4.29489 0.646133 68 57 131 255 
-11.3781 3.43512 0.427506 55 90 140 255 
-11.4501 3.46796 0.317462 58 83 139 255 
-17.3302 5.26522 0.309828 68 58 131 255 
-11.1764 3.40856 0.0917728 62 74 137 255 
-11.2202 3.38959 -0.0020457 55 91 141 255 
-11.2716 3.41817 -0.113069 46 111 142 255 
-11.3083 3.43997 -0.222826 49 103 142 255 
-11.2791 3.44419 -0.333536 63 72 137 255 
-7.31715 2.21467 -0.277656 50 101 142 255 
-9.25569 2.81037 -0.440938 72 37 118 255 
-7.32843 2.2307 -0.421578 62 73 137 255 
-9.34806 2.85629 -0.630388 70 52 128 255 
-9.4387 2.85859 -0.715573 70 50 126 255 
-9.39363 2.85584 -0.803749 68 57 131 255 
-8.29856 2.53075 -0.79262 66 65 134 255 
-7.35909 2.24857 -0.776197 65 66 135 255 
-7.03666 2.13513 -0.801438 51 98 141 255 
-7.03234 2.1393 -0.871295 51 98 141 255 
-7.01948 2.14202 -0.940151 54 92 141 255 
-7.02717 2.14983 -1.01187 57 85 140 255 
-7.0294 2.13694 -1.07313 52 97 141 255 
-7.01562 2.13689 -1.14058 57 86 140 255 
-6.9896 2.13423 -1.20593 59 81 139 255 
-6.98365 2.13651 -1.27723 62 74 137 255 
-6.87666 2.09574 -1.31941 64 70 136 255 
-6.49508 1.98205 -1.31015 64 69 136 255 
-6.15342 1.87891 -1.30548 63 72 137 255 
-5.86808 1.79411 -1.30765 65 66 135 255 
-5.62183 1.71653 -1.30421 66 65 134 255 
-5.34233 1.63232 -1.29377 69 53 129 255 
-5.12637 1.56726 -1.29587 67 61 132 255 
-4.9038 1.49742 -1.29361 66 64 134 255 
-4.72434 1.447 -1.29163 68 58 131 255 
-4.54935 1.3935 -1.29093 70 48 126 255 
-4.36545 1.33546 -1.28665 68 58 131 255 
-4.25088 1.29642 -1.30209 67 61 132 255 
-17.4287 5.37876 5.47915 60 79 138 255 
-17.4459 5.36768 5.27881 58 84 140 255 
-17.4254 5.35455 5.07949 57 85 140 255 
-17.4186 5.35283 4.89294 60 80 139 255 
-17.4221 5.36675 4.73157 65 68 135 255 
-17.4365 5.36811 4.54201 62 76 138 255 
-17.4133 5.36411 4.35087 62 74 137 255 
-17.4034 5.36474 4.17098 64 70 136 255 
-17.4135 5.36076 4.01925 60 80 139 255 
-17.3946 5.35854 3.82566 57 85 140 255 
-17.389 5.36661 3.64629 57 86 140 255 
-17.38 5.37082 3.47011 56 88 140 255 
-17.3865 5.35245 3.31911 54 93 141 255 
-17.3765 5.35628 3.13753 57 86 140 255 
-17.381 5.37078 2.95947 55 91 141 255 
-17.3549 5.37961 2.78682 56 88 140 255 
-17.3804 5.35391 2.64014 52 97 141 255 
-17.364 5.35575 2.46008 54 93 141 255 
-17.3666 5.37629 2.28696 55 90 140 255 
-17.342 5.38225 2.11701 59 81 139 255 
-17.3614 5.34805 1.9703 58 84 140 255 
-17.3537 5.36251 1.79693 57 85 140 255 
-17.3454 5.37305 1.6238 60 80 139 255 
-17.3552 5.39629 1.45592 62 73 137 255 
-17.3502 5.34791 1.31097 57 86 140 255 
-17.3517 5.36523 1.13949 64 70 136 255 
-17.3127 5.37287 0.965874 66 64 134 255 
-14.1175 4.39499 0.648148 49 103 142 255 
-11.3969 3.51725 0.429016 64 70 136 255 
-17.3387 5.36783 0.481631 67 61 132 255 
-17.3109 5.37561 0.310067 69 55 129 255 
-11.2078 3.49344 0.0922048 58 83 139 255 
-11.2383 3.47047 -0.00205286 54 93 141 255 
-11.279 3.49615 -0.113357 50 100 142 255 
-11.3079 3.51582 -0.223241 53 94 141 255 
-11.3036 3.52762 -0.334893 67 62 133 255 
-7.33111 2.26809 -0.278708 72 36 117 255 
-9.07608 2.81678 -0.433197 69 55 129 255 
-9.03837 2.8119 -0.520928 69 53 129 255 
-9.02268 2.81752 -0.6096 69 53 129 255 
-9.10656 2.81911 -0.691692 69 55 129 255 
-9.13228 2.83771 -0.782862 67 62 133 255 
-8.25435 2.57273 -0.78989 68 59 132 255 
-7.35085 2.29546 -0.7768 66 64 134 255 
-7.01013 2.17414 -0.799921 55 91 141 255 
-7.02003 2.18271 -0.871412 53 95 141 255 
-7.00715 2.18534 -0.940278 57 86 140 255 
-6.96941 2.17901 -1.00546 61 77 138 255 
-7.01616 2.18003 -1.07313 54 92 141 255 
-6.99199 2.17667 -1.13889 56 88 140 255 
-6.97731 2.17737 -1.20609 60 80 139 255 
-6.96759 2.17844 -1.27671 61 77 138 255 
-6.82611 2.1262 -1.31219 66 64 134 255 
-6.46592 2.01661 -1.30674 61 77 138 255 
-6.13897 1.91576 -1.30489 60 80 139 255 
-5.83362 1.82279 -1.30244 66 64 134 255 
-5.60467 1.74896 -1.30269 66 64 134 255 
-5.33779 1.66681 -1.29512 67 62 133 255 
-5.11758 1.59898 -1.29611 68 57 131 255 
-4.88897 1.52575 -1.29214 69 53 129 255 
-4.70983 1.47422 -1.29011 66 64 134 255 
-4.53979 1.4211 -1.29067 66 63 133 255 
-4.38014 1.3694 -1.29343 66 63 133 255 
-4.21903 1.31506 -1.29478 67 62 133 255 
-17.442 5.50029 5.49382 57 85 140 255 
-17.4163 5.47578 5.27992 58 84 140 255 
-17.4198 5.47003 5.08755 56 88 140 255 
-17.4241 5.47176 4.90383 60 80 139 255 
-17.4138 5.48139 4.73835 64 69 136 255 
-17.406 5.47587 4.54273 62 74 137 255 
-17.4051 5.47874 4.35715 61 77 138 255 
-17.3655 5.46996 4.16987 65 68 135 255 
-17.3942 5.4719 4.02248 59 82 139 255 
-17.3838 5.47223 3.8306 58 83 139 255 
-17.3707 5.47793 3.64943 55 91 141 255 
-17.3824 5.4886 3.47724 58 84 140 255 
-17.3636 5.46227 3.32109 58 84 140 255 
-17.3583 5.46753 3.14025 55 91 141 255 
-17.3684 5.48386 2.963 54 92 141 255 
-17.3555 5.49674 2.79228 57 86 140 255 
-17.3671 5.46669 2.64316 51 98 141 255 
-17.3479 5.46756 2.46249 55 90 140 255 
-17.3465 5.48693 2.28871 55 90 140 255 
-17.3238 5.49336 2.11887 62 73 137 255 
-17.352 5.46194 1.973 59 81 139 255 
-17.3442 5.47638 1.7994 56 89 140 255 
-17.3596 5.49441 1.62825 61 78 138 255 
-17.3474 5.51083 1.45808 62 76 138 255 
-17.3342 5.45967 1.31227 60 79 138 255 
-17.329 5.47491 1.14018 62 74 137 255 
-17.328 5.49439 0.968588 65 68 135 255 
-17.2882 5.49865 0.795251 69 55 129 255 
-17.3062 5.45746 0.652708 65 68 135 255 
-17.3055 5.47412 0.481631 66 64 134 255 
-17.2785 5.48203 0.310085 67 62 133 255 
-11.2529 3.58339 0.0927546 59 82 139 255 
-11.2702 3.55621 -0.00206263 56 88 140 255 
-11.3174 3.58431 -0.113961 56 89 140 255 
-11.3195 3.59573 -0.223901 66 63 133 255 
-11.3094 3.60572 -0.335713 70 50 126 255 
-9.26852 2.92991 -0.35304 70 50 126 255 
-8.80343 2.79149 -0.420993 66 64 134 255 
-8.75832 2.78383 -0.505761 68 58 131 255 
-8.71906 2.78154 -0.590228 68 59 132 255 
-8.839 2.79583 -0.672659 67 61 132 255 
-8.83066 2.80352 -0.758466 66 63 133 255 
-8.16724 2.60067 -0.783067 68 59 132 255 
-7.31293 2.33296 -0.774291 63 72 137 255 
-6.98339 2.21291 -0.798404 57 86 140 255 
-6.97906 2.21702 -0.867999 58 83 139 255 
-6.97943 2.22378 -0.938372 60 79 138 255 
-6.97855 2.22897 -1.00873 61 78 138 255 
-6.9885 2.21855 -1.07096 57 85 140 255 
-6.98981 2.22312 -1.14073 54 93 141 255 
-6.95254 2.21655 -1.20414 57 85 140 255 
-6.94752 2.21905 -1.27551 62 73 137 255 
-6.80263 2.16476 -1.31021 62 73 137 255 
-6.45342 2.05624 -1.30674 61 78 138 255 
-6.10936 1.94773 -1.30111 61 77 138 255 
-5.82046 1.85795 -1.30202 66 63 133 255 
-5.58546 1.78065 -1.30074 66 64 134 255 
-5.35159 1.70723 -1.30099 65 68 135 255 
-5.11693 1.6333 -1.29846 68 58 131 255 
-4.91647 1.5675 -1.30192 69 56 130 255 
-4.7053 1.50457 -1.29138 66 65 134 255 
-4.52179 1.44599 -1.28805 67 61 132 255 
-4.37807 1.3983 -1.29533 66 63 133 255 
-4.18619 1.33306 -1.28719 70 52 128 255 
-17.4234 5.6122 5.49871 59 81 139 255 
-17.408 5.59076 5.2877 61 78 138 255 
-17.4162 5.58652 5.0964 60 80 139 255 
-17.4243 5.58948 4.91343 57 85 140 255 
-17.3964 5.59347 4.74287 63 72 137 255 
-17.3952 5.58999 4.54877 62 76 138 255 
-17.3896 5.59139 4.36179 60 80 139 255 
-17.3733 5.58985 4.17991 63 72 137 255 
-17.3994 5.59108 4.03153 57 85 140 255 
-17.389 5.59137 3.83924 58 83 139 255 
-17.362 5.59253 3.65474 56 88 140 255 
-17.3614 5.59938 3.47986 57 86 140 255 
-17.37 5.58165 3.3288 55 90 140 255 
-17.3704 5.58873 3.14858 55 91 141 255 
-17.3485 5.59487 2.96541 53 94 141 255 
-17.3458 5.61104 2.79622 54 92 141 255 
-17.3511 5.57891 2.64588 51 99 141 255 
-17.3262 5.57785 2.46424 53 94 141 255 
-17.3333 5.59998 2.29146 53 95 141 255 
-17.3247 5.61087 2.12315 62 74 137 255 
-17.3352 5.57378 1.97494 60 80 139 255 
-17.3188 5.58545 1.80028 59 82 139 255 
-17.3426 5.60634 1.62986 60 80 139 255 
-17.3275 5.62178 1.45928 61 78 138 255 
-17.3308 5.5757 1.31458 60 80 139 255 
-17.3254 5.59094 1.14218 61 78 138 255 
-14.1029 4.56718 0.789864 57 85 140 255 
-17.2693 5.60957 0.795951 66 64 134 255 
-17.2714 5.56324 0.652672 67 62 133 255 
-17.2772 5.58205 0.48179 66 63 133 255 
-17.255 5.59134 0.310273 71 46 124 255 
-17.2463 5.60874 0.142438 72 33 115 255 
-11.2834 3.63665 -0.00206909 70 52 128 255 
-15.7421 5.09214 -0.158828 71 42 122 255 
-14.1979 4.60616 -0.281388 71 44 122 255 
-12.6633 4.12317 -0.376649 72 35 116 255 
-9.1372 2.95019 -0.348721 68 58 131 255 
-8.49722 2.75189 -0.407149 66 64 134 255 
-8.46945 2.74935 -0.490046 67 61 132 255 
-8.47505 2.7611 -0.574847 68 58 131 255 
-8.54455 2.76048 -0.651528 66 65 134 255 
-8.52887 2.76543 -0.733989 66 63 133 255 
-8.15681 2.65258 -0.783612 64 69 136 255 
-7.24834 2.36145 -0.768971 61 77 138 255 
-6.97063 2.25602 -0.798513 56 89 140 255 
-6.94454 2.25306 -0.865409 55 90 140 255 
-6.95057 2.26165 -0.936339 56 88 140 255 
-6.96474 2.27174 -1.00873 55 91 141 255 
-6.97288 2.26078 -1.07067 51 99 141 255 
-6.9563 2.25956 -1.13751 51 99 141 255 
-6.94068 2.25978 -1.20446 52 97 141 255 
-6.9319 2.26103 -1.27516 57 85 140 255 
-6.77331 2.20129 -1.30714 61 77 138 255 
-6.42948 2.09216 -1.30447 58 83 139 255 
-6.09357 1.98397 -1.30031 58 83 139 255 
-5.81732 1.89636 -1.3039 68 59 132 255 
-5.56236 1.81096 -1.29793 65 68 135 255 
-5.3086 1.72947 -1.29309 67 61 132 255 
-5.10035 1.66256 -1.29681 67 61 132 255 
-4.87356 1.58683 -1.29312 70 52 128 255 
-4.69782 1.53401 -1.29188 66 65 134 255 
-4.50458 1.47101 -1.28569 69 53 129 255 
-4.34562 1.41738 -1.28827 65 68 135 255 
-4.17519 1.35783 -1.28635 71 45 123 255 
-17.3968 5.72169 5.5013 60 80 139 255 
-17.4053 5.70795 5.29743 56 88 140 255 
-17.4008 5.69957 5.10204 57 86 140 255 
-17.3915 5.69689 4.91395 56 89 140 255 
-17.3618 5.70011 4.74287 62 73 137 255 
-17.3891 5.706 4.55626 62 74 137 255 
-17.3938 5.71073 4.37155 61 78 138 255 
-17.3545 5.70151 4.18371 64 69 136 255 
-17.3777 5.70199 4.03455 59 82 139 255 
-17.3823 5.70712 3.84541 57 86 140 255 
-17.3385 5.70263 3.65709 56 88 140 255 
-17.3314 5.70734 3.4808 59 82 139 255 
-17.3495 5.69273 3.3315 56 89 140 255 
-17.3508 5.70013 3.15131 54 92 141 255 
-17.3485 5.71264 2.97135 53 95 141 255 
-17.3205 5.72047 2.79773 57 85 140 255 
-17.3401 5.69298 2.64948 51 98 141 255 
-17.3293 5.69643 2.4696 53 95 141 255 
-17.308 5.70934 2.2927 56 88 140 255 
-17.3145 5.72518 2.12616 62 76 138 255 
-17.3205 5.68656 1.9772 58 84 140 255 
-17.3125 5.70095 1.80324 57 85 140 255 
-17.3211 5.71701 1.6311 62 76 138 255 
-17.3021 5.73113 1.46008 60 79 138 255 
-17.3095 5.68629 1.31558 58 84 140 255 
-17.305 5.70183 1.14312 61 78 138 255 
-14.0926 4.65959 0.790875 53 95 141 255 
-17.2573 5.72297 0.797002 66 64 134 255 
-17.2996 5.68972 0.655045 64 69 136 255 
-17.2683 5.69641 0.482506 71 46 124 255 
-8.12751 2.68886 0.146439 56 88 140 255 
-8.10281 2.69023 0.0670566 55 91 141 255 
-16.6857 5.49104 -0.00306585 72 41 121 255 
-15.2548 5.03812 -0.15422 72 31 112 255 
-13.7365 4.54984 -0.272793 72 40 120 255 
-12.3077 4.09107 -0.366811 71 45 123 255 
-8.99554 2.96552 -0.344003 68 59 132 255 
-8.26867 2.73404 -0.396995 64 69 136 255 
-8.17283 2.7086 -0.473835 68 57 131 255 
-8.1644 2.71542 -0.554896 68 59 132 255 
-8.31244 2.74193 -0.6351 68 59 132 255 
-8.25817 2.73377 -0.712123 69 53 129 255 
-8.14605 2.70446 -0.784158 64 70 136 255 
-7.21389 2.39929 -0.766864 65 66 135 255 
-6.94816 2.29594 -0.797538 54 92 141 255 
-6.93059 2.29563 -0.865409 55 91 141 255 
-6.93468 2.30363 -0.936085 58 84 140 255 
-6.93752 2.31005 -1.00682 57 86 140 255 
-6.95418 2.30196 -1.06995 51 99 141 255 
-6.95356 2.30593 -1.13935 53 95 141 255 
-6.91358 2.29796 -1.20218 50 100 142 255 
-6.91042 2.30103 -1.27379 56 88 140 255 
-6.72514 2.23135 -1.30046 61 78 138 255 
-6.42025 2.13281 -1.30523 59 82 139 255 
-6.08686 2.02318 -1.3015 57 85 140 255 
-5.79629 1.92893 -1.30182 68 57 131 255 
-5.55115 1.84505 -1.29793 63 72 137 255 
-5.29141 1.75986 -1.29151 64 70 136 255 
-5.07714 1.68953 -1.29352 67 62 133 255 
-4.85453 1.61364 -1.29067 70 52 128 255 
-4.65711 1.55241 -1.28328 67 61 132 255 
-4.48814 1.49618 -1.2836 68 58 131 255 
-4.31492 1.43672 -1.28176 67 61 132 255 
-4.15767 1.3804 -1.28354 72 38 119 255 
-17.3832 5.83564 5.50821 58 84 140 255 
-17.4009 5.825 5.30687 59 81 139 255 
-17.3774 5.81021 5.10553 58 84 140 255 
-17.3617 5.80534 4.9155 57 85 140 255 
-17.3512 5.81483 4.74966 62 76 138 255 
-17.375 5.81968 4.56182 62 76 138 255 
-17.3907 5.82817 4.37967 61 77 138 255 
-17.3903 5.83176 4.2009 62 73 137 255 
-17.3591 5.8141 4.03842 61 77 138 255 
-17.3794 5.82455 3.85261 57 86 140 255 
-17.3311 5.81827 3.66299 56 89 140 255 
-17.3259 5.82359 3.48679 59 81 139 255 
-17.3245 5.80251 3.33347 54 92 141 255 
-17.3295 5.81118 3.15386 53 95 141 255 
-17.3375 5.82715 2.97553 56 89 140 255 
-17.316 5.83705 2.80274 56 89 140 255 
-17.3179 5.80368 2.65149 50 100 142 255 
-17.311 5.80833 2.47202 52 96 141 255 
-17.3112 5.82841 2.29782 53 94 141 255 
-17.3073 5.84084 2.12964 61 78 138 255 
-17.3032 5.79873 1.97925 57 86 140 255 
-17.3008 5.81499 1.8057 57 86 140 255 
-17.2989 5.82764 1.63235 58 84 140 255 
-17.2921 5.8458 1.46223 59 81 139 255 
-17.2998 5.80096 1.31753 60 80 139 255 
-17.2744 5.80949 1.14344 62 73 137 255 
-17.2684 5.82742 0.971088 66 65 134 255 
-17.2134 5.82587 0.796608 72 35 116 255 
-17.2947 5.80594 0.656195 65 68 135 255 
-8.04713 2.70942 0.225311 68 59 132 255 
-8.06728 2.72397 0.145652 53 95 141 255 
-8.03217 2.72161 0.0666089 44 113 142 255 
-8.141 2.73457 -0.00149889 49 104 142 255 
-8.15856 2.75011 -0.0826488 50 101 142 255 
-8.16837 2.76128 -0.162549 61 77 138 255 
-11.9416 4.05091 -0.356633 71 45 123 255 
-8.83984 2.97445 -0.33874 65 66 135 255 
-7.98672 2.69529 -0.384244 65 66 135 255 
-7.99148 2.70303 -0.464274 65 68 135 255 
-7.98694 2.71094 -0.543955 67 62 133 255 
-8.06954 2.71683 -0.617804 67 62 133 255 
-8.04106 2.71675 -0.694826 68 58 131 255 
-7.95387 2.69495 -0.767236 66 63 133 255 
-7.19432 2.44191 -0.766362 66 63 133 255 
-6.93017 2.33726 -0.797104 50 102 142 255 
-6.90791 2.33525 -0.86435 48 106 142 255 
-6.92886 2.349 -0.937229 50 100 142 255 
-6.91102 2.34843 -1.00505 55 91 141 255 
-6.93711 2.34364 -1.06951 52 97 141 255 
-6.93085 2.3457 -1.13797 47 107 142 255 
-6.87599 2.33242 -1.19811 54 93 141 255 
-6.87193 2.33515 -1.26931 59 81 139 255 
-6.72157 2.27604 -1.30245 61 77 138 255 
-6.40053 2.16995 -1.3039 60 80 139 255 
-6.07433 2.06049 -1.3015 60 80 139 255 
-5.77324 1.96068 -1.29931 67 61 132 255 
-5.5314 1.87626 -1.29598 63 72 137 255 
-5.27959 1.79198 -1.29129 66 65 134 255 
-5.06852 1.72127 -1.29399 68 58 131 255 
-4.86015 1.6487 -1.29483 67 62 133 255 
-4.65941 1.585 -1.28657 68 59 132 255 
-4.45055 1.51405 -1.27548 70 52 128 255 
-4.29235 1.45852 -1.27769 68 58 131 255 
-4.15094 1.4065 -1.2841 70 48 126 255 
-17.3896 5.95678 5.52173 60 80 139 255 
-17.3931 5.94129 5.31549 59 82 139 255 
-17.3815 5.93041 5.11734 59 82 139 255 
-17.3641 5.92485 4.92639 57 85 140 255 
-17.3619 5.93716 4.76247 59 82 139 255 
-17.3536 5.9312 4.56568 62 74 137 255 
-17.373 5.94106 4.38432 60 79 138 255 
-17.3699 5.94372 4.20469 63 71 136 255 
-17.3499 5.92966 4.04467 61 78 138 255 
-17.3554 5.9352 3.85528 59 81 139 255 
-17.3284 5.93594 3.67006 53 95 141 255 
-17.3177 5.93935 3.49241 58 84 140 255 
-17.3156 5.91793 3.33868 54 92 141 255 
-17.3038 5.92091 3.15573 53 94 141 255 
-17.3042 5.93439 2.97601 54 93 141 255 
-17.3032 5.95123 2.80653 56 88 140 255 
-17.3045 5.91751 2.65494 55 91 141 255 
-17.3125 5.92728 2.47738 50 101 142 255 
-17.2958 5.94161 2.30057 55 91 141 255 
-17.2899 5.95339 2.13195 59 81 139 255 
-17.2908 5.91283 1.98195 58 84 140 255 
-17.2846 5.92782 1.80776 55 90 140 255 
-17.2798 5.9395 1.63396 58 84 140 255 
-17.271 5.957 1.46351 60 79 138 255 
-17.2894 5.91571 1.31947 59 82 139 255 
-14.0487 4.8208 0.931856 47 107 142 255 
-17.2597 5.94269 0.972631 66 64 134 255 
-11.5416 3.98534 0.535247 61 77 138 255 
-11.5616 3.9604 0.439584 68 59 132 255 
-8.00483 2.74998 0.224595 59 82 139 255 
-8.01733 2.76202 0.145054 51 99 141 255 
-8.00681 2.7679 0.0665383 43 117 142 255 
-8.07771 2.76858 -0.00149034 44 113 142 255 
-8.08669 2.78126 -0.082092 41 121 142 255 
-8.08039 2.78689 -0.161135 47 107 142 255 
-8.10586 2.8053 -0.24259 59 81 139 255 
-8.68343 2.98126 -0.333441 65 66 135 255 
-7.79907 2.68538 -0.376002 60 79 138 255 
-7.76803 2.68068 -0.45224 60 79 138 255 
-7.77967 2.69393 -0.530955 61 78 138 255 
-7.81596 2.68496 -0.59964 66 63 133 255 
-7.80093 2.68906 -0.675489 63 71 136 255 
-7.79789 2.69555 -0.753771 62 73 137 255 
-7.1557 2.47787 -0.763853 66 64 134 255 
-6.911 2.37812 -0.796563 52 97 141 255 
-6.90471 2.38148 -0.865762 49 103 142 255 
-6.91151 2.3905 -0.936847 51 98 141 255 
-6.87963 2.38495 -1.00259 54 93 141 255 
-6.91699 2.38423 -1.06865 49 103 142 255 
-6.92567 2.39141 -1.13951 45 112 142 255 
-6.89045 2.38457 -1.20316 47 108 142 255 
-6.87236 2.38243 -1.27206 54 92 141 255 
-6.70283 2.31564 -1.30154 65 66 135 255 
-6.36761 2.20245 -1.29992 57 85 140 255 
-6.05694 2.09612 -1.30051 60 80 139 255 
-5.73707 1.98774 -1.2939 69 56 130 255 
-5.5041 1.90473 -1.2923 59 81 139 255 
-5.26666 1.8237 -1.29084 64 69 136 255 
-5.05327 1.75075 -1.29282 68 58 131 255 
-4.86277 1.68292 -1.29825 69 55 129 255 
-4.64137 1.61071 -1.2843 65 68 135 255 
-4.4193 1.53374 -1.2692 70 48 126 255 
-4.27514 1.482 -1.27525 69 56 130 255 
-4.14224 1.43194 -1.2841 67 62 133 255 
-17.3636 6.06716 5.52518 58 83 139 255 
-17.369 6.05233 5.31938 59 82 139 255 
-17.3594 6.04201 5.12164 60 79 138 255 
-17.3694 6.04589 4.93832 58 83 139 255 
-17.3599 6.0557 4.77201 60 80 139 255 
-17.3563 6.0513 4.57607 58 83 139 255 
-17.3445 6.05043 4.38641 62 74 137 255 
-17.3101 6.04215 4.19911 66 65 134 255 
-17.3132 6.036 4.04467 59 81 139 255 
-17.327 6.04448 3.85713 59 82 139 255 
-17.3195 6.05186 3.67596 53 95 141 255 
-17.305 6.05393 3.49728 59 82 139 255 
-17.3161 6.03702 3.34586 57 86 140 255 
-17.2894 6.03477 3.15981 55 90 140 255 
-17.3094 6.05512 2.98324 56 89 140 255 
-17.2897 6.06547 2.81032 54 92 141 255 
-17.2987 6.03434 2.65968 49 103 142 255 
-17.2936 6.0396 2.47993 50 102 142 255 
-17.2852 6.05681 2.30406 55 91 141 255 
-17.2736 6.06661 2.1345 61 78 138 255 
-17.2974 6.03388 1.98691 57 85 140 255 
-17.2648 6.03968 1.80954 60 79 138 255 
-17.2844 6.05991 1.63787 58 84 140 255 
-17.2285 6.06087 1.46303 70 48 126 255 
-11.5461 4.02991 0.883033 67 61 132 255 
-14.0075 4.90295 0.931105 62 74 137 255 
-8.20537 2.88163 0.463383 48 105 142 255 
-8.16134 2.8743 0.379298 67 62 133 255 
-11.4663 4.00655 0.436888 55 90 140 255 
-7.96422 2.79078 0.223932 55 91 141 255 
-7.97476 2.80221 0.144592 48 105 142 255 
-7.96327 2.80767 0.0663183 42 119 142 255 
-8.02187 2.80456 -0.00148318 40 124 142 255 
-8.0289 2.81659 -0.0816793 41 121 142 255 
-8.03201 2.82547 -0.160513 42 118 142 255 
-8.04514 2.83968 -0.241289 57 86 140 255 
-8.08963 2.833 -0.311301 50 100 142 255 
-7.75888 2.7249 -0.374863 56 89 140 255 
-7.73072 2.721 -0.451031 55 91 141 255 
-7.73006 2.72999 -0.528702 49 104 142 255 
-7.74569 2.71406 -0.595515 52 96 141 255 
-7.73163 2.71837 -0.67092 65 68 135 255 
-7.72579 2.72381 -0.748403 62 74 137 255 
-7.12347 2.51576 -0.762047 66 63 133 255 
-6.87377 2.41258 -0.793962 54 93 141 255 
-6.88716 2.42281 -0.865409 53 95 141 255 
-6.86958 2.4233 -0.933163 53 94 141 255 
-6.85646 2.42415 -1.00137 54 93 141 255 
-6.87795 2.41809 -1.06489 50 102 142 255 
-6.89223 2.4273 -1.13643 53 95 141 255 
-6.86267 2.4222 -1.20088 54 93 141 255 
-6.8604 2.42554 -1.27258 61 78 138 255 
-6.68478 2.35541 -1.30082 60 80 139 255 
-6.33824 2.23592 -1.2967 59 82 139 255 
-6.0412 2.13226 -1.29991 58 83 139 255 
-5.73399 2.02617 -1.29598 66 64 134 255 
-5.48863 1.93717 -1.29143 60 80 139 255 
-5.24894 1.85371 -1.28926 63 72 137 255 
-5.01493 1.77201 -1.28577 68 57 131 255 
-4.84047 1.70854 -1.29507 70 52 128 255 
-4.60586 1.63012 -1.27721 70 51 127 255 
-4.42345 1.56566 -1.27313 69 55 129 255 
-4.26778 1.50884 -1.27579 66 63 133 255 
-4.12342 1.45382 -1.28101 68 57 131 255 
-17.3269 6.17391 5.52547 60 79 138 255 
-17.3605 6.16908 5.32827 58 83 139 255 
-17.351 6.15873 5.13022 58 83 139 255 
-17.3374 6.15429 4.93988 59 82 139 255 
-17.3252 6.16307 4.77277 57 85 140 255 
-17.3389 6.16484 4.58138 62 76 138 255 
-17.3181 6.16065 4.3892 61 77 138 255 
-17.3186 6.16459 4.21027 64 70 136 255 
-17.2997 6.15063 4.05027 60 79 138 255 
-17.2859 6.14937 3.85631 58 84 140 255 
-17.2959 6.16295 3.6789 55 90 140 255 
-17.2759 6.16297 3.49897 60 80 139 255 
-17.2963 6.14942 3.34927 55 91 141 255 
-17.2818 6.15132 3.16525 53 94 141 255 
-17.284 6.16552 2.98532 54 92 141 255 
-17.2726 6.17877 2.81365 54 92 141 255 
-17.2725 6.14434 2.6614 52 96 141 255 
-17.2973 6.16023 2.48583 51 99 141 255 
-17.2683 6.1701 2.30681 53 94 141 255 
-17.2557 6.17952 2.13693 60 79 138 255 
-17.2881 6.1499 1.99014 58 83 139 255 
-17.2714 6.16121 1.81416 57 86 140 255 
-17.2703 6.17424 1.6401 59 81 139 255 
-11.4863 4.12018 0.977536 58 83 139 255 
-11.493 4.09064 0.880873 59 82 139 255 
-8.14662 2.90773 0.542696 42 118 142 255 
-8.10951 2.90398 0.458967 52 96 141 255 
-8.11534 2.9142 0.377984 53 95 141 255 
-11.4123 4.06643 0.435774 54 92 141 255 
-7.92529 2.83186 0.223321 50 101 142 255 
-7.92918 2.84097 0.144079 49 104 142 255 
-7.91484 2.84531 0.0660592 44 114 142 255 
-7.99133 2.84903 -0.00148074 40 125 142 255 
-7.99358 2.8594 -0.0814969 39 126 142 255 
-8.00323 2.87065 -0.160287 42 118 142 255 
-8.01251 2.88358 -0.240837 57 86 140 255 
-8.05045 2.87485 -0.310466 50 102 142 255 
-7.73919 2.77145 -0.374727 56 89 140 255 
-7.71106 2.76737 -0.450866 55 91 141 255 
-7.70565 2.77466 -0.528187 59 82 139 255 
-7.72419 2.75986 -0.595153 59 82 139 255 
-7.69416 2.75836 -0.669125 59 81 139 255 
-7.69206 2.7651 -0.746765 64 70 136 255 
-7.10135 2.55706 -0.761344 66 63 133 255 
-6.84479 2.44969 -0.792337 55 91 141 255 
-6.85908 2.46033 -0.863761 52 96 141 255 
-6.84525 2.46204 -0.931892 53 94 141 255 
-6.84984 2.4692 -1.00259 53 95 141 255 
-6.87044 2.46292 -1.06605 47 108 142 255 
-6.86418 2.46486 -1.13428 48 105 142 255 
-6.85417 2.4666 -1.20202 49 103 142 255 
-6.84168 2.46626 -1.27189 55 91 141 255 
-6.67946 2.39971 -1.30263 61 78 138 255 
-6.3207 2.27344 -1.29595 56 89 140 255 
-6.00126 2.15967 -1.29415 58 83 139 255 
-5.71409 2.05866 -1.29431 64 69 136 255 
-5.47848 1.97147 -1.29186 60 80 139 255 
-5.23563 1.88523 -1.28881 66 64 134 255 
-4.97928 1.79385 -1.27943 70 52 128 255 
-4.83172 1.73886 -1.29556 68 57 131 255 
-4.58849 1.65572 -1.27519 69 53 129 255 
-4.41104 1.59179 -1.27234 70 50 126 255 
-4.27021 1.53924 -1.27932 67 61 132 255 
-4.09997 1.4739 -1.27651 68 59 132 255 
-17.3265 6.29384 5.53755 60 80 139 255 
-17.3395 6.2817 5.33354 60 79 138 255 
-17.3274 6.27032 5.13452 61 77 138 255 
-17.3193 6.26779 4.94558 60 80 139 255 
-17.307 6.27652 4.7783 59 81 139 255 
-17.34 6.28533 4.59177 60 79 138 255 
-17.2964 6.27277 4.39338 63 71 136 255 
-17.3207 6.28537 4.2201 66 65 134 255 
-17.3204 6.27796 4.06406 59 82 139 255 
-17.2874 6.26966 3.86515 59 81 139 255 
-17.2752 6.27532 3.68263 55 91 141 255 
-17.271 6.28094 3.50572 59 81 139 255 
-17.2777 6.26247 3.35303 54 93 141 255 
-17.2734 6.268 3.17069 52 97 141 255 
-17.2625 6.27753 2.98821 53 94 141 255 
-17.252 6.29107 2.81653 55 91 141 255 
-17.2652 6.26134 2.66614 53 94 141 255 
-17.2657 6.26861 2.48677 53 94 141 255 
-17.2636 6.28816 2.3113 57 86 140 255 
-17.2473 6.29618 2.14064 60 79 138 255 
-17.2734 6.26433 1.99284 61 78 138 255 
-17.2455 6.27149 1.81544 57 85 140 255 
-17.2536 6.28793 1.64215 58 83 139 255 
-11.4337 4.18065 0.97522 58 84 140 255 
-11.4517 4.1553 0.879649 59 82 139 255 
-8.08548 2.94197 0.539815 44 114 142 255 
-8.07184 2.9465 0.45785 49 104 142 255 
-8.13108 2.9763 0.37956 51 98 141 255 
-8.15221 2.96128 0.311976 62 76 138 255 
-7.89368 2.8753 0.222924 50 100 142 255 
-7.89751 2.88442 0.143822 46 110 142 255 
-7.90099 2.8952 0.0660906 41 123 142 255 
-7.97369 2.89801 -0.00148074 40 124 142 255 
-7.95991 2.90257 -0.0813337 40 125 142 255 
-7.97514 2.91593 -0.16008 40 125 142 255 
-7.96839 2.92305 -0.240045 60 79 138 255 
-7.98571 2.9071 -0.308652 49 103 142 255 
-7.70796 2.81375 -0.374044 58 83 139 255 
-7.69393 2.81464 -0.450866 57 85 140 255 
-7.69973 2.82602 -0.52896 61 78 138 255 
-7.68931 2.80072 -0.593778 63 71 136 255 
-7.67335 2.80415 -0.668798 60 80 139 255 
-7.65157 2.80368 -0.744491 67 62 133 255 
-7.05564 2.58962 -0.758132 67 61 132 255 
-6.84364 2.49675 -0.793962 54 92 141 255 
-6.84292 2.50203 -0.863644 55 90 140 255 
-6.83002 2.504 -0.931892 56 89 140 255 
-6.83363 2.51084 -1.00246 53 94 141 255 
-6.84312 2.50061 -1.06417 53 94 141 255 
-6.84986 2.50728 -1.13443 45 113 142 255 
-6.83243 2.50624 -1.20088 48 105 142 255 
-6.82457 2.50751 -1.27155 55 91 141 255 
-6.65907 2.43862 -1.30154 60 80 139 255 
-6.29004 2.3061 -1.29254 54 92 141 255 
-5.98513 2.19544 -1.29355 59 82 139 255 
-5.69492 2.09132 -1.29285 66 64 134 255 
-5.47086 2.00673 -1.29295 60 79 138 255 
-5.22122 1.91631 -1.28813 66 63 133 255 
-4.97548 1.82705 -1.2813 66 64 134 255 
-4.79638 1.75946 -1.28896 68 59 132 255 
-4.5955 1.69019 -1.28 69 56 130 255 
-4.42293 1.62682 -1.27862 70 50 126 255 
-4.25798 1.56442 -1.27851 67 62 133 255 
-4.08724 1.49771 -1.27538 69 56 130 255 
-17.3262 6.41434 5.54992 59 82 139 255 
-17.3186 6.39463 5.3391 59 81 139 255 
-17.3256 6.39019 5.14552 59 81 139 255 
-17.3222 6.38931 4.95751 57 85 140 255 
-17.2882 6.38998 4.78382 59 82 139 255 
-17.3139 6.39632 4.59515 61 77 138 255 
-17.295 6.3926 4.4029 62 76 138 255 
-17.3029 6.39931 4.22523 64 69 136 255 
-17.3045 6.39258 4.06944 59 81 139 255 
-17.3009 6.39496 3.87688 60 80 139 255 
-17.2713 6.39414 3.6901 54 92 141 255 
-17.2818 6.40523 3.51584 60 79 138 255 
-17.2592 6.37587 3.35698 55 90 140 255 
-17.2595 6.38309 3.17528 55 91 141 255 
-17.2644 6.39843 2.99528 52 97 141 255 
-17.2455 6.40885 2.82184 58 84 140 255 
-17.2626 6.38055 2.67174 51 98 141 255 
-17.2492 6.38269 2.48999 53 94 141 255 
-17.2396 6.3995 2.3133 54 93 141 255 
-17.2177 6.40535 2.14179 59 81 139 255 
-17.244 6.37365 1.99392 60 80 139 255 
-17.2365 6.38826 1.81859 59 82 139 255 
-17.2399 6.40305 1.64455 60 80 139 255 
-11.3714 4.23716 0.972106 57 86 140 255 
-11.3942 4.21373 0.8772 62 74 137 255 
-8.06073 2.9891 0.539377 44 114 142 255 
-8.06203 2.9991 0.458329 47 107 142 255 
-8.07148 3.01077 0.377634 50 102 142 255 
-8.08703 2.9939 0.310178 49 103 142 255 
-7.86745 2.92055 0.222685 50 100 142 255 
-7.8881 2.93597 0.143976 47 107 142 255 
-7.88776 2.94537 0.0661298 41 121 142 255 
-7.95295 2.94584 -0.00148021 37 131 142 255 
-7.94664 2.9531 -0.0813817 37 132 142 255 
-7.95147 2.96271 -0.159967 43 117 142 255 
-7.94656 2.97049 -0.239932 60 80 139 255 
-7.96584 2.95535 -0.308579 50 101 142 255 
-7.67651 2.85576 -0.373361 59 81 139 255 
-7.67932 2.86284 -0.451031 54 93 141 255 
-7.6757 2.87076 -0.528509 56 89 140 255 
-7.64673 2.83848 -0.591824 65 66 135 255 
-7.66534 2.85465 -0.669614 59 82 139 255 
-7.63982 2.85267 -0.745037 68 58 131 255 
-7.04707 2.63565 -0.758935 66 65 134 255 
-6.82819 2.5387 -0.793962 54 92 141 255 
-6.83023 2.54501 -0.863997 51 98 141 255 
-6.80802 2.54343 -0.931002 55 91 141 255 
-6.80882 2.54925 -1.00109 49 103 142 255 
-6.82208 2.54048 -1.0633 46 110 142 255 
-6.8362 2.54995 -1.13474 46 111 142 255 
-6.8123 2.54638 -1.20007 47 108 142 255 
-6.79153 2.54277 -1.26827 55 91 141 255 
-6.63016 2.47428 -1.29884 56 89 140 255 
-6.27025 2.34259 -1.2914 58 83 139 255 
-5.9844 2.23692 -1.29633 58 84 140 255 
-5.67007 2.12177 -1.29014 66 64 134 255 
-5.45661 2.03958 -1.29251 62 74 137 255 
-5.19659 1.94353 -1.28497 66 64 134 255 
-4.96326 1.8572 -1.28107 66 63 133 255 
-4.7864 1.78919 -1.2892 69 55 129 255 
-4.58413 1.71802 -1.27974 68 59 132 255 
-4.40382 1.65054 -1.27601 70 50 126 255 
-4.2465 1.58984 -1.27796 68 57 131 255 
-4.06179 1.51672 -1.27032 69 55 129 255 
-17.3053 6.52763 5.55596 60 80 139 255 
-17.3159 6.51465 5.35049 59 82 139 255 
-17.3321 6.51366 5.15921 59 82 139 255 
-17.2963 6.50058 4.9614 60 79 138 255 
-17.2912 6.51197 4.79563 61 77 138 255 
-17.2961 6.51064 4.60095 60 80 139 255 
-17.2928 6.51266 4.41242 61 78 138 255 
-17.2742 6.50948 4.22791 64 69 136 255 
-17.2722 6.50139 4.07117 59 81 139 255 
-17.2696 6.5041 3.87873 60 80 139 255 
-17.2465 6.50553 3.69324 58 84 140 255 
-17.2725 6.5226 3.52202 59 82 139 255 
-17.2566 6.49551 3.36416 57 86 140 255 
-17.2505 6.50034 3.18089 54 92 141 255 
-17.2433 6.51121 2.99849 55 90 140 255 
-17.2502 6.53135 2.82912 56 89 140 255 
-17.2371 6.49158 2.6739 51 98 141 255 
-17.2292 6.49575 2.49281 53 95 141 255 
-17.2112 6.50937 2.3148 56 89 140 255 
-17.2115 6.52355 2.14596 61 78 138 255 
-17.2362 6.49125 1.99758 58 83 139 255 
-17.2259 6.5048 1.82165 59 82 139 255 
-17.2385 6.52316 1.64821 59 81 139 255 
-11.3619 4.31322 0.973543 56 89 140 255 
-11.3821 4.28884 0.87828 60 79 138 255 
-8.0273 3.03286 0.538375 46 111 142 255 
-8.01546 3.0379 0.456732 45 113 142 255 
-8.05285 3.06024 0.377634 47 107 142 255 
-8.14424 3.07203 0.31309 42 119 142 255 
-7.86061 2.97301 0.223003 49 103 142 255 
-7.86807 2.9836 0.143942 48 105 142 255 
-7.89945 3.0051 0.0663812 40 125 142 255 
-7.93659 2.99529 -0.00148056 38 130 142 255 
-7.93211 3.00322 -0.0814201 39 128 142 255 
-7.94343 3.01535 -0.160174 43 117 142 255 
-7.92351 3.01741 -0.239791 60 79 138 255 
-7.93354 2.99887 -0.308035 53 94 141 255 
-7.65791 2.90246 -0.373315 52 97 141 255 
-7.64854 2.90494 -0.450262 53 94 141 255 
-7.63369 2.90857 -0.526836 59 82 139 255 
-7.63477 2.88746 -0.592258 64 69 136 255 
-7.62718 2.89386 -0.667819 60 79 138 255 
-7.64452 2.90799 -0.74722 60 79 138 255 
-7.01775 2.67388 -0.75753 65 66 135 255 
-6.81342 2.5809 -0.794071 52 97 141 255 
-6.80892 2.58476 -0.86329 46 110 142 255 
-6.79321 2.58551 -0.931129 50 101 142 255 
-6.79213 2.59063 -1.00096 50 102 142 255 
-6.78694 2.57492 -1.06026 55 91 141 255 
-6.8001 2.58412 -1.13136 46 109 142 255 
-6.79009 2.58568 -1.19893 50 102 142 255 
-6.77027 2.58229 -1.26724 57 86 140 255 
-6.59095 2.50583 -1.29414 59 82 139 255 
-6.24199 2.37578 -1.28856 60 80 139 255 
-5.97239 2.2743 -1.29673 56 89 140 255 
-5.6405 2.15025 -1.28639 65 66 135 255 
-5.44308 2.07267 -1.2923 63 72 137 255 
-5.15999 1.96602 -1.27888 62 73 137 255 
-4.94996 1.88693 -1.2806 67 61 132 255 
-4.78258 1.82129 -1.29116 68 59 132 255 
-4.57079 1.74508 -1.27898 69 56 130 255 
-4.41255 1.68476 -1.28151 69 53 129 255 
-4.23037 1.61347 -1.27607 68 57 131 255 
-4.05062 1.54093 -1.26976 68 58 131 255 
-17.2918 6.64399 5.56459 62 73 137 255 
