ply
format ascii 1.0
comment VTK generated PLY File
obj_info vtkPolyData points and polygons: vtk4.0
element vertex 1170
property float x
property float y
property float z
property uchar red
property uchar green
property uchar blue
property uchar alpha
element face 0
property list uchar int vertex_indices
end_header
-7.92215 3.12874 -0.240893 58 84 140 255 
-7.90079 3.09783 -0.308216 59 82 139 255 
-7.59754 2.98671 -0.372131 58 84 140 255 
-7.59746 2.99273 -0.449383 58 83 139 255 
-7.56958 2.99102 -0.524905 62 73 137 255 
-7.57369 2.9711 -0.590305 62 74 137 255 
-7.57254 2.97994 -0.666187 56 89 140 255 
-7.57583 2.98879 -0.744036 65 66 135 255 
-6.96498 2.75212 -0.755423 65 68 135 255 
-6.7581 2.65523 -0.791362 47 108 142 255 
-6.7656 2.66375 -0.861878 47 107 142 255 
-6.7416 2.66103 -0.928461 54 93 141 255 
-6.72942 2.66176 -0.996455 54 92 141 255 
-6.75667 2.65874 -1.06055 48 106 142 255 
-6.7596 2.66412 -1.12998 44 114 142 255 
-6.74317 2.66301 -1.19632 48 105 142 255 
-6.71426 2.65576 -1.26276 60 79 138 255 
-6.53866 2.57822 -1.28999 60 80 139 255 
-6.20963 2.45112 -1.28799 58 84 140 255 
-5.89846 2.32942 -1.28679 59 81 139 255 
-5.62187 2.22254 -1.28827 65 68 135 255 
-5.3791 2.12425 -1.2832 63 72 137 255 
-5.14363 2.03241 -1.28091 59 81 139 255 
-4.92733 1.94789 -1.28083 65 68 135 255 
-4.7256 1.86631 -1.28186 68 57 131 255 
-4.50586 1.78394 -1.26684 69 55 129 255 
-4.38616 1.73665 -1.27993 69 55 129 255 
-4.22546 1.67128 -1.28068 66 64 134 255 
-4.0439 1.59545 -1.2737 68 57 131 255 
-17.2757 6.88227 5.58617 60 80 139 255 
-17.3011 6.8752 5.38411 58 83 139 255 
-17.2639 6.85326 5.17559 59 81 139 255 
-17.2697 6.85597 4.98915 57 85 140 255 
-17.2629 6.86671 4.82201 58 84 140 255 
-17.2608 6.86267 4.62439 62 74 137 255 
-17.2676 6.86868 4.43751 64 70 136 255 
-17.262 6.87032 4.25515 62 74 137 255 
-17.2404 6.85429 4.09271 60 80 139 255 
-17.2233 6.85126 3.89601 61 77 138 255 
-17.1976 6.85127 3.70916 56 88 140 255 
-17.2107 6.8638 3.53457 58 83 139 255 
-17.2109 6.84258 3.37924 57 86 140 255 
-17.1966 6.8441 3.19364 55 90 140 255 
-17.2159 6.86552 3.01519 54 92 141 255 
-17.1932 6.87419 2.84003 56 88 140 255 
-17.2066 6.84433 2.68827 52 97 141 255 
-17.1997 6.84881 2.50636 51 98 141 255 
-17.1677 6.85672 2.32553 56 89 140 255 
-17.1853 6.87801 2.15812 62 73 137 255 
-17.1886 6.83717 2.00632 59 81 139 255 
-17.1882 6.85468 1.8307 61 78 138 255 
-17.1831 6.86634 1.65471 60 79 138 255 
-17.1615 6.87886 1.48108 61 77 138 255 
-17.1923 6.84213 1.33611 59 82 139 255 
-8.03408 3.20562 0.542696 44 115 142 255 
-8.01381 3.20718 0.459925 45 112 142 255 
-8.02483 3.21985 0.379035 50 101 142 255 
-17.1177 6.81935 0.662773 70 48 126 255 
-7.88253 3.14834 0.225231 54 93 141 255 
-7.91392 3.16881 0.145824 52 96 141 255 
-7.90311 3.17421 0.0668917 50 101 142 255 
-7.95536 3.17086 -0.0014947 45 113 142 255 
-7.97019 3.18658 -0.0823992 47 108 142 255 
-8.99467 3.60519 -0.182679 71 45 123 255 
-7.96308 3.20153 -0.242731 61 77 138 255 
-7.86122 3.1381 -0.307418 63 72 137 255 
-7.58464 3.0355 -0.372404 50 100 142 255 
-7.57154 3.03631 -0.448943 53 94 141 255 
-7.55942 3.04076 -0.525484 62 76 138 255 
-7.56551 3.02158 -0.591101 60 79 138 255 
-7.55319 3.02597 -0.666106 57 86 140 255 
-7.55181 3.03299 -0.74349 65 66 135 255 
-6.93134 2.78812 -0.753616 67 62 133 255 
-6.74907 2.6996 -0.792229 53 94 141 255 
-6.75558 2.7078 -0.862702 49 103 142 255 
-6.72422 2.70198 -0.928334 55 91 141 255 
-6.71848 2.70522 -0.997273 55 90 140 255 
-6.72553 2.69426 -1.05824 50 100 142 255 
-6.73029 2.70039 -1.12783 50 102 142 255 
-6.72761 2.7047 -1.19649 50 100 142 255 
-6.71063 2.70206 -1.26517 59 81 139 255 
-6.5218 2.61792 -1.28981 59 81 139 255 
-6.19447 2.48917 -1.28799 58 84 140 255 
-5.8786 2.36337 -1.2856 57 85 140 255 
-5.60268 2.25481 -1.28702 62 74 137 255 
-5.36506 2.15685 -1.28298 62 73 137 255 
-5.12293 2.06066 -1.27888 61 78 138 255 
-4.9243 1.98171 -1.28318 66 63 133 255 
-4.72036 1.8978 -1.28358 66 64 134 255 
-4.49931 1.81336 -1.26811 69 56 130 255 
-4.35393 1.75487 -1.27365 69 55 129 255 
-4.18477 1.68495 -1.27145 66 64 134 255 
-4.03136 1.61916 -1.27285 69 55 129 255 
-17.2571 6.99786 5.59394 58 83 139 255 
-17.2666 6.98447 5.38661 60 79 138 255 
-17.2751 6.98072 5.19169 59 81 139 255 
-17.2614 6.97556 4.999 58 84 140 255 
-17.2356 6.97868 4.82628 58 84 140 255 
-17.2543 6.98302 4.63405 61 78 138 255 
-17.2521 6.98546 4.44447 63 72 137 255 
-17.2222 6.9772 4.25582 63 72 137 255 
-17.2387 6.97643 4.1024 61 78 138 255 
-17.2345 6.97848 3.90814 59 82 139 255 
-17.2006 6.97509 3.71898 55 90 140 255 
-17.1956 6.98036 3.5402 58 84 140 255 
-17.2033 6.96208 3.38606 57 86 140 255 
-17.2036 6.96946 3.20283 55 90 140 255 
-17.1926 6.97883 3.01856 56 88 140 255 
-17.1891 6.9952 2.8464 54 92 141 255 
-17.1854 6.95832 2.69157 53 94 141 255 
-17.1794 6.96315 2.50958 51 98 141 255 
-17.1777 6.98322 2.33264 53 95 141 255 
-17.1704 6.99456 2.1616 61 78 138 255 
-17.1906 6.96042 2.01149 57 86 140 255 
-17.1754 6.972 1.83385 58 83 139 255 
-17.1729 6.98478 1.65783 59 82 139 255 
-17.154 6.99834 1.48411 61 78 138 255 
-17.1667 6.95423 1.33741 61 78 138 255 
-7.95785 3.23195 0.538876 71 46 124 255 
-7.99213 3.25554 0.459818 48 106 142 255 
-8.004 3.26865 0.378991 67 62 133 255 
-17.1108 6.93853 0.664139 70 50 126 255 
-7.89918 3.21133 0.226266 65 68 135 255 
-7.95914 3.24372 0.147021 53 94 141 255 
-8.1982 3.3513 0.069562 70 51 127 255 
-8.84108 3.58691 -0.00166522 70 50 126 255 
-9.0823 3.69601 -0.0941294 68 59 132 255 
-9.14179 3.72943 -0.186128 70 50 126 255 
-8.98223 3.67545 -0.274479 72 37 118 255 
-7.80385 3.17085 -0.30593 63 71 136 255 
-7.55847 3.07897 -0.37204 53 95 141 255 
-7.54352 3.07894 -0.448393 57 86 140 255 
-7.54062 3.08709 -0.525484 67 61 132 255 
-7.55791 3.07245 -0.591969 57 86 140 255 
-7.54648 3.07715 -0.667166 51 98 141 255 
-7.53121 3.07852 -0.743308 58 84 140 255 
-6.88096 2.81703 -0.750003 66 65 134 255 
-6.73237 2.74096 -0.792229 50 100 142 255 
-6.71861 2.74095 -0.860112 51 98 141 255 
-6.70843 2.74356 -0.928461 54 92 141 255 
-6.70359 2.74714 -0.997546 55 91 141 255 
-6.69971 2.73174 -1.0568 47 108 142 255 
-6.72 2.74425 -1.1289 47 107 142 255 
-6.7045 2.74332 -1.19535 52 96 141 255 
-6.68754 2.74057 -1.26397 57 86 140 255 
-6.49742 2.65454 -1.28818 60 80 139 255 
-6.16636 2.52193 -1.28534 57 85 140 255 
-5.86308 2.39903 -1.2854 61 77 138 255 
-5.57698 2.28432 -1.28431 61 77 138 255 
-5.35173 2.18973 -1.28298 65 68 135 255 
-5.10838 2.09132 -1.27843 57 86 140 255 
-4.88866 2.00231 -1.27708 67 61 132 255 
-4.68709 1.91792 -1.27771 68 58 131 255 
-4.48273 1.83873 -1.26659 68 57 131 255 
-4.36094 1.78888 -1.27889 66 64 134 255 
-4.14942 1.70038 -1.26386 66 63 133 255 
-4.01425 1.64096 -1.2706 69 56 130 255 
-17.2457 7.11677 5.6043 62 74 137 255 
-17.2527 7.10235 5.39577 60 79 138 255 
-17.2489 7.09355 5.19679 61 78 138 255 
-17.2379 7.08942 5.00471 61 77 138 255 
-17.2328 7.1009 4.83758 61 77 138 255 
-17.2318 7.09725 4.63961 64 70 136 255 
-17.2404 7.10415 4.4526 62 76 138 255 
-17.1971 7.09018 4.26028 64 69 136 255 
-17.2155 7.09025 4.10714 61 77 138 255 
-17.2185 7.09528 3.91432 60 80 139 255 
-17.1929 7.09508 3.72664 58 83 139 255 
-17.1687 7.09249 3.54357 60 80 139 255 
-17.1893 7.07949 3.3918 56 88 140 255 
-17.1924 7.08804 3.20878 55 90 140 255 
-17.1805 7.097 3.02402 56 89 140 255 
-17.1815 7.11529 2.85231 54 92 141 255 
-17.2 7.08739 2.70062 50 101 142 255 
-17.162 7.07901 2.51334 54 93 141 255 
-17.1629 7.10025 2.33651 53 94 141 255 
-17.1419 7.10587 2.16345 59 81 139 255 
-17.1696 7.07486 2.01408 59 81 139 255 
-17.1507 7.08485 1.83582 57 86 140 255 
-17.1527 7.09954 1.66005 58 83 139 255 
-17.1227 7.10843 1.48515 62 73 137 255 
-17.1329 7.06324 1.33813 62 76 138 255 
-16.5445 6.83781 1.12315 66 65 134 255 
-16.1497 6.6943 0.931502 72 40 120 255 
-16.2591 6.75656 0.771821 71 44 122 255 
-16.3612 6.75176 0.63664 71 42 122 255 
-17.1405 7.09117 0.492214 68 59 132 255 
-11.8975 4.93415 0.220326 72 31 112 255 
-8.84963 3.68112 0.0752796 62 73 137 255 
-8.88638 3.66895 -0.00167796 65 68 135 255 
-8.91995 3.6939 -0.0926799 68 59 132 255 
-8.88696 3.68923 -0.181397 67 62 133 255 
-8.88199 3.69822 -0.272104 69 56 130 255 
-7.7113 3.18851 -0.303062 64 70 136 255 
-7.53297 3.12261 -0.371721 54 92 141 255 
-7.51619 3.12172 -0.447899 61 77 138 255 
-7.51969 3.13253 -0.525355 65 66 135 255 
-7.53154 3.11572 -0.59139 55 91 141 255 
-7.51733 3.1192 -0.666269 51 99 141 255 
-7.51126 3.12429 -0.743217 58 83 139 255 
-6.85803 2.8569 -0.749401 67 62 133 255 
-6.71176 2.78069 -0.791795 51 98 141 255 
-6.69616 2.77984 -0.859406 50 100 142 255 
-6.70063 2.78848 -0.929732 50 102 142 255 
-6.69118 2.79013 -0.998228 50 100 142 255 
-6.68465 2.77356 -1.05708 49 103 142 255 
-6.69482 2.78202 -1.12752 47 108 142 255 
-6.68572 2.78364 -1.19502 50 102 142 255 
-6.66697 2.78003 -1.26328 61 77 138 255 
-6.46739 2.6887 -1.28548 60 79 138 255 
-6.12811 2.55029 -1.2806 60 80 139 255 
-5.84825 2.43496 -1.2854 59 82 139 255 
-5.55654 2.31586 -1.28285 62 76 138 255 
-5.33188 2.2199 -1.28146 64 70 136 255 
-5.10445 2.12637 -1.28068 58 83 139 255 
-4.8736 2.03115 -1.27637 64 69 136 255 
-4.65375 1.93769 -1.27183 68 59 132 255 
-4.4669 1.86434 -1.26533 70 52 128 255 
-4.35612 1.81821 -1.28072 66 64 134 255 
-4.14335 1.72766 -1.26521 68 58 131 255 
-4.01119 1.66851 -1.27285 67 61 132 255 
-17.2158 7.22838 5.6089 61 77 138 255 
-17.2274 7.21587 5.40161 59 81 139 255 
-17.2219 7.20631 5.20189 59 81 139 255 
-17.2243 7.20774 5.01353 59 81 139 255 
-17.2148 7.21735 4.84487 59 82 139 255 
-17.2157 7.21448 4.64709 63 72 137 255 
-17.2297 7.22372 4.4612 61 77 138 255 
-17.2018 7.21593 4.27234 66 64 134 255 
-17.2014 7.20821 4.11425 60 79 138 255 
-17.2053 7.21366 3.92131 61 77 138 255 
-17.1816 7.21411 3.73371 56 89 140 255 
-17.1684 7.21597 3.55256 61 78 138 255 
-17.1728 7.19624 3.39719 58 83 139 255 
-17.1713 7.20293 3.21303 54 92 141 255 
-17.1694 7.21605 3.0298 57 85 140 255 
-17.1667 7.23286 2.85716 56 89 140 255 
-17.1708 7.19892 2.70292 52 96 141 255 
-17.1539 7.19913 2.51857 55 91 141 255 
-17.1327 7.2112 2.33839 56 88 140 255 
-17.2142 7.25994 2.17816 71 44 122 255 
-17.1919 7.20775 2.02184 66 63 133 255 
-17.1307 7.19998 1.83838 63 71 136 255 
-17.1336 7.21509 1.66246 64 69 136 255 
-17.0384 7.1963 1.48163 68 58 131 255 
-16.6956 7.00311 1.3073 72 41 121 255 
-9.01976 3.79282 0.613891 70 51 127 255 
-8.96094 3.77904 0.518187 71 44 122 255 
-16.221 6.85775 0.771996 72 36 117 255 
-17.1395 7.19634 0.668632 66 63 133 255 
-17.0995 7.19738 0.492294 68 59 132 255 
-11.6893 4.93204 0.217025 69 56 130 255 
-8.64453 3.65819 0.0737246 63 72 137 255 
-8.74938 3.67538 -0.00165632 61 77 138 255 
-8.70084 3.66586 -0.0906353 65 68 135 255 
-8.68824 3.66939 -0.177797 63 71 136 255 
-8.65111 3.66453 -0.265715 67 62 133 255 
-7.66487 3.22453 -0.30201 63 71 136 255 
-7.50079 3.16334 -0.371084 54 93 141 255 
-7.50885 3.17283 -0.448613 55 90 140 255 
-7.48839 3.17355 -0.524519 66 64 134 255 
-7.50401 3.15839 -0.590739 55 91 141 255 
-7.49621 3.16449 -0.666106 51 99 141 255 
-7.49195 3.17032 -0.743217 54 93 141 255 
-6.82205 2.89116 -0.747394 68 59 132 255 
-6.68816 2.81912 -0.791037 50 102 142 255 
-6.6927 2.82667 -0.861172 44 115 142 255 
-6.67883 2.82761 -0.929096 47 108 142 255 
-6.66299 2.82649 -0.996591 51 99 141 255 
-6.67844 2.81914 -1.05882 47 107 142 255 
-6.67034 2.81997 -1.12629 48 106 142 255 
-6.66215 2.82192 -1.19388 48 106 142 255 
-6.6516 2.82166 -1.26362 56 89 140 255 
-6.44714 2.7268 -1.28475 62 76 138 255 
-6.10963 2.58669 -1.28003 61 77 138 255 
-5.82869 2.46889 -1.2844 58 84 140 255 
-5.53592 2.34724 -1.28139 62 76 138 255 
-5.31007 2.24915 -1.27952 63 71 136 255 
-5.0922 2.15803 -1.28091 59 82 139 255 
-4.85478 2.05836 -1.27473 65 68 135 255 
-4.63284 1.96243 -1.26939 68 58 131 255 
-4.46428 1.89549 -1.26786 69 56 130 255 
-4.3209 1.83472 -1.27365 69 53 129 255 
-4.12558 1.75004 -1.26304 66 65 134 255 
-3.99823 1.69197 -1.27201 67 61 132 255 
-17.2046 7.34818 5.61983 60 79 138 255 
-17.2138 7.33462 5.41133 60 79 138 255 
-17.2102 7.32581 5.21182 57 86 140 255 
-17.2313 7.33523 5.02857 59 82 139 255 
-17.2013 7.33614 4.85366 59 82 139 255 
-17.1961 7.33063 4.65386 62 76 138 255 
-17.1949 7.3335 4.46375 60 79 138 255 
-17.1994 7.33932 4.28283 66 64 134 255 
-17.1855 7.32587 4.12114 62 73 137 255 
-17.1931 7.33292 3.92871 59 81 139 255 
-17.1712 7.33403 3.74118 61 78 138 255 
-17.1653 7.33894 3.56118 56 89 140 255 
-17.1708 7.3196 3.40563 57 86 140 255 
-17.1802 7.33097 3.22306 50 100 142 255 
-17.1638 7.33795 3.03671 56 89 140 255 
-17.1483 7.34935 2.86156 57 86 140 255 
-17.1472 7.31307 2.70622 52 96 141 255 
-17.1321 7.31398 2.52192 55 90 140 255 
-17.1392 7.33806 2.34538 54 93 141 255 
-17.1383 7.35211 2.17422 67 61 132 255 
-17.1665 7.3213 2.02411 69 56 130 255 
-17.1274 7.32256 1.84281 68 57 131 255 
-16.5919 7.10713 1.61409 71 46 124 255 
-16.9866 7.29756 1.481 67 61 132 255 
-8.91144 3.80245 0.699599 69 55 129 255 
-8.94401 3.82572 0.610321 47 108 142 255 
-8.95135 3.83986 0.518985 45 113 142 255 
-8.96947 3.85706 0.427996 57 86 140 255 
-16.0767 6.86645 0.628804 71 47 125 255 
-16.0708 6.88077 0.463885 72 41 121 255 
-11.3675 4.87867 0.211603 68 57 131 255 
-8.44006 3.63289 0.0721695 60 79 138 255 
-8.54735 3.65238 -0.00162228 56 89 140 255 
-8.49712 3.64158 -0.0887443 60 80 139 255 
-8.46162 3.63502 -0.173613 62 74 137 255 
-8.46414 3.64675 -0.260655 64 69 136 255 
-7.62749 3.26403 -0.30132 62 73 137 255 
-7.46838 3.20379 -0.370446 54 93 141 255 
-7.47915 3.21451 -0.448009 61 78 138 255 
-7.47427 3.22181 -0.524905 62 74 137 255 
-7.4799 3.20241 -0.590377 57 86 140 255 
-7.47574 3.21003 -0.666024 56 88 140 255 
-7.47052 3.21544 -0.743035 61 78 138 255 
-6.76946 2.918 -0.74358 65 66 135 255 
-6.67713 2.86285 -0.791795 50 101 142 255 
-6.65515 2.85906 -0.858582 49 103 142 255 
-6.6486 2.86304 -0.927318 52 97 141 255 
-6.6437 2.86654 -0.996318 52 97 141 255 
-6.66648 2.86241 -1.05969 46 111 142 255 
-6.65564 2.86202 -1.12675 46 111 142 255 
-6.63928 2.8604 -1.1929 49 103 142 255 
-6.63506 2.86281 -1.26379 54 93 141 255 
-6.41403 2.75931 -1.28151 62 73 137 255 
-6.09455 2.62452 -1.28022 61 78 138 255 
-5.80263 2.49995 -1.28202 56 89 140 255 
-5.51872 2.38 -1.28076 58 83 139 255 
-5.27555 2.2728 -1.27453 61 77 138 255 
-5.04934 2.17651 -1.27346 60 80 139 255 
-4.83581 2.08542 -1.27308 65 66 135 255 
-4.61982 1.99044 -1.26914 68 59 132 255 
-4.44635 1.92017 -1.26609 69 53 129 255 
-4.29272 1.85392 -1.26867 70 50 126 255 
-4.11742 1.77647 -1.26386 66 65 134 255 
-3.99041 1.71761 -1.27285 68 59 132 255 
-17.1873 7.46581 5.62904 62 74 137 255 
-17.2178 7.46149 5.42689 61 78 138 255 
-17.1852 7.44007 5.218 61 78 138 255 
-17.1993 7.44657 5.03246 60 80 139 255 
-17.1897 7.45618 4.86321 59 82 139 255 
-17.1908 7.45338 4.66473 63 71 136 255 
-17.1987 7.46016 4.47653 62 76 138 255 
-17.162 7.44821 4.28484 66 65 134 255 
-17.1546 7.43739 4.12459 61 78 138 255 
-17.172 7.44879 3.93427 57 85 140 255 
-17.1673 7.45723 3.75022 61 77 138 255 
-17.1461 7.45549 3.56662 59 81 139 255 
-17.1644 7.44165 3.41334 56 88 140 255 
-17.1422 7.43939 3.22442 53 94 141 255 
-17.1447 7.45454 3.04136 56 88 140 255 
-17.1391 7.47023 2.86762 57 86 140 255 
-17.1375 7.43351 2.71183 54 93 141 255 
-17.1488 7.4458 2.53105 54 93 141 255 
-17.1085 7.44942 2.34737 53 95 141 255 
-17.1147 7.46667 2.177 68 58 131 255 
-17.155 7.44113 2.0281 66 63 133 255 
-17.1177 7.44299 1.84665 63 71 136 255 
-16.8365 7.33451 1.64224 68 58 131 255 
-16.5268 7.22047 1.44474 71 42 122 255 
-8.86598 3.84753 0.697871 46 109 142 255 
-8.8737 3.86022 0.607128 46 111 142 255 
-8.88186 3.87475 0.516325 39 126 142 255 
-8.91452 3.89841 0.426507 48 106 142 255 
-8.97364 3.89796 0.351912 44 114 142 255 
-8.93432 3.89031 0.258574 72 31 112 255 
-8.37839 3.65685 0.156376 70 51 127 255 
-8.31318 3.63889 0.0712742 57 86 140 255 
-8.32668 3.61866 -0.00158458 58 84 140 255 
-8.3417 3.63572 -0.0873524 56 88 140 255 
-8.3228 3.63604 -0.171219 61 78 138 255 
-8.26765 3.6224 -0.255283 66 64 134 255 
-7.5954 3.30558 -0.300848 63 71 136 255 
-7.43943 3.24556 -0.369991 57 86 140 255 
-7.45928 3.26034 -0.448009 64 69 136 255 
-7.45619 3.26841 -0.525034 64 70 136 255 
-7.47383 3.25422 -0.591462 55 91 141 255 
-7.46321 3.25903 -0.666677 50 100 142 255 
-7.45248 3.26202 -0.743217 61 78 138 255 
-6.80155 2.98145 -0.7491 65 68 135 255 
-6.65944 2.90376 -0.791795 49 103 142 255 
-6.62566 2.89467 -0.857052 45 112 142 255 
-6.62909 2.90299 -0.927063 49 103 142 255 
-6.62145 2.90526 -0.995636 49 103 142 255 
-6.64244 2.90049 -1.05867 48 105 142 255 
-6.65334 2.90953 -1.12936 46 111 142 255 
-6.61889 2.8999 -1.19242 49 103 142 255 
-6.60925 2.89991 -1.26224 57 85 140 255 
-6.39878 2.7994 -1.28187 63 72 137 255 
-6.07023 2.65832 -1.27852 62 74 137 255 
-5.78449 2.53433 -1.28142 58 84 140 255 
-5.50043 2.41225 -1.27993 58 83 139 255 
-5.26061 2.30474 -1.27432 62 73 137 255 
-5.04124 2.2098 -1.27482 61 77 138 255 
-4.82292 2.11505 -1.27308 65 66 135 255 
-4.59331 2.01252 -1.26523 67 61 132 255 
-4.44157 1.95052 -1.26811 70 50 126 255 
-4.28568 1.88217 -1.26998 69 55 129 255 
-4.07118 1.78623 -1.25301 65 68 135 255 
-3.99035 1.74668 -1.27623 66 64 134 255 
-17.1867 7.59126 5.644 59 82 139 255 
-17.184 7.57242 5.43078 62 74 137 255 
-17.2045 7.5741 5.23786 59 82 139 255 
-17.1736 7.56092 5.03842 60 80 139 255 
-17.1755 7.57558 4.87225 57 86 140 255 
-17.1776 7.5732 4.67367 62 73 137 255 
-17.1855 7.58007 4.48512 63 72 137 255 
-17.1446 7.56596 4.29198 64 69 136 255 
-17.1605 7.56536 4.13709 60 80 139 255 
-17.1368 7.55876 3.93674 59 81 139 255 
-17.1302 7.56638 3.75218 64 69 136 255 
-17.1252 7.57167 3.57186 59 81 139 255 
-17.1517 7.56151 3.41998 56 88 140 255 
-17.1269 7.55796 3.2302 56 88 140 255 
-17.1257 7.57157 3.04618 56 88 140 255 
-17.1156 7.58526 2.87141 56 88 140 255 
-17.1314 7.55609 2.71815 53 94 141 255 
-17.1064 7.55248 2.53158 54 93 141 255 
-17.0869 7.5651 2.35074 57 86 140 255 
-17.1194 7.59409 2.18348 68 58 131 255 
-17.1272 7.55427 2.03025 68 59 132 255 
-8.94044 3.95281 0.967088 66 63 133 255 
-16.3641 7.24848 1.60047 68 57 131 255 
-16.3856 7.27884 1.43628 65 68 135 255 
-8.80662 3.88615 0.695062 46 109 142 255 
-8.82794 3.90491 0.605625 41 121 142 255 
-8.81592 3.91055 0.513877 39 127 142 255 
-8.85574 3.93761 0.424843 42 119 142 255 
-8.91116 3.93599 0.350402 42 120 142 255 
-8.91668 3.94789 0.25876 54 92 141 255 
-8.32655 3.69521 0.155829 58 83 139 255 
-8.27882 3.68455 0.0711721 54 92 141 255 
-8.28328 3.66039 -0.00158057 55 91 141 255 
-8.28083 3.66982 -0.0869492 61 77 138 255 
-8.26652 3.67202 -0.170522 63 72 137 255 
-8.22883 3.66574 -0.254774 67 62 133 255 
-7.53934 3.33635 -0.299433 63 72 137 255 
-7.4349 3.29803 -0.370765 57 85 140 255 
-7.4364 3.30483 -0.447844 61 78 138 255 
-7.42506 3.30923 -0.524261 61 77 138 255 
-7.43548 3.29194 -0.590015 58 84 140 255 
-7.43578 3.30153 -0.666024 55 90 140 255 
-7.44961 3.31538 -0.744946 59 82 139 255 
-6.74769 3.00733 -0.745186 64 70 136 255 
-6.63695 2.94256 -0.791254 50 101 142 255 
-6.61594 2.9389 -0.858111 43 116 142 255 
-6.61206 2.94401 -0.92719 46 111 142 255 
-6.60621 2.94704 -0.996045 45 113 142 255 
-6.62361 2.94079 -1.05853 44 115 142 255 
-6.6146 2.94107 -1.12583 47 107 142 255 
-6.60187 2.94086 -1.19258 48 106 142 255 
-6.59313 2.94121 -1.26259 55 90 140 255 
-6.38058 2.83821 -1.28169 62 76 138 255 
-6.05022 2.69392 -1.27776 60 79 138 255 
-5.7545 2.56339 -1.27824 56 88 140 255 
-5.47212 2.43998 -1.2768 60 80 139 255 
-5.26242 2.34413 -1.27822 62 76 138 255 
-5.00623 2.23117 -1.2694 64 70 136 255 
-4.7992 2.13985 -1.27026 66 63 133 255 
-4.59417 2.04658 -1.2689 68 59 132 255 
-4.44454 1.98445 -1.27241 70 52 128 255 
-4.27405 1.90843 -1.26998 66 64 134 255 
-4.11552 1.83588 -1.2701 66 64 134 255 
-3.97167 1.76762 -1.2737 69 55 129 255 
-17.1739 7.71187 5.65522 59 81 139 255 
-17.1714 7.69304 5.44161 61 78 138 255 
-17.1981 7.69763 5.25021 61 77 138 255 
-17.1666 7.68391 5.05009 60 79 138 255 
-17.1402 7.68597 4.87552 61 78 138 255 
-17.1627 7.69275 4.68237 63 71 136 255 
-17.1564 7.69333 4.48976 66 64 134 255 
-17.1476 7.69336 4.30449 66 64 134 255 
-17.1654 7.69368 4.14958 60 80 139 255 
-17.149 7.69019 3.95031 59 82 139 255 
-17.1273 7.69103 3.76181 62 74 137 255 
-17.1232 7.69675 3.58123 62 76 138 255 
-17.1176 7.67224 3.4225 58 83 139 255 
-17.1125 7.67742 3.23632 57 86 140 255 
-17.0979 7.68501 3.04955 57 86 140 255 
-17.1083 7.708 2.87809 57 86 140 255 
-17.1009 7.66835 2.72073 57 86 140 255 
-17.0796 7.66623 2.53453 54 93 141 255 
-17.0836 7.68935 2.35673 57 86 140 255 
-17.0951 7.7092 2.18638 67 61 132 255 
-8.96981 4.02222 1.06618 50 101 142 255 
-8.88061 3.99168 0.963248 46 110 142 255 
-8.903 4.00912 0.873135 70 50 126 255 
-16.3034 7.36243 1.43301 71 47 125 255 
-8.77988 3.93889 0.694846 40 124 142 255 
-8.78652 3.95123 0.604435 41 123 142 255 
-8.76354 3.95184 0.512228 39 126 142 255 
-8.79864 3.97706 0.423267 40 125 142 255 
-8.85584 3.97668 0.34918 37 132 142 255 
-8.86039 3.98816 0.257832 48 105 142 255 
-8.2618 3.72732 0.155042 56 88 140 255 
-8.24057 3.72827 0.0710385 53 95 141 255 
-8.2561 3.70909 -0.0015797 54 93 141 255 
-8.2381 3.71153 -0.086738 61 77 138 255 
-8.22652 3.71486 -0.170164 59 81 139 255 
-8.20527 3.71575 -0.254746 61 78 138 255 
-7.49412 3.37148 -0.298453 63 71 136 255 
-7.41725 3.34482 -0.370902 54 93 141 255 
-7.39778 3.34218 -0.446745 61 77 138 255 
-7.38734 3.3469 -0.523039 64 69 136 255 
-7.4106 3.33546 -0.589653 60 79 138 255 
-7.40812 3.34381 -0.665371 59 82 139 255 
-7.41824 3.3561 -0.743854 56 88 140 255 
-6.69557 3.03349 -0.741472 64 69 136 255 
-6.60971 2.97914 -0.79017 49 103 142 255 
-6.58782 2.97494 -0.856816 50 100 142 255 
-6.59568 2.98535 -0.927445 47 107 142 255 
-6.59613 2.9912 -0.997273 50 101 142 255 
-6.59733 2.97771 -1.05723 42 118 142 255 
-6.59463 2.98078 -1.12552 48 105 142 255 
-6.5837 2.98131 -1.19258 48 105 142 255 
-6.57496 2.98161 -1.26259 56 88 140 255 
-6.31376 2.85502 -1.27176 62 74 137 255 
-6.01747 2.7237 -1.27435 60 79 138 255 
-5.72349 2.59178 -1.27486 58 83 139 255 
-5.44903 2.46988 -1.27493 58 83 139 255 
-5.22481 2.3659 -1.27258 62 73 137 255 
-4.99777 2.26426 -1.27076 64 69 136 255 
-4.77624 2.16484 -1.26768 64 69 136 255 
-4.57446 2.07154 -1.26694 67 62 133 255 
-4.37766 1.98689 -1.25673 70 51 127 255 
-4.2359 1.92265 -1.26213 68 59 132 255 
-4.09717 1.85791 -1.26793 67 62 133 255 
-3.93539 1.78048 -1.26554 67 61 132 255 
-17.1602 7.83261 5.66644 60 79 138 255 
-17.1772 7.82254 5.45856 59 82 139 255 
-17.1751 7.81418 5.25772 61 77 138 255 
-17.1534 7.80469 5.0602 59 82 139 255 
-17.1579 7.8207 4.89411 57 86 140 255 
-17.1311 7.80515 4.68671 61 78 138 255 
-17.139 7.81217 4.49766 63 71 136 255 
-17.1302 7.81219 4.31208 66 65 134 255 
-17.1499 7.81343 4.15733 59 81 139 255 
-17.13 7.80826 3.95689 58 84 140 255 
-17.1288 7.81837 3.77261 63 71 136 255 
-17.1105 7.81759 3.58854 59 82 139 255 
-17.1078 7.79426 3.43004 58 84 140 255 
-17.1019 7.79904 3.2433 57 85 140 255 
-17.0719 7.79962 3.0534 59 82 139 255 
-17.0805 7.82189 2.88142 57 86 140 255 
-17.0914 7.79038 2.72677 55 91 141 255 
-17.0791 7.79228 2.54151 55 90 140 255 
-17.0704 7.80971 2.36148 54 93 141 255 
-17.0086 7.79615 2.1814 69 55 129 255 
-8.91059 4.06151 1.06208 45 112 142 255 
-8.83695 4.03741 0.961181 44 115 142 255 
-8.89272 4.0703 0.87456 55 90 140 255 
-16.0704 7.37625 1.41648 72 31 112 255 
-8.74012 3.98565 0.693622 43 116 142 255 
-8.75575 4.00216 0.603997 39 127 142 255 
-8.75093 4.01095 0.512919 38 130 142 255 
-8.77225 4.03014 0.423179 39 126 142 255 
-8.81218 4.02223 0.348425 38 130 142 255 
-8.8203 4.03539 0.257381 46 109 142 255 
-8.2315 3.77461 0.154905 58 83 139 255 
-8.21209 3.77626 0.0709914 58 83 139 255 
-8.22864 3.75761 -0.00157882 54 92 141 255 
-8.20972 3.75951 -0.0866804 60 79 138 255 
-8.20176 3.76443 -0.170126 58 83 139 255 
-8.19594 3.77229 -0.25517 57 85 140 255 
-7.45057 3.40701 -0.297545 62 76 138 255 
-7.39841 3.3911 -0.370993 55 90 140 255 
-7.37532 3.38667 -0.446635 62 73 137 255 
-7.37211 3.39467 -0.523425 61 78 138 255 
-7.39543 3.38336 -0.590087 56 89 140 255 
-7.38112 3.3863 -0.6648 55 91 141 255 
-7.37217 3.3899 -0.741307 64 70 136 255 
-6.67684 3.07451 -0.741472 67 62 133 255 
-6.56328 3.0068 -0.786811 56 88 140 255 
-6.55591 3.00909 -0.855051 52 96 141 255 
-6.55381 3.01498 -0.924141 58 83 139 255 
-6.52996 3.00964 -0.990044 62 76 138 255 
-6.56184 3.0103 -1.05448 49 104 142 255 
-6.56095 3.01418 -1.12291 53 95 141 255 
-6.55095 3.01505 -1.18997 54 93 141 255 
-6.5467 3.01736 -1.26069 60 80 139 255 
-6.2988 2.89494 -1.2723 63 71 136 255 
-5.99797 2.75934 -1.27378 56 89 140 255 
-5.70481 2.62562 -1.27426 57 86 140 255 
-5.42134 2.49754 -1.27201 60 80 139 255 
-5.17295 2.38077 -1.26349 62 73 137 255 
-4.99972 2.30221 -1.27482 63 72 137 255 
-4.74874 2.1876 -1.26392 65 66 135 255 
-4.52819 2.08416 -1.25765 67 62 133 255 
-4.39613 2.0279 -1.26558 68 59 132 255 
-4.22227 1.9478 -1.2616 67 62 133 255 
-4.09006 1.88503 -1.26928 66 65 134 255 
-3.91306 1.79938 -1.26189 67 61 132 255 
-17.1701 7.96476 5.68571 60 80 139 255 
-17.1515 7.93828 5.46579 61 78 138 255 
-17.1496 7.92993 5.2647 58 83 139 255 
-17.1367 7.92439 5.06954 58 84 140 255 
-17.1368 7.93845 4.9019 59 81 139 255 
-17.1119 7.92358 4.69469 62 73 137 255 
-17.1331 7.93681 4.50881 62 74 137 255 
-17.1023 7.92658 4.31721 65 68 135 255 
-17.1229 7.92836 4.16251 63 72 137 255 
-17.1119 7.92721 3.96389 59 82 139 255 
-17.1063 7.93529 3.77831 63 72 137 255 
-17.0952 7.93773 3.59547 57 86 140 255 
-17.0829 7.90983 3.4347 57 86 140 255 
-17.0751 7.91378 3.24738 57 86 140 255 
-17.0569 7.9196 3.05935 57 86 140 255 
-17.0591 7.93906 2.88597 59 81 139 255 
-17.0917 7.91757 2.73453 54 93 141 255 
-17.0741 7.91693 2.54795 56 89 140 255 
-17.0635 7.93355 2.36722 55 91 141 255 
-16.947 7.89408 2.17966 69 53 129 255 
-8.844 4.09689 1.05712 47 107 142 255 
-8.80118 4.08653 0.959999 47 107 142 255 
-8.83146 4.10799 0.870997 49 104 142 255 
-8.85118 4.1286 0.78238 64 69 136 255 
-8.7155 4.0392 0.693622 40 124 142 255 
-8.74099 4.06044 0.604686 38 130 142 255 
-8.73521 4.06878 0.513451 39 128 142 255 
-8.74917 4.08474 0.423267 38 130 142 255 
-8.78643 4.0758 0.348389 35 136 142 255 
-8.77543 4.08016 0.256797 51 98 141 255 
-8.20547 3.82378 0.154854 54 93 141 255 
-8.19239 3.82827 0.0710228 56 88 140 255 
-8.20089 3.80592 -0.00157795 55 90 140 255 
-8.19194 3.81234 -0.086738 54 92 141 255 
-8.18303 3.8168 -0.17022 54 92 141 255 
-8.17897 3.82547 -0.255368 61 78 138 255 
-7.40958 3.4434 -0.296747 58 83 139 255 
-7.3838 3.43939 -0.371311 50 101 142 255 
-7.36345 3.43609 -0.447185 62 76 138 255 
-7.35114 3.43984 -0.523425 58 83 139 255 
-7.36639 3.42488 -0.589436 56 89 140 255 
-7.35388 3.42857 -0.664229 52 96 141 255 
-7.33319 3.42664 -0.739487 64 69 136 255 
-6.66055 3.11669 -0.741773 66 63 133 255 
-6.56093 3.05457 -0.788762 53 94 141 255 
-6.54362 3.0522 -0.855875 57 86 140 255 
-6.53249 3.05388 -0.92376 59 81 139 255 
-6.52393 3.05554 -0.991953 54 92 141 255 
-6.55491 3.05594 -1.05636 46 109 142 255 
-6.53696 3.05187 -1.12199 53 95 141 255 
-6.53232 3.05519 -1.18997 55 90 140 255 
-6.52004 3.05371 -1.25914 61 78 138 255 
-6.28894 2.93728 -1.27392 59 81 139 255 
-5.97292 2.79235 -1.27208 55 91 141 255 
-5.67616 2.65476 -1.27148 56 89 140 255 
-5.4006 2.52826 -1.27076 61 78 138 255 
-5.18035 2.42281 -1.2689 63 71 136 255 
-4.9502 2.31633 -1.26579 60 79 138 255 
-4.7546 2.22577 -1.26909 64 69 136 255 
-4.54342 2.12505 -1.26547 68 58 131 255 
-4.38711 2.05647 -1.26659 69 55 129 255 
-4.23121 1.9835 -1.26789 64 70 136 255 
-4.06273 1.90275 -1.2644 66 64 134 255 
-3.89759 1.82133 -1.26048 68 58 131 255 
-17.1321 8.07527 5.68945 62 73 137 255 
-17.1442 8.06299 5.47912 59 82 139 255 
-17.132 8.04975 5.27436 62 76 138 255 
-17.1271 8.04787 5.08121 62 74 137 255 
-17.1176 8.05746 4.91044 61 78 138 255 
-17.1043 8.04784 4.70604 63 71 136 255 
-17.1008 8.04966 4.51322 63 72 137 255 
-17.1098 8.05794 4.3315 63 71 136 255 
-17.0933 8.04242 4.16724 63 71 136 255 
-17.1037 8.05123 3.97335 60 80 139 255 
-17.0821 8.05181 3.78381 62 73 137 255 
-17.0799 8.05841 3.60259 59 81 139 255 
-17.1034 8.04717 3.4487 55 90 140 255 
-17.0664 8.03729 3.25503 54 92 141 255 
-17.0571 8.04727 3.06818 57 85 140 255 
-17.0717 8.07273 2.89643 55 91 141 255 
-17.0831 8.04125 2.74099 53 95 141 255 
-17.0512 8.0338 2.55184 56 88 140 255 
-17.0343 8.04743 2.36996 53 95 141 255 
-16.3299 7.72894 2.10636 70 51 127 255 
-8.8169 4.15023 1.05691 47 107 142 255 
-8.76154 4.13366 0.958424 44 113 142 255 
-8.89524 4.20424 0.879815 52 96 141 255 
-15.8093 7.49264 1.40146 72 27 109 255 
-8.70318 4.09856 0.69463 41 123 142 255 
-8.72674 4.1191 0.605437 37 131 142 255 
-8.7155 4.12487 0.513771 38 129 142 255 
-8.74651 4.14905 0.424361 38 129 142 255 
-8.77753 4.1373 0.349036 36 134 142 255 
-8.75927 4.1382 0.257062 49 104 142 255 
-8.17101 3.86892 0.154649 62 76 138 255 
-8.15519 3.87203 0.070905 58 83 139 255 
-8.16563 3.85062 -0.00157568 54 93 141 255 
-8.16387 3.8604 -0.08669 61 78 138 255 
-8.15675 3.86565 -0.170164 56 88 140 255 
-8.14542 3.87087 -0.255057 59 81 139 255 
-7.38561 3.48751 -0.296638 58 84 140 255 
-7.36346 3.48505 -0.371357 54 92 141 255 
-7.35125 3.48548 -0.447734 56 89 140 255 
-7.32449 3.48231 -0.523039 60 80 139 255 
-7.35336 3.47385 -0.590087 52 96 141 255 
-7.3291 3.47193 -0.663903 53 95 141 255 
-7.30573 3.46858 -0.73885 65 66 135 255 
-6.6395 3.15664 -0.741573 68 59 132 255 
-6.54027 3.09392 -0.788545 54 92 141 255 
-6.52746 3.09357 -0.856228 58 84 140 255 
-6.519 3.09646 -0.924522 59 82 139 255 
-6.5158 3.10062 -0.99359 57 86 140 255 
-6.51904 3.08805 -1.05362 51 98 141 255 
-6.51543 3.09065 -1.12153 51 98 141 255 
-6.51702 3.09691 -1.19062 55 90 140 255 
-6.51363 3.09959 -1.26155 60 79 138 255 
-6.27613 2.97834 -1.27501 59 82 139 255 
-5.94503 2.82389 -1.2698 54 93 141 255 
-5.64914 2.68449 -1.26909 54 92 141 255 
-5.38498 2.56135 -1.27076 61 77 138 255 
-5.16803 2.45581 -1.26955 61 78 138 255 
-4.92622 2.34206 -1.26331 59 81 139 255 
-4.76104 2.2645 -1.27449 66 63 133 255 
-4.52767 2.15164 -1.26474 65 66 135 255 
-4.3648 2.07878 -1.26381 68 59 132 255 
-4.22332 2.0115 -1.2692 65 66 135 255 
-4.02577 1.91565 -1.25653 67 62 133 255 
-3.88548 1.8448 -1.2602 67 61 132 255 
-17.1194 8.19803 5.70182 63 72 137 255 
-17.1161 8.17839 5.48607 61 78 138 255 
-17.1214 8.1734 5.28644 60 79 138 255 
-17.1158 8.17112 5.09262 59 81 139 255 
-17.0957 8.1757 4.91848 61 78 138 255 
-17.1027 8.17566 4.71933 64 70 136 255 
-17.1055 8.18046 4.52762 63 72 137 255 
-17.0767 8.17077 4.33574 64 69 136 255 
-17.0763 8.16274 4.17521 61 77 138 255 
-17.1008 8.1784 3.98425 60 79 138 255 
-17.0801 8.17934 3.79442 63 72 137 255 
-17.0602 8.17749 3.60896 59 82 139 255 
-17.0768 8.16299 3.45337 55 90 140 255 
-17.063 8.16397 3.26387 52 97 141 255 
-17.0492 8.17183 3.07572 56 89 140 255 
-17.0477 8.18974 2.90083 57 86 140 255 
-17.0558 8.1566 2.74458 55 91 141 255 
-17.0097 8.14212 2.55305 58 83 139 255 
-16.9783 8.14879 2.36909 62 76 138 255 
-16.1864 7.78294 2.09397 68 59 132 255 
-8.79934 4.20811 1.05788 46 111 142 255 
-8.75126 4.19465 0.960098 48 106 142 255 
-8.87735 4.26262 0.880617 55 90 140 255 
-15.7585 7.58734 1.40107 70 52 128 255 
-8.69046 4.15791 0.695638 43 116 142 255 
-8.7346 4.18854 0.607754 40 124 142 255 
-8.72152 4.19341 0.515633 42 120 142 255 
-8.75329 4.21825 0.425938 40 124 142 255 
-8.77541 4.20231 0.349971 37 132 142 255 
-8.73822 4.19403 0.257195 52 96 141 255 
-8.1381 3.91465 0.154478 64 69 136 255 
-8.11687 3.91504 0.0707794 61 78 138 255 
-8.14185 3.90066 -0.00157568 53 94 141 255 
-8.13462 3.90782 -0.0866325 61 78 138 255 
-8.13198 3.91519 -0.170145 63 72 137 255 
-8.11251 3.91643 -0.254774 62 73 137 255 
-7.35145 3.52671 -0.29613 58 83 139 255 
-7.31943 3.51935 -0.370219 53 94 141 255 
-7.32073 3.52619 -0.447185 58 84 140 255 
-7.31107 3.53109 -0.523618 49 103 142 255 
-7.32831 3.51718 -0.589798 57 86 140 255 
-7.30946 3.5177 -0.664066 52 96 141 255 
-7.27534 3.50902 -0.73794 68 59 132 255 
-6.59044 3.18305 -0.738261 67 61 132 255 
-6.51579 3.13141 -0.787895 53 95 141 255 
-6.50746 3.13313 -0.85611 55 91 141 255 
-6.4972 3.13511 -0.924141 58 84 140 255 
-6.49308 3.13881 -0.993044 57 86 140 255 
-6.49908 3.12756 -1.05347 51 99 141 255 
-6.50347 3.134 -1.12275 56 89 140 255 
-6.48634 3.13126 -1.18851 55 91 141 255 
-6.48562 3.13521 -1.25983 58 83 139 255 
-6.23116 3.00398 -1.26959 60 79 138 255 
-5.93202 2.86245 -1.27075 53 95 141 255 
-5.62639 2.71612 -1.2677 54 93 141 255 
-5.363 2.59137 -1.2693 58 83 139 255 
-5.14144 2.48195 -1.26674 60 79 138 255 
-4.92491 2.3786 -1.26669 59 82 139 255 
-4.75231 2.29621 -1.2759 65 68 135 255 
-4.5039 2.17432 -1.2618 66 64 134 255 
-4.34238 2.10089 -1.26103 65 68 135 255 
-4.20308 2.03359 -1.26684 66 65 134 255 
-4.01308 1.93989 -1.25626 66 63 133 255 
-3.88792 1.87527 -1.2647 63 71 136 255 
-17.0912 8.31381 5.7093 64 70 136 255 
-17.1244 8.31178 5.50496 60 79 138 255 
-17.1056 8.29511 5.29718 62 74 137 255 
-17.087 8.28652 5.0991 61 77 138 255 
-17.0897 8.30202 4.93129 59 82 139 255 
-17.0933 8.30037 4.73068 62 76 138 255 
-17.0681 8.29163 4.53111 65 68 135 255 
-17.0701 8.2967 4.3469 66 64 134 255 
-17.0768 8.2921 4.18771 62 74 137 255 
-17.0767 8.296 3.99042 61 77 138 255 
-17.064 8.30071 3.80208 61 77 138 255 
-17.0371 8.29535 3.61477 59 81 139 255 
-17.068 8.28782 3.46181 56 89 140 255 
-17.0365 8.28015 3.26846 55 90 140 255 
-17.0387 8.29573 3.08295 53 95 141 255 
-17.0166 8.30373 2.90416 60 79 138 255 
-17.0571 8.28618 2.75292 52 96 141 255 
-17.053 8.29184 2.56714 53 94 141 255 
-16.8076 8.19412 2.35224 70 52 128 255 
-16.0455 7.83677 2.08192 71 42 122 255 
-8.79303 4.27158 1.06025 49 103 142 255 
-8.77278 4.27136 0.965316 50 101 142 255 
-8.85103 4.31701 0.880617 47 107 142 255 
-13.8276 6.76249 1.23306 66 63 133 255 
-8.72579 4.2408 0.700536 47 107 142 255 
-8.73744 4.25604 0.609758 42 119 142 255 
-8.72344 4.26043 0.517282 42 118 142 255 
-8.76672 4.29121 0.427865 42 118 142 255 
-8.78271 4.27225 0.351301 42 120 142 255 
-8.76892 4.27516 0.258866 59 82 139 255 
-8.12291 3.9689 0.154649 58 84 140 255 
-8.11425 3.97533 0.0709678 54 93 141 255 
-8.13574 3.95929 -0.00157917 52 96 141 255 
-8.11498 3.95985 -0.0866804 61 78 138 255 
-8.10331 3.96282 -0.170051 58 83 139 255 
-8.07307 3.95865 -0.254294 66 65 134 255 
-7.32608 3.57 -0.295985 57 85 140 255 
-7.2959 3.56332 -0.370127 59 81 139 255 
-7.29447 3.56885 -0.44691 63 72 137 255 
-7.29464 3.57852 -0.524004 55 91 141 255 
-7.29135 3.55465 -0.588568 51 98 141 255 
-7.28594 3.5616 -0.663903 51 99 141 255 
-7.23936 3.54658 -0.736485 66 65 134 255 
-6.57793 3.22693 -0.739064 66 64 134 255 
-6.49824 3.1722 -0.788112 49 103 142 255 
-6.49793 3.1778 -0.857405 52 97 141 255 
-6.46804 3.17011 -0.922743 55 90 140 255 
-6.47904 3.18122 -0.993863 52 96 141 255 
-6.49221 3.17347 -1.05549 50 102 142 255 
-6.49033 3.17689 -1.12383 50 100 142 255 
-6.4546 3.16492 -1.18623 54 93 141 255 
-6.43443 3.15931 -1.25363 59 82 139 255 
-6.19847 3.03524 -1.2667 60 79 138 255 
-5.90376 2.89361 -1.26848 55 91 141 255 
-5.6017 2.74671 -1.26591 53 94 141 255 
-5.32593 2.61389 -1.2643 58 83 139 255 
-5.12524 2.51302 -1.26652 62 76 138 255 
-4.88836 2.39805 -1.26105 57 86 140 255 
-4.71282 2.31291 -1.26909 65 66 135 255 
-4.48003 2.19679 -1.25887 67 62 133 255 
-4.34764 2.13645 -1.26634 66 63 133 255 
-4.1758 2.05211 -1.26239 66 64 134 255 
-4.02011 1.97381 -1.26223 65 66 135 255 
-3.8884 1.90501 -1.26864 65 66 135 255 
-17.0836 8.44015 5.72398 62 76 138 255 
-17.0963 8.42817 5.51246 59 82 139 255 
-17.1028 8.42375 5.31221 61 78 138 255 
-17.0878 8.41681 5.11466 60 79 138 255 
-17.0731 8.42385 4.94134 59 81 139 255 
-17.0759 8.42183 4.7401 62 74 137 255 
-17.0648 8.41988 4.54388 65 68 135 255 
-17.053 8.41811 4.35561 68 58 131 255 
-17.0493 8.40839 4.19353 63 71 136 255 
-17.0491 8.41232 3.99597 60 79 138 255 
-17.0506 8.42394 3.81053 60 79 138 255 
-17.0317 8.42237 3.62452 63 72 137 255 
-17.0195 8.39369 3.46234 57 85 140 255 
-17.0287 8.4059 3.27679 57 86 140 255 
-17.0246 8.4185 3.08969 54 92 141 255 
-16.9973 8.42379 2.90962 59 81 139 255 
-17.0298 8.4025 2.75679 55 91 141 255 
-17.0195 8.40509 2.56982 53 94 141 255 
-16.7935 8.31514 2.35736 68 59 132 255 
-16.1769 8.02424 2.10532 72 35 116 255 
-16.3154 8.05002 1.97321 72 35 116 255 
-8.78387 4.34364 0.969451 46 109 142 255 
-15.6816 7.76804 1.56493 72 38 119 255 
-13.818 6.86317 1.23593 51 99 141 255 
-8.72822 4.30839 0.70284 50 102 142 255 
-8.80062 4.35383 0.616019 45 112 142 255 
-8.76333 4.34671 0.52122 47 108 142 255 
-9.36734 4.65667 0.458564 59 82 139 255 
-9.26345 4.5766 0.371646 61 78 138 255 
-9.35439 4.63185 0.276983 62 76 138 255 
-8.08318 4.01111 0.154358 60 80 139 255 
-8.09597 4.02816 0.0710228 57 85 140 255 
-8.11488 4.01091 -0.00157987 53 94 141 255 
-8.11025 4.01934 -0.0868916 54 92 141 255 
-8.09317 4.01958 -0.170352 56 89 140 255 
-8.04863 4.00811 -0.254294 67 61 132 255 
-7.30135 3.61356 -0.295876 56 88 140 255 
-7.2909 3.61645 -0.370993 53 95 141 255 
-7.26975 3.6122 -0.446745 59 82 139 255 
-7.26897 3.62143 -0.523747 52 97 141 255 
-7.2694 3.59932 -0.588568 48 106 142 255 
-7.26038 3.60447 -0.663576 50 100 142 255 
-7.21925 3.59182 -0.736667 65 68 135 255 
-6.53842 3.25747 -0.736856 66 65 134 255 
-6.46796 3.20672 -0.786811 52 96 141 255 
-6.47475 3.21585 -0.856934 50 102 142 255 
-6.45913 3.21504 -0.924268 53 95 141 255 
-6.46028 3.22135 -0.993999 52 97 141 255 
-6.45755 3.20576 -1.05304 52 97 141 255 
-6.47514 3.21885 -1.1246 51 99 141 255 
-6.44213 3.20799 -1.18753 55 90 140 255 
-6.42374 3.20313 -1.25535 60 80 139 255 
-6.1674 3.06708 -1.26418 61 78 138 255 
-5.87623 2.92497 -1.26639 56 88 140 255 
-5.58825 2.78278 -1.26671 54 93 141 255 
-5.3308 2.65699 -1.2693 57 86 140 255 
-5.09923 2.5392 -1.26392 62 76 138 255 
-4.8439 2.41323 -1.25338 60 79 138 255 
-4.66287 2.324 -1.25945 63 72 137 255 
-4.47688 2.22943 -1.2618 69 56 130 255 
-4.30935 2.15056 -1.259 68 58 131 255 
-4.14672 2.0695 -1.25741 66 64 134 255 
-4.00533 1.99715 -1.26142 64 69 136 255 
-3.86289 1.92199 -1.26414 68 59 132 255 
-17.0735 8.56586 5.73807 61 78 138 255 
-17.0941 8.55785 5.52857 59 81 139 255 
-17.0921 8.54922 5.32509 61 77 138 255 
-17.0592 8.53317 5.12166 62 73 137 255 
-17.0601 8.54797 4.95265 58 83 139 255 
-17.0604 8.5447 4.75025 63 71 136 255 
-17.0407 8.53837 4.55131 64 70 136 255 
-17.0489 8.54662 4.36789 65 66 135 255 
-17.0593 8.54389 4.20882 62 73 137 255 
-17.0313 8.53387 4.004 62 76 138 255 
-17.0266 8.54247 3.81682 60 79 138 255 
-17.0218 8.54788 3.63351 61 78 138 255 
-17.0072 8.51779 3.47042 60 80 139 255 
-17.0199 8.53187 3.28512 54 92 141 255 
-17.0273 8.55026 3.09965 56 88 140 255 
-17.0088 8.55991 2.92054 59 82 139 255 
-16.9974 8.51659 2.75995 55 90 140 255 
-16.9685 8.50981 2.56995 59 82 139 255 
-16.6916 8.39262 2.35024 71 46 124 255 
-16.1034 8.11128 2.10219 72 29 111 255 
-16.1662 8.1001 1.96114 72 31 112 255 
-15.8876 7.97811 1.75883 72 36 117 255 
-15.9211 8.00868 1.5937 70 48 126 255 
-15.6358 7.886 1.40282 72 35 116 255 
-15.8687 7.95451 1.28173 72 40 120 255 
-16.5308 8.30474 1.16066 71 46 124 255 
-9.37506 4.72203 0.559316 52 97 141 255 
-9.33948 4.7145 0.458608 54 92 141 255 
-9.41652 4.72433 0.378943 50 100 142 255 
-9.25881 4.65548 0.274994 57 86 140 255 
-8.06556 4.06423 0.154495 60 79 138 255 
-8.06396 4.07416 0.07096 57 86 140 255 
-8.07493 4.053 -0.00157691 59 81 139 255 
-8.07561 4.06408 -0.086786 62 76 138 255 
-8.06835 4.06917 -0.170352 64 70 136 255 
-8.00158 4.04614 -0.253587 67 61 132 255 
-7.26833 3.65291 -0.29544 56 88 140 255 
-7.27125 3.66247 -0.371129 45 112 142 255 
-7.24656 3.65629 -0.44669 50 102 142 255 
-7.2297 3.65741 -0.522524 61 77 138 255 
-7.24985 3.6452 -0.588785 52 96 141 255 
-7.24169 3.65075 -0.663903 52 97 141 255 
-7.21841 3.64683 -0.73885 61 77 138 255 
-6.49611 3.2863 -0.734347 64 69 136 255 
-6.44284 3.24366 -0.786161 52 97 141 255 
-6.45312 3.25462 -0.856699 48 106 142 255 
-6.44105 3.25551 -0.924522 46 110 142 255 
-6.44835 3.26496 -0.995227 48 105 142 255 
-6.44483 3.24889 -1.05419 46 109 142 255 
-6.4288 3.24517 -1.11999 53 95 141 255 
-6.42497 3.24879 -1.18802 51 98 141 255 
-6.42066 3.25094 -1.25863 55 90 140 255 
-6.13881 3.09999 -1.26219 58 83 139 255 
-5.85729 2.96053 -1.2662 57 86 140 255 
-5.55882 2.81082 -1.26392 53 95 141 255 
-5.31876 2.69185 -1.27034 53 94 141 255 
-5.07572 2.56648 -1.26197 58 84 140 255 
-4.84291 2.44994 -1.25699 59 82 139 255 
-4.66587 2.36135 -1.26415 64 70 136 255 
-4.44754 2.24898 -1.2574 69 55 129 255 
-4.30988 2.18396 -1.26305 68 57 131 255 
-4.15805 2.10712 -1.26475 64 70 136 255 
-3.98871 2.01952 -1.26006 66 64 134 255 
-3.83133 1.9357 -1.25767 68 58 131 255 
-17.0607 8.69089 5.7516 62 74 137 255 
-17.0635 8.6739 5.5358 61 77 138 255 
-17.072 8.67051 5.33529 61 78 138 255 
-17.0255 8.6473 5.12737 62 74 137 255 
-17.0409 8.6696 4.96244 61 77 138 255 
-17.0293 8.66022 4.75629 65 68 135 255 
-17.027 8.66262 4.56176 62 76 138 255 
-17.024 8.66522 4.37503 66 63 133 255 
-17.0379 8.66434 4.21657 62 73 137 255 
-17.0275 8.66306 4.01552 59 82 139 255 
-17.0368 8.67883 3.83096 58 83 139 255 
-17.0163 8.67625 3.64363 59 81 139 255 
-16.9994 8.64473 3.47957 54 93 141 255 
-17.0076 8.6567 3.29295 55 91 141 255 
-16.9974 8.66624 3.10382 59 82 139 255 
-16.9912 8.68211 2.9266 56 88 140 255 
-16.9766 8.63688 2.76513 55 91 141 255 
-16.9725 8.64254 2.57854 59 81 139 255 
-16.8139 8.58376 2.37483 66 65 134 255 
-15.8031 8.08195 2.06942 72 27 109 255 
-15.8867 8.08238 1.93321 70 48 126 255 
-15.9376 8.12607 1.76986 71 44 122 255 
-13.7986 7.04747 1.38554 62 73 137 255 
-15.8542 8.11854 1.42686 70 48 126 255 
-15.8063 8.04494 1.28065 61 77 138 255 
-9.39198 4.79074 0.661479 67 62 133 255 
-9.27389 4.74264 0.555006 50 100 142 255 
-9.23214 4.73162 0.454754 52 97 141 255 
-9.30989 4.74255 0.375816 52 97 141 255 
-9.09207 4.64175 0.270882 57 85 140 255 
-8.05026 4.11865 0.154683 58 84 140 255 
-8.03881 4.12356 0.07096 58 83 139 255 
-8.03921 4.09702 -0.00157481 59 82 139 255 
-8.0336 4.10491 -0.0866037 56 88 140 255 
-8.0459 4.11996 -0.170409 60 79 138 255 
-8.01573 4.11525 -0.254831 65 68 135 255 
-7.24222 3.69562 -0.295295 61 78 138 255 
-7.22819 3.69655 -0.370082 45 112 142 255 
-7.21155 3.69431 -0.445921 55 91 141 255 
-7.21511 3.7058 -0.523103 57 86 140 255 
-7.23623 3.69415 -0.589508 55 90 140 255 
-7.21915 3.69511 -0.663903 52 97 141 255 
-7.18437 3.68514 -0.737668 63 72 137 255 
-6.45458 3.31519 -0.731938 66 64 134 255 
-6.41927 3.28132 -0.785728 50 100 142 255 
-6.42419 3.28963 -0.855522 52 97 141 255 
-6.40948 3.28908 -0.92287 56 88 140 255 
-6.42203 3.30129 -0.994272 52 96 141 255 
-6.43182 3.29198 -1.05535 50 100 142 255 
-6.40701 3.28365 -1.11968 57 85 140 255 
-6.40667 3.28905 -1.18835 59 82 139 255 
-6.40935 3.29478 -1.26035 59 81 139 255 
-6.12843 3.14209 -1.264 57 85 140 255 
-5.83989 2.99686 -1.26639 55 90 140 255 
-5.52927 2.83861 -1.26114 54 93 141 255 
-5.29431 2.72042 -1.26847 55 91 141 255 
-5.05553 2.59534 -1.26089 58 84 140 255 
-4.86419 2.4983 -1.26647 62 76 138 255 
-4.64265 2.38549 -1.2618 61 78 138 255 
-4.4673 2.2935 -1.26694 70 51 127 255 
-4.30414 2.21434 -1.26533 66 65 134 255 
-4.14676 2.13348 -1.26527 66 64 134 255 
-3.98138 2.04659 -1.26169 65 66 135 255 
-3.82962 1.96443 -1.26104 66 65 134 255 
-17.0479 8.81653 5.7654 62 76 138 255 
-17.0535 8.8009 5.54996 61 78 138 255 
-17.0501 8.79143 5.34523 60 79 138 255 
-17.0296 8.78126 5.14474 61 78 138 255 
-17.0528 8.80776 4.98154 60 80 139 255 
-17.0577 8.80684 4.77924 63 72 137 255 
-17.034 8.79817 4.57802 66 64 134 255 
-17.0172 8.79367 4.38709 65 66 135 255 
-17.0061 8.77992 4.22196 64 70 136 255 
-17.0079 8.78489 4.02354 61 77 138 255 
-17.0119 8.79806 3.83744 60 80 139 255 
-16.9863 8.79269 3.64869 60 80 139 255 
-17.0107 8.78226 3.49286 55 90 140 255 
-16.9989 8.78397 3.30162 55 90 140 255 
-16.9833 8.79079 3.11105 58 84 140 255 
-16.9762 8.80623 2.93327 58 84 140 255 
-16.9664 8.76314 2.77217 57 86 140 255 
-10.5291 5.44314 1.60468 70 50 126 255 
-9.98764 5.17636 1.41514 67 61 132 255 
-10.203 5.2972 1.34032 67 62 133 255 
-15.6566 8.08664 1.91121 72 35 116 255 
-15.6921 8.12261 1.7481 67 61 132 255 
-13.787 7.14851 1.38875 56 89 140 255 
-15.7979 8.21245 1.4263 70 50 126 255 
-16.0526 8.2947 1.30471 71 47 125 255 
-9.3571 4.84552 0.661103 53 95 141 255 
-9.03192 4.68903 0.542237 50 101 142 255 
-9.0505 4.70887 0.447222 51 99 141 255 
-9.15101 4.73256 0.370568 51 99 141 255 
-8.87171 4.59809 0.265153 57 86 140 255 
-8.02839 4.16981 0.154751 58 84 140 255 
-8.00981 4.17096 0.0709286 52 96 141 255 
-8.01836 4.14857 -0.00157568 57 86 140 255 
-8.0127 4.15643 -0.0866516 54 93 141 255 
-8.02047 4.16925 -0.170409 60 79 138 255 
-7.98147 4.15974 -0.254548 65 66 135 255 
-7.22562 3.7432 -0.295549 58 83 139 255 
-7.20271 3.73945 -0.369945 53 94 141 255 
-7.18077 3.73435 -0.445426 57 86 140 255 
-7.18692 3.74724 -0.522717 55 90 140 255 
-7.21166 3.73757 -0.589364 56 89 140 255 
-7.20077 3.74163 -0.664311 56 89 140 255 
-7.11216 3.7034 -0.732573 66 64 134 255 
-6.41912 3.34691 -0.730232 66 65 134 255 
-6.40343 3.32294 -0.78627 48 105 142 255 
-6.40477 3.32944 -0.855639 51 98 141 255 
-6.3883 3.32789 -0.922743 51 98 141 255 
-6.38408 3.33147 -0.991544 54 93 141 255 
-6.39745 3.32408 -1.05304 60 79 138 255 
-6.3955 3.32746 -1.12122 57 85 140 255 
-6.38811 3.32921 -1.18867 54 92 141 255 
-6.3864 3.33268 -1.25983 61 78 138 255 
-6.09071 3.17009 -1.2602 56 88 140 255 
-5.80833 3.02583 -1.26355 56 88 140 255 
-5.51522 2.8743 -1.26193 52 97 141 255 
-5.26451 2.74606 -1.26534 56 89 140 255 
-5.03951 2.62632 -1.26089 58 84 140 255 
-4.83667 2.52179 -1.26331 62 76 138 255 
-4.60207 2.40045 -1.25475 65 68 135 255 
-4.46088 2.3249 -1.26914 68 57 131 255 
-4.29562 2.2434 -1.26684 65 66 135 255 
-4.11648 2.14995 -1.26003 65 66 135 255 
-3.95424 2.06342 -1.25708 67 61 132 255 
-3.82771 1.99321 -1.26442 69 55 129 255 
-17.035 8.94278 5.7795 62 74 137 255 
-17.0341 8.92365 5.56135 59 81 139 255 
-17.0351 8.91643 5.35757 59 82 139 255 
-17.0379 8.91829 5.16367 60 79 138 255 
-17.025 8.92616 4.98932 61 77 138 255 
-17.0309 8.92575 4.78697 65 66 135 255 
-17.0245 8.92601 4.5901 62 73 137 255 
-17.0018 8.9183 4.39713 64 69 136 255 
-16.9987 8.90858 4.23359 62 73 137 255 
-17.0014 8.91408 4.03485 60 79 138 255 
-16.9967 8.92279 3.84629 61 77 138 255 
-16.9764 8.92005 3.65825 58 84 140 255 
-16.9669 8.89196 3.49501 57 86 140 255 
-16.9926 8.91328 3.31097 52 96 141 255 
-16.9466 8.90401 3.11426 56 88 140 255 
-16.9498 8.92496 2.93812 57 85 140 255 
-16.9649 8.89465 2.78079 53 94 141 255 
-15.7192 8.2488 2.40333 72 32 113 255 
-10.3631 5.45188 1.47305 62 76 138 255 
-9.98399 5.26153 1.31576 58 83 139 255 
-10.3475 5.42518 1.26717 72 38 119 255 
-9.88416 5.19342 1.10462 64 69 136 255 
-15.8203 8.32636 1.59868 70 52 128 255 
-15.7516 8.31156 1.4267 65 68 135 255 
-15.7452 8.25869 1.28382 64 70 136 255 
-9.28655 4.88148 0.658223 54 93 141 255 
-9.00916 4.74762 0.542609 50 101 142 255 
-9.0179 4.76245 0.447047 48 105 142 255 
-9.01562 4.73288 0.366254 48 105 142 255 
-8.81148 4.63569 0.264198 48 105 142 255 
-7.99292 4.21387 0.154563 61 78 138 255 
-7.97788 4.21676 0.0708736 55 90 140 255 
-7.99187 4.19723 -0.00157551 55 90 140 255 
-7.98793 4.20598 -0.0866612 53 94 141 255 
-7.9859 4.21372 -0.17022 56 89 140 255 
-7.95402 4.2077 -0.254492 60 79 138 255 
-7.20516 3.78887 -0.295658 59 82 139 255 
-7.18051 3.78404 -0.369991 52 97 141 255 
-7.15949 3.77927 -0.445536 57 86 140 255 
-7.15409 3.78613 -0.522009 59 82 139 255 
-7.18153 3.77803 -0.588785 58 84 140 255 
-7.16445 3.77877 -0.663087 55 91 141 255 
-7.08314 3.74371 -0.731936 64 69 136 255 
-6.39671 3.3853 -0.730031 61 78 138 255 
-6.37764 3.35939 -0.78562 48 105 142 255 
-6.38334 3.36821 -0.855522 53 94 141 255 
-6.37828 3.37259 -0.924268 52 96 141 255 
-6.3609 3.36919 -0.991135 57 85 140 255 
-6.37256 3.36097 -1.05231 57 86 140 255 
-6.38021 3.36941 -1.12214 55 90 140 255 
-6.37193 3.37065 -1.18949 54 92 141 255 
-6.35103 3.36396 -1.2569 66 63 133 255 
-6.05549 3.19914 -1.25695 59 81 139 255 
