ply
format ascii 1.0
comment VTK generated PLY File
obj_info vtkPolyData points and polygons: vtk4.0
element vertex 1220
property float x
property float y
property float z
property uchar red
property uchar green
property uchar blue
property uchar alpha
element face 0
property list uchar int vertex_indices
end_header
3.42348 4.77425 -1.02744 63 72 137 255 
3.28105 4.58595 -1.03492 59 81 139 255 
3.14794 4.3965 -1.04324 58 83 139 255 
3.01144 4.20438 -1.04936 61 78 138 255 
2.91396 4.06518 -1.06588 62 76 138 255 
2.79914 3.90807 -1.06659 64 69 136 255 
2.7021 3.77105 -1.07446 60 79 138 255 
2.60599 3.63564 -1.08134 59 81 139 255 
2.51143 3.5062 -1.08812 61 77 138 255 
2.43048 3.38712 -1.08981 59 82 139 255 
2.35704 3.28464 -1.0969 61 78 138 255 
2.28445 3.18588 -1.10489 60 80 139 255 
2.1951 3.06683 -1.105 66 64 134 255 
5.88064 8.15856 3.02108 54 92 141 255 
5.8539 8.13618 2.89875 72 36 117 255 
5.84363 8.12804 2.78937 68 57 131 255 
5.8555 8.1442 2.69335 55 90 140 255 
5.48259 7.61471 2.43537 63 71 136 255 
5.95498 8.27361 2.53783 58 84 140 255 
5.81572 8.07732 2.37669 72 37 118 255 
5.75012 7.98295 2.25326 61 78 138 255 
5.70277 7.92343 2.15352 50 102 142 255 
5.67475 7.88138 2.04129 51 99 141 255 
5.81135 8.06234 1.99131 59 82 139 255 
7.21151 9.99711 2.35145 64 69 136 255 
5.32265 7.39529 1.66243 62 73 137 255 
5.31771 7.38278 1.56996 69 53 129 255 
6.69236 9.27777 1.86101 59 82 139 255 
5.30449 7.33998 1.38901 56 88 140 255 
6.43411 8.93627 1.59856 55 91 141 255 
17.5492 24.3552 4.06408 71 13 96 255 
17.7436 24.5713 3.81269 70 10 93 255 
17.7015 24.4762 3.52172 70 10 93 255 
17.6204 24.4728 3.27068 70 10 93 255 
17.703 24.5416 2.99371 72 20 103 255 
19.3699 26.8135 2.95795 71 14 97 255 
19.4101 26.809 2.65137 71 14 97 255 
20.6619 28.6865 2.55274 72 22 104 255 
20.9989 29.1 2.25143 71 16 99 255 
23.4111 32.372 2.12867 72 20 103 255 
23.5877 32.5553 1.7623 69 5 89 255 
0 0 0 69 4 87 255 
23.9961 33.229 1.08761 71 19 101 255 
23.9653 33.126 0.699392 70 8 92 255 
0 0 0 68 2 86 255 
17.7783 24.6558 -0.00530528 70 8 92 255 
13.8859 19.2146 -0.227577 71 13 96 255 
11.5577 15.9639 -0.37154 72 22 104 255 
9.92592 13.6795 -0.477999 72 32 113 255 
8.92278 12.3609 -0.553678 72 40 120 255 
8.33325 11.5227 -0.648224 71 45 123 255 
7.16879 9.89816 -0.67259 67 62 133 255 
7.3898 10.1806 -0.811299 66 64 134 255 
6.91396 9.57456 -0.856908 59 82 139 255 
6.29336 8.69565 -0.878731 70 50 126 255 
5.84503 8.06152 -0.909711 69 56 130 255 
5.46942 7.53496 -0.939185 64 70 136 255 
5.09259 7.04454 -0.947381 58 83 139 255 
4.79516 6.62313 -0.96923 57 85 140 255 
4.5111 6.21947 -0.984242 59 82 139 255 
4.26126 5.86623 -0.998364 58 84 140 255 
4.04523 5.58956 -1.0078 58 84 140 255 
3.84201 5.30273 -1.01841 55 90 140 255 
3.61225 4.97838 -1.01495 64 69 136 255 
3.46487 4.76989 -1.03105 64 70 136 255 
3.30508 4.56016 -1.03365 59 82 139 255 
3.16851 4.36836 -1.04115 56 88 140 255 
3.04869 4.20169 -1.05333 59 81 139 255 
2.93138 4.03694 -1.06317 64 70 136 255 
2.83281 3.90425 -1.07027 63 72 137 255 
2.72862 3.75913 -1.07581 59 81 139 255 
2.62254 3.61172 -1.07899 59 82 139 255 
2.52891 3.48523 -1.0864 62 74 137 255 
2.45463 3.37684 -1.09132 61 78 138 255 
2.37829 3.27168 -1.09742 62 76 138 255 
2.29603 3.1609 -1.10109 60 79 138 255 
2.20937 3.04709 -1.10275 66 65 134 255 
10.6232 14.5492 5.41154 72 28 110 255 
5.90428 8.10088 2.89903 70 48 126 255 
5.8968 8.0967 2.79098 57 86 140 255 
5.92583 8.13622 2.70268 63 72 137 255 
5.54461 7.60204 2.44216 53 95 141 255 
5.77695 7.92328 2.4412 62 76 138 255 
5.67488 7.78058 2.29958 60 79 138 255 
5.80244 7.95225 2.2546 60 79 138 255 
5.76221 7.90328 2.15762 54 93 141 255 
5.74088 7.87092 2.04766 44 115 142 255 
5.84452 8.00436 1.98581 48 105 142 255 
5.84993 8.0056 1.89143 56 89 140 255 
6.49518 8.9086 2.01153 71 45 123 255 
5.39369 7.39221 1.57897 53 94 141 255 
6.65657 9.10982 1.83548 61 77 138 255 
5.35176 7.31048 1.38962 57 85 140 255 
5.36799 7.35988 1.32244 48 105 142 255 
20.5686 28.1795 4.72321 71 14 97 255 
17.8882 24.4539 3.81144 72 22 104 255 
17.8678 24.3895 3.52496 71 17 100 255 
17.8124 24.422 3.27844 71 14 97 255 
17.8608 24.4429 2.99499 71 17 100 255 
17.9065 24.47 2.7115 71 16 99 255 
19.5848 26.7039 2.65281 71 14 97 255 
21.0074 28.7921 2.57355 71 16 99 255 
21.1871 28.9843 2.2525 72 24 106 255 
37.6479 51.391 3.39442 70 7 90 255 
37.1368 50.5991 2.75134 69 5 89 255 
33.3116 45.6224 2.03189 69 4 87 255 
0 0 0 68 2 86 255 
0 0 0 68 1 84 255 
0 0 0 68 2 86 255 
17.9947 24.6359 -0.00532465 69 5 89 255 
14.0543 19.1984 -0.228402 70 11 94 255 
11.6394 15.8709 -0.371032 72 24 106 255 
10.0014 13.607 -0.477603 72 28 110 255 
8.99727 12.3043 -0.553606 72 37 118 255 
8.40025 11.4665 -0.647951 72 40 120 255 
7.42194 10.1164 -0.690504 71 46 124 255 
7.44385 10.1238 -0.810398 68 57 131 255 
7.00968 9.58267 -0.861467 60 79 138 255 
6.36074 8.67616 -0.880689 69 55 129 255 
5.86845 7.99019 -0.905708 69 56 130 255 
5.51791 7.50446 -0.939586 62 76 138 255 
5.1322 7.00834 -0.946731 61 78 138 255 
4.82925 6.58477 -0.967935 56 89 140 255 
4.54565 6.18687 -0.98348 58 84 140 255 
4.29424 5.83599 -0.997682 57 86 140 255 
4.08296 5.56943 -1.00867 57 85 140 255 
3.86044 5.25994 -1.01472 57 86 140 255 
3.6474 4.96249 -1.01626 63 71 136 255 
3.49874 4.75488 -1.03243 63 72 137 255 
3.33591 4.54376 -1.03456 57 86 140 255 
3.21212 4.37178 -1.04665 57 85 140 255 
3.07963 4.19001 -1.05512 60 79 138 255 
2.95146 4.01257 -1.0615 62 73 137 255 
2.8492 3.87657 -1.06745 62 74 137 255 
2.75683 3.74938 -1.07784 59 81 139 255 
2.6268 3.57129 -1.07171 60 79 138 255 
2.54967 3.46887 -1.08616 64 70 136 255 
2.48104 3.3695 -1.09385 58 84 140 255 
2.4029 3.26324 -1.09952 61 78 138 255 
2.30112 3.12737 -1.09431 63 71 136 255 
2.23597 3.0443 -1.10668 66 64 134 255 
10.8461 14.6647 5.47915 72 41 121 255 
5.92934 8.03127 2.88708 70 52 128 255 
10.6798 14.4766 5.01266 72 24 106 255 
10.1687 13.7832 4.59912 72 37 118 255 
5.7913 7.8388 2.52958 72 40 120 255 
5.80355 7.85802 2.43202 49 104 142 255 
5.75835 7.79412 2.31398 62 73 137 255 
5.86387 7.93374 2.25951 60 80 139 255 
5.89877 7.98718 2.19036 61 78 138 255 
6.38397 8.64075 2.25808 66 65 134 255 
5.80374 7.84695 1.95556 52 97 141 255 
7.29274 9.8526 2.33833 71 42 122 255 
5.71574 7.73934 1.7554 72 40 120 255 
6.53892 8.84725 1.8983 56 89 140 255 
6.81334 9.20526 1.8631 66 65 134 255 
5.42831 7.32038 1.39781 44 114 142 255 
6.52506 8.83197 1.59411 52 97 141 255 
6.63544 8.97457 1.51103 50 102 142 255 
18.0042 24.2983 3.80432 72 20 103 255 
18.1485 24.4565 3.55067 70 8 92 255 
17.8455 24.1547 3.2572 71 19 101 255 
17.9323 24.2273 2.98199 71 14 97 255 
17.5901 23.7307 2.64149 71 16 99 255 
23.4314 31.5411 3.14757 70 8 92 255 
22.5632 30.5292 2.74114 71 14 97 255 
22.9675 31.0186 2.4215 71 13 96 255 
21.2675 28.6605 1.90163 70 7 90 255 
0 0 0 68 2 86 255 
0 0 0 68 1 84 255 
32.7192 44.1565 1.45831 69 5 89 255 
20.6428 27.8085 0.592427 70 8 92 255 
20.6938 27.8155 0.272295 69 4 87 255 
18.2853 24.714 -0.00536567 70 7 90 255 
14.2636 19.2355 -0.229881 71 13 96 255 
11.73 15.7903 -0.370824 72 24 106 255 
10.1038 13.5711 -0.478508 72 28 110 255 
9.06427 12.2377 -0.553098 72 35 116 255 
8.46331 11.4051 -0.647404 71 42 122 255 
7.89541 10.6245 -0.728475 71 46 124 255 
7.42774 9.97307 -0.801967 69 53 129 255 
7.07369 9.54669 -0.862118 61 77 138 255 
6.40851 8.62977 -0.879955 70 50 126 255 
5.91439 7.95003 -0.905253 69 55 129 255 
5.56504 7.47206 -0.939787 64 69 136 255 
5.17155 6.97193 -0.946081 59 82 139 255 
4.86186 6.54465 -0.966405 54 92 141 255 
4.58116 6.15568 -0.982972 55 90 140 255 
4.32878 5.80794 -0.99741 57 86 140 255 
4.11882 5.54665 -1.0091 57 86 140 255 
3.89264 5.23615 -1.01472 57 85 140 255 
3.68603 4.95109 -1.01854 56 89 140 255 
3.52314 4.72701 -1.03105 62 73 137 255 
3.36666 4.52715 -1.03546 60 80 139 255 
3.24298 4.3575 -1.04797 59 82 139 255 
3.10119 4.16553 -1.05373 60 80 139 255 
2.97953 3.99909 -1.06275 64 69 136 255 
2.87876 3.86685 -1.06962 62 74 137 255 
2.76 3.70583 -1.07017 59 82 139 255 
2.66027 3.57069 -1.07641 60 80 139 255 
2.59233 3.48193 -1.09521 61 77 138 255 
2.50167 3.35422 -1.09385 60 80 139 255 
2.42172 3.24689 -1.09899 59 82 139 255 
2.32372 3.11783 -1.09594 62 73 137 255 
2.25117 3.0259 -1.105 65 66 135 255 
8.90146 11.8822 4.45985 70 50 126 255 
10.6505 14.2424 5.14324 72 36 117 255 
5.93459 7.94193 2.76253 71 46 124 255 
11.1474 14.9174 5.0003 72 33 115 255 
8.66412 11.578 3.7533 72 28 110 255 
5.76214 7.7026 2.39481 50 102 142 255 
5.99547 8.01173 2.38946 46 110 142 255 
5.82598 7.78212 2.22647 53 94 141 255 
5.78506 7.73345 2.13048 64 70 136 255 
6.10617 8.15951 2.14207 70 48 126 255 
5.79005 7.72879 1.93493 53 94 141 255 
6.01608 8.02438 1.91316 72 33 115 255 
6.68946 8.94245 2.03756 68 57 131 255 
6.89605 9.21165 1.98553 69 55 129 255 
5.43868 7.2545 1.475 55 91 141 255 
6.52382 8.68584 1.66615 72 41 121 255 
6.52813 8.72362 1.58176 50 102 142 255 
5.41563 7.2315 1.22313 42 119 142 255 
17.8606 23.7977 3.74304 72 23 105 255 
17.9276 23.8516 3.47875 71 13 96 255 
17.8302 23.8267 3.22766 72 23 105 255 
17.8085 23.7537 2.9371 72 20 103 255 
20.5048 27.311 3.05397 70 7 90 255 
20.2874 26.9618 2.70296 70 7 90 255 
20.2677 27.0741 2.44204 70 7 90 255 
23.3801 31.1741 2.44479 71 17 100 255 
0 0 0 69 4 87 255 
38.1029 50.6017 2.7767 70 7 90 255 
37.9595 50.6705 2.27729 70 7 90 255 
33.4617 44.5842 1.47919 69 5 89 255 
0 0 0 68 2 86 255 
18.6495 24.7491 0.243392 69 5 89 255 
18.2459 24.3468 -0.00531016 70 11 94 255 
14.3177 19.0629 -0.228863 71 14 97 255 
11.8694 15.7748 -0.372162 72 22 104 255 
10.1748 13.4929 -0.477942 72 27 109 255 
9.15299 12.2002 -0.553932 72 36 117 255 
8.50612 11.317 -0.645355 72 40 120 255 
7.95865 10.5735 -0.72831 71 45 123 255 
7.47798 9.91296 -0.800808 69 55 129 255 
7.03515 9.37388 -0.850395 63 72 137 255 
6.46014 8.58869 -0.879792 70 50 126 255 
5.96546 7.91677 -0.905617 67 61 132 255 
5.5958 7.41791 -0.937278 60 80 139 255 
5.2202 6.94802 -0.947164 58 84 140 255 
4.90252 6.51549 -0.966523 54 92 141 255 
4.62064 6.12983 -0.983353 58 84 140 255 
4.3721 5.79155 -0.999183 54 93 141 255 
4.15397 5.52286 -1.00939 54 93 141 255 
3.93778 5.22953 -1.0181 61 78 138 255 
3.71337 4.92444 -1.01772 59 81 139 255 
3.55446 4.70845 -1.03174 58 83 139 255 
3.38964 4.50012 -1.03401 58 84 140 255 
3.25311 4.31557 -1.04267 61 78 138 255 
3.12433 4.1433 -1.05294 62 74 137 255 
3.00755 3.98542 -1.064 65 68 135 255 
2.90713 3.85535 -1.07135 58 83 139 255 
2.79559 3.70594 -1.07513 60 80 139 255 
2.68916 3.56361 -1.07923 61 77 138 255 
2.60956 3.46054 -1.0935 60 79 138 255 
2.51987 3.33572 -1.09284 58 83 139 255 
2.43229 3.21965 -1.0948 62 74 137 255 
2.35325 3.11734 -1.10082 63 72 137 255 
2.26797 3.00974 -1.10415 64 69 136 255 
8.85436 11.6694 4.40029 70 51 127 255 
10.7452 14.1867 5.14685 71 42 122 255 
10.8537 14.3406 5.01132 72 36 117 255 
10.3843 13.7197 4.62013 72 20 103 255 
10.3206 13.6166 4.43462 72 41 121 255 
6.04078 7.97261 2.49024 68 59 132 255 
6.05274 7.98564 2.39271 58 83 139 255 
5.84123 7.70351 2.21419 53 95 141 255 
5.80468 7.66123 2.12035 49 103 142 255 
5.89483 7.77717 2.05116 52 96 141 255 
5.81187 7.65953 1.92648 50 102 142 255 
5.81808 7.66188 1.83521 63 72 137 255 
6.90995 9.12 2.08764 60 80 139 255 
6.93934 9.15189 1.98179 66 64 134 255 
6.92042 9.11388 1.86165 58 83 139 255 
7.0408 9.25533 1.78364 57 86 140 255 
5.4888 7.24169 1.31914 48 106 142 255 
5.47367 7.21629 1.22621 42 118 142 255 
5.6158 7.38773 1.16738 49 104 142 255 
17.7969 23.3776 3.42548 72 20 103 255 
17.647 23.2827 3.16857 72 23 105 255 
17.7673 23.3983 2.90658 70 7 90 255 
25.7309 33.8374 3.80134 70 8 92 255 
20.2138 26.5236 2.67141 70 8 92 255 
20.0719 26.4724 2.39883 71 19 101 255 
20.3858 26.837 2.11443 71 16 99 255 
20.2252 26.5683 1.77915 70 7 90 255 
0 0 0 69 4 87 255 
38.254 50.4159 2.27635 70 11 94 255 
33.8242 44.4958 1.48312 69 5 89 255 
18.7497 24.621 0.529384 71 16 99 255 
17.6568 23.135 0.22858 69 4 87 255 
17.9264 23.6171 -0.0051749 69 5 89 255 
14.4374 18.9786 -0.228911 71 13 96 255 
11.966 15.7017 -0.372162 72 23 105 255 
10.2702 13.4469 -0.478536 72 27 109 255 
9.24702 12.1693 -0.555094 72 36 117 255 
8.58266 11.2742 -0.645902 72 38 119 255 
8.03185 10.5355 -0.729079 71 44 122 255 
7.53624 9.86372 -0.800551 70 48 126 255 
7.06718 9.29718 -0.847355 63 72 137 255 
6.4946 8.52511 -0.877344 70 52 128 255 
5.9958 7.85627 -0.902888 68 58 131 255 
5.62792 7.36604 -0.93507 56 89 140 255 
5.27598 6.93326 -0.949548 58 84 140 255 
4.94602 6.49003 -0.967229 56 89 140 255 
4.66177 6.1061 -0.984115 56 89 140 255 
4.41056 5.76855 -0.999865 54 93 141 255 
4.19078 5.5012 -1.01011 54 93 141 255 
3.97159 5.20763 -1.01856 58 83 139 255 
3.74651 4.90549 -1.01854 58 83 139 255 
3.5749 4.67559 -1.02933 62 73 137 255 
3.42375 4.48784 -1.036 58 84 140 255 
3.27893 4.29475 -1.04248 59 81 139 255 
3.1604 4.13807 -1.05652 62 73 137 255 
3.04085 3.97855 -1.06713 59 82 139 255 
2.93666 3.84519 -1.07352 60 79 138 255 
2.83248 3.70729 -1.08055 59 82 139 255 
2.71629 3.554 -1.08134 59 81 139 255 
2.62721 3.43984 -1.09203 61 77 138 255 
2.52853 3.30482 -1.08778 58 84 140 255 
2.45376 3.20696 -1.09559 60 79 138 255 
2.37408 3.10513 -1.10164 61 77 138 255 
2.2794 2.98661 -1.10078 66 63 133 255 
8.88261 11.5586 4.379 68 57 131 255 
10.4333 13.6007 4.95738 72 37 118 255 
10.9585 14.2959 5.0191 71 42 122 255 
10.3637 13.5193 4.57397 72 32 113 255 
10.4252 13.5807 4.44366 70 51 127 255 
8.78405 11.4466 3.5921 69 53 129 255 
6.00212 7.81874 2.35369 53 95 141 255 
6.02316 7.84302 2.26487 49 103 142 255 
6.26119 8.15924 2.26877 67 61 132 255 
6.60689 8.60639 2.28051 72 35 116 255 
5.851 7.61362 1.92393 49 103 142 255 
5.82426 7.57309 1.82247 63 72 137 255 
7.40957 9.65575 2.22064 69 55 129 255 
5.68392 7.40142 1.61026 71 42 122 255 
7.15492 9.30363 1.90934 66 63 133 255 
6.87786 8.92694 1.72846 71 42 122 255 
5.5036 7.16941 1.3121 52 97 141 255 
5.48344 7.13778 1.21857 45 112 142 255 
5.62048 7.30046 1.15902 61 77 138 255 
17.9327 23.2585 3.42409 71 14 97 255 
17.8446 23.2457 3.17838 71 19 101 255 
20.4227 26.5555 3.31427 71 14 97 255 
20.3139 26.3763 2.9771 71 14 97 255 
20.3067 26.3091 2.66231 71 13 96 255 
20.2716 26.3978 2.4033 71 17 100 255 
20.3456 26.4456 2.09339 72 23 105 255 
20.3842 26.4389 1.77883 72 23 105 255 
20.4439 26.4677 1.46604 71 17 100 255 
20.4118 26.5612 1.20491 71 16 99 255 
20.4249 26.5295 0.888432 70 10 93 255 
17.7866 23.0614 0.498188 70 8 92 255 
0 0 0 68 2 86 255 
17.4785 22.7361 -0.00500526 70 7 90 255 
14.5731 18.915 -0.229218 71 14 97 255 
12.0358 15.5939 -0.371352 72 23 105 255 
10.3507 13.3812 -0.478451 72 29 111 255 
9.31481 12.1036 -0.554695 72 35 116 255 
8.68278 11.2616 -0.648224 72 41 121 255 
8.1354 10.5366 -0.732596 72 41 121 255 
7.60456 9.82755 -0.801388 71 42 122 255 
7.12531 9.25523 -0.8475 65 68 135 255 
6.55409 8.49457 -0.878323 70 52 128 255 
6.04876 7.82564 -0.903615 69 55 129 255 
5.66875 7.32587 -0.934368 64 70 136 255 
5.3166 6.89839 -0.949223 57 86 140 255 
4.98878 6.46349 -0.967818 57 86 140 255 
4.70218 6.0813 -0.984751 59 82 139 255 
4.43617 5.72884 -0.997682 56 89 140 255 
4.22324 5.47381 -1.00982 53 95 141 255 
4.00165 5.18082 -1.0181 60 79 138 255 
3.76809 4.87148 -1.01626 61 78 138 255 
3.60895 4.66058 -1.03088 61 78 138 255 
3.45002 4.46519 -1.03564 59 82 139 255 
3.30703 4.27688 -1.04305 61 78 138 255 
3.19712 4.13333 -1.06029 59 82 139 255 
3.06461 3.95904 -1.06692 59 81 139 255 
2.95124 3.81552 -1.07027 57 85 140 255 
2.84682 3.67906 -1.07739 60 79 138 255 
2.75351 3.55725 -1.08745 59 82 139 255 
2.64293 3.41675 -1.08983 61 78 138 255 
2.55409 3.29613 -1.09006 57 86 140 255 
2.48935 3.21244 -1.10266 60 80 139 255 
2.39014 3.0867 -1.10028 61 77 138 255 
2.2924 2.96573 -1.09825 69 56 130 255 
9.14866 11.7549 4.47452 64 69 136 255 
11.0388 14.2085 5.20353 72 32 113 255 
10.9485 14.1028 4.97481 71 42 122 255 
10.5921 13.6432 4.63776 71 45 123 255 
10.5523 13.573 4.46225 72 35 116 255 
10.9264 14.0588 4.43281 72 22 104 255 
6.05774 7.79174 2.35671 52 96 141 255 
6.11606 7.86362 2.28162 57 86 140 255 
6.6503 8.55708 2.3907 72 40 120 255 
12.137 15.6109 4.15621 72 20 103 255 
5.90061 7.58144 1.92491 50 102 142 255 
7.03798 9.03597 2.18487 71 46 124 255 
7.65702 9.85245 2.27664 72 38 119 255 
6.83938 8.79379 1.92227 71 47 125 255 
7.07844 9.08823 1.87402 68 59 132 255 
6.92095 8.86976 1.72558 48 106 142 255 
5.54506 7.13238 1.31152 50 101 142 255 
5.62388 7.22836 1.2399 41 123 142 255 
5.65174 7.24862 1.15627 71 19 101 255 
15.3523 19.6611 2.9083 70 11 94 255 
17.7513 22.8328 3.13676 71 17 100 255 
20.2942 26.0559 3.2674 70 11 94 255 
20.3547 26.0965 2.95956 70 11 94 255 
26.425 33.805 3.43719 70 10 93 255 
26.2527 33.7556 3.08777 71 14 97 255 
26.5257 34.0443 2.70772 71 17 100 255 
26.2775 33.6536 2.27504 70 7 90 255 
39.1682 50.0711 2.78668 69 5 89 255 
20.5799 26.4425 1.20523 71 13 96 255 
20.5615 26.3706 0.887318 71 16 99 255 
20.5916 26.3622 0.572211 71 19 101 255 
16.555 21.1481 0.21094 69 5 89 255 
16.7552 21.5205 -0.00476021 70 8 92 255 
14.7233 18.8694 -0.229756 70 11 94 255 
12.1393 15.53 -0.371597 71 19 101 255 
10.3956 13.2702 -0.476755 72 29 111 255 
9.37907 12.0336 -0.554114 72 33 115 255 
8.76525 11.2255 -0.649226 71 44 122 255 
8.20482 10.4928 -0.733035 71 45 123 255 
7.66779 9.78463 -0.801709 71 46 124 255 
7.19178 9.22392 -0.848658 62 73 137 255 
6.62204 8.47461 -0.880444 69 55 129 255 
6.1028 7.79622 -0.904525 67 62 133 255 
5.71851 7.29721 -0.93517 66 64 134 255 
5.3521 6.85702 -0.948031 56 89 140 255 
5.01184 6.41163 -0.964639 56 89 140 255 
4.74063 6.0539 -0.985005 57 85 140 255 
4.47063 5.70073 -0.997546 51 98 141 255 
4.25797 5.44936 -1.01011 50 100 142 255 
4.03154 5.15383 -1.01764 58 84 140 255 
3.7906 4.83895 -1.0143 62 74 137 255 
3.64174 4.64377 -1.03209 62 74 137 255 
3.46826 4.43232 -1.03293 60 79 138 255 
3.33805 4.26269 -1.04456 60 79 138 255 
3.19463 4.07814 -1.05115 59 82 139 255 
3.07436 3.92169 -1.06192 62 73 137 255 
2.96737 3.78812 -1.06767 60 80 139 255 
2.85913 3.64848 -1.07355 60 79 138 255 
2.77649 3.54181 -1.08792 58 83 139 255 
2.65906 3.39437 -1.08787 59 81 139 255 
2.57666 3.28344 -1.09107 60 79 138 255 
2.49948 3.18496 -1.09847 63 71 136 255 
2.4126 3.07652 -1.10191 62 74 137 255 
2.30346 2.94254 -1.09487 68 59 132 255 
9.23306 11.7143 4.48056 67 62 133 255 
9.31282 11.8364 4.35563 71 17 100 255 
11.1557 14.1891 5.0293 72 31 112 255 
11.2284 14.2809 4.8779 72 26 108 255 
10.8054 13.724 4.5336 70 48 126 255 
11.3419 14.4101 4.56544 72 31 112 255 
6.14696 7.80716 2.37274 67 61 132 255 
6.15575 7.81522 2.27849 72 24 106 255 
6.39587 8.1263 2.28127 70 48 126 255 
6.77375 8.60309 2.30149 50 100 142 255 
5.8584 7.43267 1.89623 53 95 141 255 
5.89607 7.47482 1.8161 62 73 137 255 
7.03954 8.94411 2.07669 67 62 133 255 
5.80664 7.37214 1.61927 46 110 142 255 
5.89565 7.47455 1.5487 59 81 139 255 
6.95809 8.80541 1.72133 56 88 140 255 
5.66524 7.19542 1.32948 59 81 139 255 
5.6712 7.19761 1.24057 45 112 142 255 
5.69365 7.21069 1.15578 55 90 140 255 
15.4517 19.5401 2.90436 71 14 97 255 
15.5055 19.6935 2.71851 72 23 105 255 
17.9164 22.7142 2.86208 71 14 97 255 
16.641 21.0673 2.40074 72 28 110 255 
26.5218 33.5031 3.42297 71 13 96 255 
26.4482 33.5798 3.08648 71 19 101 255 
26.4262 33.4907 2.67654 72 20 103 255 
0 0 0 69 4 87 255 
39.4728 49.8275 2.78655 70 7 90 255 
39.2423 49.788 2.28024 70 7 90 255 
34.9448 44.2548 1.49627 70 7 90 255 
33.4016 42.2254 0.920966 70 8 92 255 
15.7824 19.9083 0.199536 69 4 87 255 
16.2182 20.5693 -0.00457172 69 4 87 255 
14.9033 18.8603 -0.230754 71 13 96 255 
12.189 15.398 -0.370221 72 22 104 255 
10.501 13.2367 -0.477857 72 27 109 255 
9.48369 12.015 -0.555929 72 33 115 255 
8.81413 11.1464 -0.647769 72 38 119 255 
8.25975 10.4305 -0.732211 71 42 122 255 
7.72148 9.72958 -0.801066 71 47 125 255 
7.25257 9.18509 -0.849164 65 68 135 255 
6.65598 8.41115 -0.878078 70 52 128 255 
6.15052 7.75863 -0.904525 68 57 131 255 
5.75699 7.25419 -0.934167 65 66 135 255 
5.39223 6.82171 -0.947706 55 90 140 255 
5.06033 6.39244 -0.966405 55 91 141 255 
4.77276 6.01848 -0.983988 60 79 138 255 
4.50244 5.66932 -0.996864 55 90 140 255 
4.28825 5.41925 -1.00939 50 100 142 255 
4.05082 5.11351 -1.01457 57 85 140 255 
3.82881 4.82642 -1.01658 62 76 138 255 
3.67568 4.62828 -1.03364 62 73 137 255 
3.5125 4.43254 -1.03799 59 82 139 255 
3.38306 4.26598 -1.05043 57 85 140 255 
3.21898 4.0577 -1.05095 57 86 140 255 
3.09654 3.90045 -1.06129 61 77 138 255 
3.00027 3.78207 -1.07114 62 76 138 255 
2.8857 3.63621 -1.07513 58 83 139 255 
2.7885 3.51253 -1.08416 58 83 139 255 
2.66899 3.36431 -1.08347 59 81 139 255 
2.59796 3.26908 -1.09158 61 78 138 255 
2.51778 3.16805 -1.09795 62 74 137 255 
2.43503 3.06618 -1.10354 65 68 135 255 
2.32445 2.93211 -1.09628 66 64 134 255 
9.16616 11.4838 4.41381 66 64 134 255 
9.417 11.8188 4.37035 72 37 118 255 
9.00211 11.3064 4.02704 71 42 122 255 
10.8688 13.6504 4.68522 72 27 109 255 
8.86494 11.1183 3.69074 71 46 124 255 
11.4265 14.3357 4.56399 72 32 113 255 
8.99256 11.2783 3.44437 70 50 126 255 
7.49645 9.39815 2.75334 72 32 113 255 
6.79376 8.5237 2.40449 71 45 123 255 
7.1516 8.96919 2.41112 71 44 122 255 
5.91919 7.41574 1.90114 61 77 138 255 
5.90872 7.39706 1.80598 55 90 140 255 
5.85079 7.34062 1.71268 64 70 136 255 
5.83394 7.31403 1.61434 49 103 142 255 
5.9377 7.43361 1.54774 41 121 142 255 
6.98234 8.72551 1.71406 51 98 141 255 
5.71607 7.16903 1.33106 54 93 141 255 
5.71031 7.15648 1.2395 44 113 142 255 
5.757 7.19964 1.15964 42 120 142 255 
16.5076 20.6141 3.079 72 24 106 255 
16.4479 20.6287 2.86148 72 26 108 255 
16.6456 20.8388 2.63859 70 10 93 255 
18.0846 22.6083 2.58894 70 11 94 255 
27.023 33.7092 3.4609 71 13 96 255 
26.7918 33.59 3.10246 71 17 100 255 
26.7633 33.4932 2.68981 71 14 97 255 
33.3709 41.6736 2.84468 69 4 87 255 
39.7697 49.5742 2.78598 70 8 92 255 
39.6462 49.6704 2.28595 70 10 93 255 
39.6713 49.6116 1.68559 69 4 87 255 
33.6538 42.0119 0.920795 70 8 92 255 
15.0786 18.7825 0.189177 69 5 89 255 
15.4756 19.3816 -0.00432877 70 7 90 255 
15.055 18.8138 -0.231311 71 16 99 255 
12.3033 15.3479 -0.370824 71 19 101 255 
10.5658 13.1518 -0.477122 72 27 109 255 
9.57907 11.9839 -0.557199 72 37 118 255 
8.90234 11.1171 -0.649226 72 41 121 255 
8.29798 10.3477 -0.729958 72 40 120 255 
7.79916 9.70458 -0.802932 71 45 123 255 
7.31377 9.14665 -0.849743 63 72 137 255 
6.68628 8.34371 -0.875304 71 45 123 255 
6.19427 7.71608 -0.903979 68 58 131 255 
5.7802 7.19236 -0.930755 68 58 131 255 
5.4433 6.80014 -0.949331 55 91 141 255 
5.10877 6.37289 -0.968171 52 96 141 255 
4.81332 5.99372 -0.984751 56 89 140 255 
4.51976 5.61997 -0.993044 53 95 141 255 
4.32019 5.39129 -1.0091 50 102 142 255 
4.07964 5.08547 -1.01395 55 91 141 255 
3.86144 4.80668 -1.0174 61 78 138 255 
3.70833 4.61102 -1.03484 63 72 137 255 
3.54887 4.42241 -1.04069 57 85 140 255 
3.40609 4.24131 -1.04949 55 91 141 255 
3.2475 4.04245 -1.05214 57 86 140 255 
3.12716 3.88977 -1.06359 59 81 139 255 
3.02097 3.76055 -1.07027 60 80 139 255 
2.91955 3.63287 -1.07942 54 92 141 255 
2.80573 3.49005 -1.08252 59 82 139 255 
2.70295 3.3645 -1.08885 62 76 138 255 
2.61919 3.25459 -1.09208 64 70 136 255 
2.54624 3.16382 -1.10187 63 71 136 255 
2.46164 3.06094 -1.10706 64 70 136 255 
2.35021 2.92752 -1.09993 65 68 135 255 
10.3695 12.8291 4.95526 72 36 117 255 
10.8695 13.4714 5.006 70 48 126 255 
10.8465 13.4527 4.8151 72 31 112 255 
9.00282 11.1655 3.85123 64 69 136 255 
8.92205 11.0501 3.68622 60 79 138 255 
9.06354 11.2291 3.59258 64 69 136 255 
10.481 12.9808 3.98391 71 45 123 255 
7.5895 9.39595 2.76629 65 66 135 255 
6.85329 8.49097 2.40707 62 73 137 255 
6.63106 8.21247 2.21859 63 72 137 255 
6.99392 8.65275 2.22923 61 77 138 255 
5.94288 7.34692 1.80261 47 108 142 255 
5.87348 7.27702 1.70622 50 100 142 255 
5.87747 7.27657 1.614 45 113 142 255 
7.02603 8.68628 1.8175 69 53 129 255 
7.04633 8.69556 1.71663 59 81 139 255 
6.98344 8.64913 1.61379 61 77 138 255 
5.73854 7.10203 1.23614 69 56 130 255 
5.81792 7.185 1.16301 38 130 142 255 
15.5114 19.1283 2.87124 72 20 103 255 
16.6547 20.6272 2.87539 71 14 97 255 
18.3378 22.6705 2.88472 70 11 94 255 
18.2449 22.524 2.59206 71 16 99 255 
27.2966 33.6255 3.46945 69 4 87 255 
26.973 33.3947 3.09966 71 16 99 255 
26.6833 32.9761 2.66138 70 7 90 255 
34.1316 42.0917 2.88746 69 5 89 255 
40.0908 49.351 2.78721 69 4 87 255 
33.4501 41.3844 1.91402 69 5 89 255 
33.4929 41.3622 1.41227 70 8 92 255 
33.9481 41.8504 0.921804 69 4 87 255 
14.7917 18.1954 0.184174 69 4 87 255 
15.0724 18.6408 -0.0041839 70 8 92 255 
15.0002 18.5113 -0.228719 70 10 93 255 
12.425 15.3063 -0.371654 72 20 103 255 
10.6286 13.065 -0.476331 72 26 108 255 
9.65871 11.9327 -0.557562 72 32 113 255 
8.97982 11.0739 -0.649909 71 46 124 255 
8.38901 10.3307 -0.732376 71 47 125 255 
7.87746 9.67976 -0.804863 71 47 125 255 
7.37352 9.10625 -0.850177 66 65 134 255 
6.72855 8.29169 -0.874162 70 52 128 255 
6.24024 7.67638 -0.903797 69 55 129 255 
5.81606 7.14673 -0.92945 68 58 131 255 
5.47929 6.75966 -0.948356 58 83 139 255 
5.14966 6.34373 -0.968524 51 99 141 255 
4.85689 5.97254 -0.986148 56 88 140 255 
4.55666 5.5952 -0.99359 54 93 141 255 
4.35319 5.36468 -1.0091 49 103 142 255 
4.11638 5.06725 -1.01534 57 85 140 255 
3.89709 4.79055 -1.01902 58 83 139 255 
3.73344 4.58436 -1.03398 63 72 137 255 
3.57779 4.40284 -1.04123 54 93 141 255 
3.424 4.21043 -1.04702 58 84 140 255 
3.28028 4.03233 -1.05473 56 88 140 255 
3.16208 3.88416 -1.06734 57 86 140 255 
3.04029 3.7374 -1.06897 57 85 140 255 
2.94363 3.61715 -1.0801 56 89 140 255 
2.82219 3.46674 -1.08064 56 88 140 255 
2.73211 3.35839 -1.09228 62 76 138 255 
2.62566 3.22196 -1.08652 63 72 137 255 
2.56378 3.1459 -1.10109 64 70 136 255 
2.47976 3.04503 -1.10679 65 68 135 255 
2.38024 2.92794 -1.10556 66 65 134 255 
11.2712 13.7709 5.34566 72 41 121 255 
11.4133 13.969 5.21686 72 29 111 255 
10.9033 13.3546 4.80383 71 47 125 255 
10.7881 13.213 4.58019 70 50 126 255 
9.05463 11.0746 3.71285 70 48 126 255 
9.13964 11.1823 3.59548 65 68 135 255 
10.5568 12.9118 3.98251 71 45 123 255 
10.7648 13.161 3.89415 72 33 115 255 
7.68824 9.40675 2.68 62 73 137 255 
6.93468 8.48149 2.30272 53 95 141 255 
5.98242 7.30916 1.8925 64 70 136 255 
5.99905 7.32399 1.80598 54 93 141 255 
5.95475 7.28579 1.71681 50 102 142 255 
5.99875 7.33419 1.63491 46 109 142 255 
7.15299 8.7331 1.83644 57 86 140 255 
15.0913 18.3917 3.649 72 41 121 255 
5.86313 7.17113 1.34471 50 102 142 255 
5.80084 7.0897 1.24017 52 96 141 255 
16.0174 19.5348 3.17788 71 16 99 255 
16.8293 20.4952 3.09185 71 13 96 255 
15.6728 19.1692 2.68551 72 29 111 255 
15.7966 19.2857 2.46631 72 35 116 255 
15.9218 19.4113 2.24505 72 26 108 255 
16.0771 19.5582 2.02814 72 27 109 255 
26.9627 32.9661 3.07517 71 13 96 255 
26.813 32.7238 2.65424 71 14 97 255 
34.8455 42.4371 2.92577 69 4 87 255 
40.4728 49.2013 2.79273 69 5 89 255 
40.3616 49.3132 2.29214 69 4 87 255 
0 0 0 69 4 87 255 
34.3134 41.7742 0.924746 70 8 92 255 
14.5281 17.6488 0.17954 69 4 87 255 
14.584 17.8122 -0.00401792 70 7 90 255 
14.3466 17.4843 -0.217114 69 5 89 255 
12.5161 15.2267 -0.371578 72 22 104 255 
10.6933 12.981 -0.475652 72 24 106 255 
9.72795 11.8686 -0.557344 72 28 110 255 
9.04697 11.0178 -0.649863 72 40 120 255 
8.45161 10.2783 -0.732321 71 47 125 255 
7.95765 9.65666 -0.806987 70 50 126 255 
7.43685 9.0701 -0.851046 63 71 136 255 
6.78816 8.26103 -0.875304 71 46 124 255 
6.28976 7.64102 -0.904161 70 52 128 255 
5.85284 7.10246 -0.928346 67 61 132 255 
5.51436 6.71823 -0.947272 56 89 140 255 
5.17903 6.30051 -0.966758 52 97 141 255 
4.88778 5.93573 -0.985005 54 92 141 255 
4.60288 5.58166 -0.996182 53 94 141 255 
4.38414 5.33558 -1.00867 50 102 142 255 
4.14927 5.04418 -1.0158 57 86 140 255 
3.92641 4.76655 -1.01902 59 82 139 255 
3.76338 4.56364 -1.0345 62 76 138 255 
3.60412 4.38005 -1.04105 53 94 141 255 
3.45788 4.19919 -1.04949 53 94 141 255 
3.30621 4.01364 -1.05512 58 83 139 255 
3.1871 3.86619 -1.06776 58 84 140 255 
3.06999 3.72696 -1.07135 59 81 139 255 
2.96206 3.59451 -1.07874 58 83 139 255 
2.84526 3.45161 -1.08134 58 84 140 255 
2.72738 3.31088 -1.08225 62 73 137 255 
2.64661 3.20728 -1.08702 59 81 139 255 
2.56092 3.10331 -1.09166 65 68 135 255 
2.50146 3.03347 -1.10815 62 73 137 255 
2.40914 2.92662 -1.11062 66 63 133 255 
11.6702 14.0813 5.49382 72 22 104 255 
11.121 13.4421 5.04545 72 28 110 255 
11.4073 13.7982 4.9885 72 29 111 255 
10.8967 13.1801 4.59186 70 51 127 255 
10.8439 13.0983 4.41352 72 33 115 255 
10.8495 13.1093 4.2364 71 44 122 255 
11.8323 14.292 4.43054 72 32 113 255 
7.51771 9.0769 2.69932 72 28 110 255 
7.729 9.33909 2.67419 62 76 138 255 
7.86779 9.50315 2.59316 71 47 125 255 
6.03279 7.27911 1.89426 55 90 140 255 
6.17557 7.44582 1.84533 64 70 136 255 
5.98617 7.2332 1.71304 47 107 142 255 
6.05306 7.30863 1.63746 50 102 142 255 
7.22535 8.71184 1.84126 58 84 140 255 
15.3675 18.4956 3.68827 72 32 113 255 
15.4939 18.7149 3.52713 72 33 115 255 
15.4476 18.6453 3.27804 71 44 122 255 
16.3366 19.6766 3.2172 72 24 106 255 
16.4004 19.7247 2.99075 71 19 101 255 
17.9799 21.7178 3.05794 71 13 96 255 
16.6204 20.0394 2.57568 70 7 90 255 
15.949 19.2029 2.23223 72 26 108 255 
16.7242 20.0928 2.09417 72 20 103 255 
16.336 19.725 1.84932 72 31 112 255 
16.4958 19.8821 1.62082 72 32 113 255 
16.777 20.1783 1.39824 72 24 106 255 
16.8428 20.221 1.15361 72 26 108 255 
16.8358 20.3142 0.949011 70 8 92 255 
16.9016 20.3568 0.702087 70 11 94 255 
16.9393 20.3663 0.453137 71 17 100 255 
14.4089 17.2866 0.176752 69 4 87 255 
14.1345 17.0487 -0.00386521 70 10 93 255 
14.1411 17.0199 -0.21242 70 11 94 255 
12.686 15.2418 -0.37384 72 20 103 255 
10.7766 12.9198 -0.475822 72 27 109 255 
9.79676 11.8041 -0.557126 72 31 112 255 
9.11121 10.9582 -0.649636 72 40 120 255 
8.51963 10.2324 -0.732761 71 44 122 255 
8.01611 9.60689 -0.806922 71 44 122 255 
7.48663 9.01739 -0.850395 64 69 136 255 
6.84 8.22076 -0.875467 70 48 126 255 
6.33908 7.60535 -0.904525 69 53 129 255 
5.89886 7.06947 -0.928747 65 66 135 255 
5.53514 6.6598 -0.943805 59 82 139 255 
5.21949 6.2709 -0.967111 50 100 142 255 
4.91712 5.89725 -0.983607 56 88 140 255 
4.63133 5.54647 -0.994954 52 97 141 255 
4.40983 5.30021 -1.00708 49 103 142 255 
4.1694 5.00572 -1.01318 58 84 140 255 
3.95811 4.7454 -1.01968 58 83 139 255 
3.80015 4.55105 -1.03691 60 79 138 255 
3.62715 4.35332 -1.03997 57 86 140 255 
3.48673 4.18167 -1.05043 55 91 141 255 
3.34019 4.00457 -1.05811 58 84 140 255 
3.20888 3.84431 -1.06713 57 86 140 255 
3.09281 3.70806 -1.07135 59 82 139 255 
2.98468 3.57702 -1.07897 59 81 139 255 
2.87635 3.44602 -1.0851 53 94 141 255 
2.74641 3.29259 -1.08176 63 71 136 255 
2.68547 3.21399 -1.09486 62 76 138 255 
2.57311 3.07939 -1.08878 63 71 136 255 
2.51633 3.01363 -1.10652 63 71 136 255 
2.44302 2.93095 -1.11793 66 63 133 255 
11.0182 13.1298 5.14887 72 35 116 255 
11.3242 13.5179 5.0999 72 32 113 255 
11.4788 13.7124 4.98286 72 38 119 255 
10.978 13.1137 4.59212 72 38 119 255 
10.9415 13.0523 4.42055 72 40 120 255 
9.13407 10.8997 3.5404 69 55 129 255 
7.20461 8.59437 2.67793 70 48 126 255 
7.50687 8.95143 2.67565 69 56 130 255 
7.74978 9.24808 2.66169 54 93 141 255 
7.04892 8.40851 2.30622 62 76 138 255 
6.10192 7.27124 1.90193 53 94 141 255 
6.11501 7.28142 1.81385 72 31 112 255 
6.19978 7.39841 1.76115 60 80 139 255 
15.5472 18.5393 4.17493 72 22 104 255 
15.2771 18.1918 3.86461 72 31 112 255 
15.4202 18.3291 3.67386 72 26 108 255 
15.4425 18.4216 3.48963 71 14 97 255 
15.4974 18.4734 3.26449 70 48 126 255 
15.641 18.6054 3.05769 70 8 92 255 
16.7904 19.9436 3.03951 70 11 94 255 
16.7065 19.9294 2.82051 72 20 103 255 
16.6413 19.8159 2.56003 71 16 99 255 
15.9543 18.9713 2.21664 72 24 106 255 
16.8728 20.0203 2.09737 72 20 103 255 
16.8367 20.0776 1.89203 72 27 109 255 
16.7368 19.9226 1.63247 72 24 106 255 
16.8844 20.0559 1.39691 72 27 109 255 
16.9859 20.1402 1.15493 72 23 105 255 
16.9582 20.2082 0.948904 72 31 112 255 
17.0301 20.2573 0.702246 72 28 110 255 
13.7554 16.3333 0.365277 72 24 106 255 
13.7639 16.3084 0.16761 71 44 122 255 
14.028 16.7105 -0.00380796 71 14 97 255 
13.9131 16.538 -0.207467 72 20 103 255 
12.8644 15.2646 -0.376328 72 20 103 255 
10.8654 12.8649 -0.476246 72 24 106 255 
9.87479 11.7506 -0.557453 72 33 115 255 
9.20144 10.9296 -0.651275 72 38 119 255 
8.59384 10.1936 -0.73375 72 41 121 255 
8.06782 9.54913 -0.806214 71 47 125 255 
7.52513 8.95143 -0.848513 63 71 136 255 
6.8916 8.18016 -0.87563 68 58 131 255 
6.36957 7.54728 -0.902251 69 56 130 255 
5.94277 7.0339 -0.928848 68 58 131 255 
5.54518 6.5892 -0.938605 65 66 135 255 
5.25147 6.23117 -0.965934 51 99 141 255 
4.94041 5.85181 -0.981066 58 84 140 255 
4.66271 5.51492 -0.994409 51 98 141 255 
4.43462 5.26397 -1.00534 54 93 141 255 
4.20003 4.98004 -1.01318 57 86 140 255 
3.98906 4.72328 -1.02016 54 93 141 255 
3.83118 4.53141 -1.03777 59 82 139 255 
3.64428 4.3197 -1.03726 53 94 141 255 
3.50409 4.15044 -1.04797 57 85 140 255 
3.37165 3.99224 -1.06029 57 86 140 255 
3.2444 3.83874 -1.07109 59 82 139 255 
3.12117 3.69572 -1.0733 60 80 139 255 
3.00028 3.55119 -1.07671 57 86 140 255 
2.89995 3.43128 -1.08604 56 89 140 255 
2.78282 3.29493 -1.08812 62 74 137 255 
2.70389 3.19598 -1.09436 62 76 138 255 
2.60193 3.07533 -1.09297 66 64 134 255 
2.51054 2.96947 -1.09594 66 64 134 255 
2.41949 2.86677 -1.09909 66 63 133 255 
10.8877 12.8138 5.05106 70 11 94 255 
11.1645 13.1625 4.99155 70 50 126 255 
11.1036 13.1002 4.78504 72 26 108 255 
10.8965 12.8553 4.52496 72 28 110 255 
9.24254 10.8891 3.70707 70 50 126 255 
7.30663 8.61112 2.81155 67 61 132 255 
7.33022 8.63602 2.70487 63 72 137 255 
7.8544 9.24996 2.77924 71 46 124 255 
7.6478 9.01346 2.60762 62 73 137 255 
7.09722 8.36137 2.30519 66 64 134 255 
6.1788 7.27177 1.91194 61 78 138 255 
14.8822 17.5018 4.38247 72 31 112 255 
7.25323 8.54842 2.04546 72 37 118 255 
7.22916 8.5138 1.92721 48 105 142 255 
15.6922 18.4549 3.94088 72 24 106 255 
16.3029 19.1386 3.8561 72 20 103 255 
15.4932 18.2533 3.4757 72 27 109 255 
15.5848 18.3478 3.25913 72 24 106 255 
15.3613 18.0467 2.9813 70 8 92 255 
17.185 20.16 3.08849 70 7 90 255 
16.905 19.9167 2.83334 72 20 103 255 
15.804 18.5861 2.41363 71 17 100 255 
15.8631 18.6296 2.18805 72 22 104 255 
21.7317 25.4668 2.68187 71 14 97 255 
27.0214 31.824 3.01453 69 5 89 255 
27.0706 31.8248 2.62131 70 8 92 255 
17.0946 20.0545 1.40409 69 4 87 255 
17.1377 20.069 1.15686 69 4 87 255 
17.0877 20.1106 0.949227 72 20 103 255 
14.0069 16.4552 0.57341 72 27 109 255 
13.3726 15.6826 0.352552 72 23 105 255 
13.398 15.6786 0.161979 71 44 122 255 
13.5331 15.9216 -0.00364704 72 35 116 255 
13.456 15.7969 -0.199202 70 48 126 255 
13.2862 15.5702 -0.385865 72 31 112 255 
10.9305 12.782 -0.475652 72 26 108 255 
9.96225 11.7081 -0.558324 72 29 111 255 
9.27675 10.8828 -0.651867 72 36 117 255 
8.66724 10.1536 -0.734684 72 38 119 255 
8.12626 9.49945 -0.806214 72 41 121 255 
7.57668 8.90129 -0.848151 64 69 136 255 
6.93519 8.13014 -0.874815 70 50 126 255 
6.42675 7.52093 -0.903797 68 57 131 255 
5.97094 6.97992 -0.926539 68 57 131 255 
5.60098 6.57322 -0.941205 62 76 138 255 
5.28832 6.19732 -0.965699 52 97 141 255 
4.97816 5.82365 -0.981447 56 88 140 255 
4.70677 5.49825 -0.996591 47 107 142 255 
4.47069 5.24118 -1.00621 49 103 142 255 
4.22923 4.95268 -1.01288 52 97 141 255 
4.02182 4.70322 -1.02114 54 92 141 255 
3.85891 4.50781 -1.03777 61 78 138 255 
3.69435 4.32493 -1.04394 53 95 141 255 
3.54161 4.14304 -1.05157 53 95 141 255 
3.3929 3.96775 -1.0593 58 84 140 255 
3.28125 3.83437 -1.07547 62 76 138 255 
3.15394 3.68837 -1.07677 56 89 140 255 
3.02898 3.54086 -1.07919 55 90 140 255 
2.92032 3.41268 -1.08581 57 86 140 255 
2.81181 3.28811 -1.09154 64 70 136 255 
2.7373 3.19549 -1.09992 61 78 138 255 
2.62703 3.06664 -1.09559 65 68 135 255 
2.53121 2.95693 -1.09703 63 71 136 255 
2.45262 2.87011 -1.10612 65 68 135 255 
10.9636 12.7438 5.04991 72 36 117 255 
11.1199 12.948 4.93599 71 46 124 255 
11.1863 13.0347 4.78612 72 36 117 255 
9.28321 10.8167 3.82737 66 64 134 255 
9.32116 10.8461 3.71185 68 58 131 255 
7.37261 8.58158 2.81662 72 35 116 255 
7.39892 8.60932 2.71067 58 83 139 255 
10.8787 12.6534 3.82182 72 31 112 255 
7.49552 8.72489 2.5374 58 83 139 255 
7.2345 8.41786 2.33296 50 100 142 255 
6.21179 7.22035 1.90841 52 96 141 255 
15.0182 17.4436 4.39091 72 24 106 255 
7.36581 8.5739 2.06233 67 61 132 255 
7.28319 8.47152 1.92772 46 110 142 255 
15.7684 18.3156 3.93172 72 26 108 255 
15.2612 17.6947 3.58396 71 16 99 255 
15.0308 17.4899 3.34783 72 33 115 255 
15.1395 17.6034 3.14335 72 29 111 255 
18.5362 21.5078 3.57179 71 19 101 255 
14.9331 17.3021 2.66465 71 14 97 255 
17.1351 19.9385 2.85135 72 22 104 255 
15.8989 18.4669 2.41078 72 29 111 255 
15.9407 18.4897 2.18306 72 20 103 255 
15.8008 18.2881 1.93607 71 13 96 255 
27.2044 31.644 3.01323 69 5 89 255 
0 0 0 68 2 86 255 
41.817 48.4523 3.41022 70 7 90 255 
41.8994 48.4608 2.80823 69 5 89 255 
41.7519 48.5313 2.30274 69 5 89 255 
13.6482 15.8358 0.554736 72 41 121 255 
13.4314 15.5571 0.351577 72 24 106 255 
13.4802 15.5802 0.161814 69 55 129 255 
13.4505 15.6291 -0.00359887 67 61 132 255 
13.4384 15.5815 -0.197522 68 57 131 255 
13.4717 15.5928 -0.388466 70 51 127 255 
11.0342 12.7442 -0.476755 72 26 108 255 
10.0522 11.6679 -0.55934 72 28 110 255 
9.34596 10.8287 -0.652049 72 33 115 255 
8.74309 10.1161 -0.735838 72 41 121 255 
8.21249 9.48185 -0.808982 71 45 123 255 
7.64873 8.87503 -0.850105 64 69 136 255 
6.97452 8.07536 -0.873509 71 47 125 255 
6.46952 7.47759 -0.903342 69 53 129 255 
6.01887 6.94916 -0.927342 68 58 131 255 
5.63341 6.52969 -0.939905 62 74 137 255 
5.33014 6.16926 -0.966405 47 108 142 255 
5.02159 5.80199 -0.982972 57 86 140 255 
4.74042 5.46926 -0.996591 50 102 142 255 
4.49888 5.20915 -1.00534 50 102 142 255 
4.25307 4.91916 -1.01134 57 86 140 255 
4.06093 4.69039 -1.02375 56 89 140 255 
3.88069 4.47735 -1.03622 58 84 140 255 
3.72661 4.30888 -1.04557 51 98 141 255 
3.55733 4.1101 -1.04873 55 91 141 255 
3.40243 3.92981 -1.05473 61 78 138 255 
3.2887 3.79568 -1.07026 62 76 138 255 
3.17395 3.666 -1.0759 56 88 140 255 
3.05448 3.52663 -1.08055 59 82 139 255 
2.93993 3.39323 -1.08534 57 85 140 255 
2.83384 3.273 -1.09228 62 73 137 255 
2.74354 3.16329 -1.09461 63 72 137 255 
2.64516 3.04973 -1.09533 63 72 137 255 
2.54742 2.93916 -1.09621 63 71 136 255 
2.48149 2.86807 -1.11118 65 66 135 255 
11.0397 12.6742 5.04904 72 32 113 255 
11.2313 12.9165 4.95016 72 37 118 255 
11.6218 13.3752 4.93723 72 38 119 255 
9.30127 10.7041 3.80767 68 59 132 255 
9.33099 10.7238 3.68949 68 59 132 255 
11.2042 12.8808 4.25017 72 36 117 255 
7.44586 8.55716 2.70858 72 27 109 255 
7.39516 8.49559 2.57966 67 62 133 255 
7.60146 8.73915 2.55506 57 85 140 255 
7.45689 8.56968 2.38767 56 88 140 255 
7.40942 8.50628 2.26027 71 44 122 255 
7.38852 8.47601 2.14495 64 70 136 255 
7.44023 8.55378 2.06843 52 96 141 255 
7.34344 8.43633 1.92993 45 112 142 255 
7.34488 8.42625 1.81846 49 104 142 255 
17.0514 19.5268 3.97617 71 17 100 255 
15.3827 17.6788 3.402 72 28 110 255 
17.3771 19.9562 3.58245 71 14 97 255 
17.2881 19.8125 3.30781 70 11 94 255 
17.0926 19.5602 3.02851 70 8 92 255 
15.7098 18.0547 2.59569 71 14 97 255 
15.8157 18.1439 2.38124 72 37 118 255 
18.6463 21.3615 2.53559 70 11 94 255 
15.893 18.1683 1.93367 72 28 110 255 
24.0047 27.5779 2.64003 71 13 96 255 
30.3433 34.7978 2.89663 69 4 87 255 
42.1529 48.2399 3.41341 69 5 89 255 
42.269 48.2862 2.81309 70 7 90 255 
42.083 48.3134 2.30461 69 4 87 255 
13.6333 15.6237 0.550227 71 45 123 255 
13.5397 15.4895 0.351919 72 28 110 255 
13.5584 15.4776 0.16161 69 56 130 255 
13.5153 15.5108 -0.00359067 69 55 129 255 
13.5351 15.5002 -0.197541 69 56 130 255 
13.5579 15.4993 -0.388202 70 50 126 255 
11.1128 12.677 -0.476783 72 28 110 255 
10.1144 11.5955 -0.558832 72 28 110 255 
9.37542 10.7291 -0.649499 72 35 116 255 
8.8142 10.0728 -0.736607 71 45 123 255 
8.28302 9.44553 -0.810205 70 48 126 255 
7.70239 8.82718 -0.850033 65 68 135 255 
7.03641 8.04667 -0.875059 69 56 130 255 
6.50085 7.42127 -0.901341 69 53 129 255 
6.06992 6.92183 -0.928647 66 64 134 255 
5.6616 6.48153 -0.937955 61 77 138 255 
5.36593 6.13419 -0.966052 49 104 142 255 
5.06298 5.77779 -0.984115 57 86 140 255 
4.77128 5.4371 -0.996045 50 102 142 255 
4.52295 5.17251 -1.00361 54 93 141 255 
4.28838 4.89892 -1.01257 58 84 140 255 
4.08443 4.65944 -1.02244 55 91 141 255 
3.8873 4.42976 -1.03071 60 79 138 255 
3.74974 4.28223 -1.04466 52 97 141 255 
3.58313 4.08893 -1.04892 53 94 141 255 
3.45167 3.93761 -1.06248 58 83 139 255 
3.30871 3.77176 -1.06921 61 78 138 255 
3.19446 3.64425 -1.07525 56 89 140 255 
3.07799 3.51001 -1.08122 59 81 139 255 
2.95941 3.37367 -1.08487 58 83 139 255 
2.85387 3.25555 -1.09228 64 70 136 255 
2.76928 3.15366 -1.09714 63 72 137 255 
2.66956 3.03997 -1.09768 62 76 138 255 
2.56731 2.92565 -1.09703 65 68 135 255 
2.49651 2.8499 -1.11006 67 62 133 255 
11.0938 12.5796 5.0384 71 42 122 255 
11.1421 12.6562 4.87653 67 62 133 255 
11.591 13.1756 4.88972 72 28 110 255 
9.45225 10.744 3.84242 68 59 132 255 
9.46444 10.7433 3.71612 72 33 115 255 
11.6063 13.1788 4.37193 72 31 112 255 
7.42686 8.4303 2.6828 71 45 123 255 
7.39753 8.39374 2.56246 55 91 141 255 
7.29933 8.28854 2.43637 61 78 138 255 
7.22081 8.19627 2.29593 61 78 138 255 
7.44136 8.43786 2.25418 70 50 126 255 
7.41439 8.40106 2.13746 57 86 140 255 
7.48737 8.50206 2.067 62 73 137 255 
7.40028 8.39703 1.93129 44 113 142 255 
7.37881 8.36104 1.81412 55 91 141 255 
15.652 17.7038 3.62444 72 22 104 255 
15.5099 17.6056 3.40616 72 32 113 255 
15.5097 17.5925 3.17514 71 47 125 255 
15.6246 17.6858 2.96869 72 29 111 255 
15.2272 17.2113 2.67924 71 19 101 255 
15.9564 18.1124 2.61801 72 22 104 255 
15.8702 17.9824 2.37278 72 24 106 255 
15.9633 18.0628 2.15563 71 19 101 255 
15.9295 17.9861 1.92465 71 17 100 255 
16.082 18.2486 1.75634 70 11 94 255 
25.77 29.1896 2.44291 70 8 92 255 
30.6115 34.6011 2.46159 69 5 89 255 
34.3941 38.8073 2.27311 69 5 89 255 
42.5129 48.2064 2.31191 69 4 87 255 
13.7263 15.5368 0.55012 72 40 120 255 
13.6233 15.3934 0.351629 71 19 101 255 
13.6777 15.4218 0.1619 71 47 125 255 
13.6195 15.4381 -0.00359311 68 59 132 255 
13.6412 15.4296 -0.197704 69 53 129 255 
13.6739 15.4398 -0.388806 71 47 125 255 
11.1181 12.5271 -0.473702 72 20 103 255 
10.2052 11.5557 -0.559921 72 31 112 255 
9.4702 10.7043 -0.651503 72 40 120 255 
8.86657 10.0081 -0.735838 72 38 119 255 
8.34082 9.39453 -0.810205 71 44 122 255 
7.73594 8.75658 -0.847789 69 55 129 255 
7.08697 8.00484 -0.875223 70 51 127 255 
6.54494 7.37975 -0.901159 68 57 131 255 
6.11558 6.88817 -0.929149 68 57 131 255 
5.71114 6.45784 -0.93958 63 71 136 255 
5.38965 6.08554 -0.96358 46 110 142 255 
5.10294 5.7518 -0.985005 56 88 140 255 
4.79928 5.40179 -0.994954 53 95 141 255 
4.5605 5.15133 -1.00491 52 96 141 255 
4.32033 4.87473 -1.01303 58 84 140 255 
4.11753 4.63946 -1.02358 56 89 140 255 
3.9432 4.43823 -1.03829 57 86 140 255 
3.76094 4.24222 -1.04051 54 92 141 255 
3.62835 4.08964 -1.05479 54 92 141 255 
3.46536 3.90462 -1.0593 57 86 140 255 
3.3227 3.74114 -1.0663 61 78 138 255 
3.21546 3.62312 -1.07482 58 84 140 255 
3.08783 3.47795 -1.07716 60 79 138 255 
2.99038 3.36707 -1.08863 58 84 140 255 
2.87572 3.24015 -1.09301 65 68 135 255 
2.77187 3.11781 -1.09056 63 71 136 255 
2.67918 3.01344 -1.09402 62 74 137 255 
2.58393 2.9084 -1.09648 65 68 135 255 
2.50886 2.82878 -1.10781 68 59 132 255 
11.1332 12.4691 5.02143 72 26 108 255 
11.1736 12.536 4.85653 66 63 133 255 
11.3622 12.7568 4.76008 72 20 103 255 
11.7766 13.2215 4.7542 72 33 115 255 
9.51149 10.6641 3.70883 72 37 118 255 
9.5597 10.7216 3.57616 72 32 113 255 
7.48039 8.38675 2.6835 69 53 129 255 
7.46641 8.36783 2.56849 50 101 142 255 
7.29936 8.18675 2.41957 57 85 140 255 
7.30158 8.18613 2.3056 59 82 139 255 
7.15538 8.01391 2.15261 57 86 140 255 
7.21316 8.07267 2.06513 49 104 142 255 
12.9078 14.4771 3.53881 72 32 113 255 
7.46479 8.36617 1.93469 46 109 142 255 
7.45562 8.34431 1.82039 72 27 109 255 
15.7234 17.5662 3.61595 72 28 110 255 
17.4904 19.6098 3.8146 71 16 99 255 
15.5612 17.4341 3.16374 72 28 110 255 
15.5833 17.4224 2.94049 72 35 116 255 
15.3425 17.1286 2.68098 72 20 103 255 
15.2923 17.1453 2.49175 72 24 106 255 
15.8681 17.7593 2.35614 72 32 113 255 
16.0864 17.9786 2.15732 72 26 108 255 
16.0769 17.9296 1.92912 72 28 110 255 
16.193 18.1488 1.75627 72 29 111 255 
25.9094 28.987 2.43922 70 7 90 255 
25.979 29.0042 2.07472 69 5 89 255 
30.7965 34.3214 2.02139 70 8 92 255 
0 0 0 68 2 86 255 
30.7844 34.4169 1.22528 69 4 87 255 
13.8162 15.4197 0.35416 70 10 93 255 
13.8148 15.3852 0.162403 71 17 100 255 
13.7846 15.4333 -0.00361161 71 42 122 255 
13.781 15.3963 -0.198357 72 32 113 255 
13.8212 15.4144 -0.390295 72 28 110 255 
11.1867 12.4497 -0.473362 72 24 106 255 
10.2905 11.5092 -0.56072 72 29 111 255 
9.5557 10.6683 -0.652869 72 37 118 255 
8.91648 9.94083 -0.734904 72 37 118 255 
8.41765 9.3647 -0.812071 71 46 124 255 
7.7955 8.71564 -0.848441 69 55 129 255 
7.15192 7.97901 -0.877181 70 50 126 255 
6.59076 7.34019 -0.90125 69 55 129 255 
6.14842 6.84016 -0.927744 68 58 131 255 
5.7553 6.42786 -0.940338 64 70 136 255 
5.42291 6.04792 -0.962874 51 99 141 255 
5.14742 5.73072 -0.986784 57 86 140 255 
4.8277 5.36709 -0.993999 55 90 140 255 
4.59467 5.1262 -1.00549 51 98 141 255 
4.35874 4.85769 -1.01503 61 78 138 255 
4.13537 4.60237 -1.02098 56 88 140 255 
3.97299 4.41688 -1.03898 58 83 139 255 
3.79149 4.22418 -1.04178 57 86 140 255 
3.65075 4.06437 -1.05403 58 83 139 255 
3.48598 3.87964 -1.05831 56 89 140 255 
3.34493 3.71996 -1.06609 59 81 139 255 
3.24938 3.6164 -1.07872 55 90 140 255 
3.11692 3.46763 -1.07987 57 85 140 255 
2.99864 3.33493 -1.08416 62 76 138 255 
2.90203 3.22966 -1.09546 64 70 136 255 
2.79224 3.10218 -1.09107 64 70 136 255 
2.69439 2.99335 -1.09271 65 66 135 255 
2.60366 2.89464 -1.0973 65 66 135 255 
2.52681 2.81405 -1.10809 67 61 132 255 
11.0406 12.2137 4.94576 72 35 116 255 
11.2001 12.4116 4.83486 66 65 134 255 
12.0086 13.3171 4.99655 72 22 104 255 
9.58856 10.633 3.84449 71 47 125 255 
9.52485 10.548 3.68873 66 63 133 255 
9.64676 10.6865 3.58413 66 64 134 255 
7.53301 8.34214 2.68396 55 91 141 255 
7.50128 8.30378 2.56291 58 84 140 255 
7.36516 8.1592 2.42474 58 84 140 255 
7.78193 8.61764 2.44053 54 92 141 255 
7.43915 8.22953 2.22274 70 52 128 255 
7.20193 7.96124 2.04789 49 103 142 255 
7.19827 7.97431 1.96002 70 51 127 255 
7.51994 8.3246 1.93571 51 98 141 255 
15.5609 17.2022 3.77356 72 33 115 255 
11.4821 12.6704 2.62263 72 31 112 255 
15.8017 17.4992 3.42283 72 36 117 255 
15.5623 17.2214 3.14241 71 13 96 255 
15.3203 16.9183 2.87122 72 35 116 255 
15.4894 17.0805 2.68827 72 33 115 255 
15.4758 17.1383 2.50447 72 33 115 255 
15.4668 17.0977 2.28092 72 37 118 255 
16.1436 17.8212 2.15028 72 32 113 255 
16.0338 17.6623 1.91091 72 40 120 255 
25.9938 28.776 2.80005 70 11 94 255 
30.7255 33.9536 2.87296 69 5 89 255 
30.7789 33.9417 2.44137 69 5 89 255 
30.7794 33.8819 2.00659 69 5 89 255 
30.9019 34.1854 1.65754 70 11 94 255 
30.8252 34.0399 1.21857 69 4 87 255 
0 0 0 68 2 86 255 
0 0 0 68 2 86 255 
21.6733 23.9679 -0.00563986 70 8 92 255 
18.2491 20.1382 -0.260886 71 19 101 255 
15.7481 17.3481 -0.441694 72 26 108 255 
10.9495 12.0362 -0.460188 72 29 111 255 
10.3516 11.4355 -0.560211 72 32 113 255 
9.6391 10.6294 -0.654098 72 29 111 255 
9.03772 9.95246 -0.739849 72 40 120 255 
8.47294 9.31066 -0.811878 71 44 122 255 
7.81871 8.63438 -0.845184 71 46 124 255 
7.15721 7.887 -0.871877 70 50 126 255 
6.64438 7.3092 -0.902433 70 48 126 255 
6.18559 6.79715 -0.927041 68 58 131 255 
5.7953 6.39316 -0.940446 61 78 138 255 
5.44656 5.99983 -0.960519 60 79 138 255 
5.18582 5.70269 -0.987419 54 92 141 255 
4.85454 5.33077 -0.992772 50 101 142 255 
4.62204 5.09351 -1.00462 51 99 141 255 
4.38049 4.82208 -1.01318 60 79 138 255 
4.18079 4.59588 -1.02521 53 95 141 255 
3.99007 4.3815 -1.03639 60 80 139 255 
3.8352 4.22049 -1.04665 56 89 140 255 
3.66307 4.0281 -1.05043 59 82 139 255 
3.5295 3.87993 -1.06427 51 98 141 255 
