ply
format ascii 1.0
comment VTK generated PLY File
obj_info vtkPolyData points and polygons: vtk4.0
element vertex 1223
property float x
property float y
property float z
property uchar red
property uchar green
property uchar blue
property uchar alpha
element face 0
property list uchar int vertex_indices
end_header
2.03528 -4.40338 -1.26811 53 94 141 255 
1.96216 -4.2454 -1.26894 51 98 141 255 
1.89211 -4.08998 -1.2701 55 90 140 255 
1.82623 -3.93871 -1.27201 64 69 136 255 
9.16375 -19.9372 6.59138 71 13 96 255 
9.40532 -20.4166 6.50093 71 17 100 255 
10.3314 -22.4059 6.87493 71 16 99 255 
8.09954 -17.5665 5.19402 72 36 117 255 
8.20396 -17.8245 5.09283 72 38 119 255 
8.35911 -18.1539 4.97565 71 16 99 255 
7.59326 -16.4978 4.33671 71 46 124 255 
7.50997 -16.3252 4.11562 71 44 122 255 
7.56761 -16.4344 3.99125 70 51 127 255 
7.75954 -16.8595 3.90095 72 37 118 255 
7.711 -16.7768 3.69953 70 50 126 255 
7.68683 -16.7404 3.51396 67 61 132 255 
9.18028 -19.9366 4.00458 72 28 110 255 
10.0972 -21.9488 4.16881 72 24 106 255 
8.29755 -18.0695 3.23469 70 50 126 255 
8.26044 -18.031 3.04197 70 52 128 255 
8.21863 -17.8564 2.85362 68 59 132 255 
8.22239 -17.8816 2.66453 70 52 128 255 
8.15727 -17.7886 2.46183 71 47 125 255 
8.00017 -17.4789 2.24115 70 51 127 255 
8.98586 -19.5233 2.33098 72 29 111 255 
8.528 -18.5718 2.0218 72 37 118 255 
8.34513 -18.2067 1.79098 71 47 125 255 
8.44379 -18.4737 1.62712 72 31 112 255 
8.72029 -18.955 1.50658 70 51 127 255 
8.56788 -18.6673 1.28864 70 51 127 255 
8.60097 -18.7908 1.10113 70 48 126 255 
10.0697 -22.0513 1.06266 72 27 109 255 
10.1105 -21.997 0.870793 72 31 112 255 
10.2573 -22.3687 0.652988 71 13 96 255 
0 -0 0 68 2 86 255 
0 -0 0 68 2 86 255 
0 -0 -0 68 2 86 255 
30.8083 -67.2473 -0.710069 69 5 89 255 
6.76713 -14.8048 -0.306871 66 63 133 255 
6.68607 -14.6686 -0.455919 70 8 92 255 
6.75295 -14.7192 -0.588158 71 14 97 255 
6.7315 -14.7069 -0.737295 71 13 96 255 
6.72316 -14.7154 -0.890358 68 58 131 255 
6.70418 -14.7152 -1.04286 69 56 130 255 
6.75084 -14.7213 -1.17511 64 70 136 255 
6.63381 -14.5068 -1.30586 67 62 133 255 
6.18887 -13.5648 -1.36216 66 63 133 255 
5.64634 -12.3933 -1.37375 72 33 115 255 
5.19623 -11.3469 -1.36018 69 55 129 255 
4.80442 -10.5111 -1.36992 70 51 127 255 
4.40207 -9.65293 -1.35908 66 65 134 255 
4.05564 -8.91003 -1.34798 68 57 131 255 
3.77692 -8.25899 -1.32649 65 68 135 255 
3.52339 -7.71561 -1.31915 57 86 140 255 
3.30087 -7.24155 -1.31322 55 90 140 255 
3.09124 -6.79131 -1.30497 54 93 141 255 
2.92191 -6.40112 -1.29143 48 105 142 255 
2.74998 -6.03034 -1.27871 44 113 142 255 
2.59987 -5.70367 -1.27188 49 104 142 255 
2.46647 -5.41621 -1.26826 50 100 142 255 
2.37045 -5.20023 -1.26803 49 104 142 255 
2.26512 -4.9717 -1.26534 51 99 141 255 
2.17577 -4.77768 -1.26909 53 95 141 255 
2.08838 -4.58171 -1.27037 52 96 141 255 
2.02064 -4.44308 -1.27595 52 96 141 255 
1.93408 -4.25297 -1.26763 55 90 140 255 
1.86498 -4.09713 -1.26874 58 84 140 255 
1.79924 -3.94373 -1.27004 68 59 132 255 
8.97061 -19.8369 6.53988 71 13 96 255 
9.4036 -20.7469 6.58761 71 19 101 255 
8.20141 -18.0774 5.53124 72 41 121 255 
8.02033 -17.6792 5.21269 72 41 121 255 
8.09563 -17.8771 5.09358 72 40 120 255 
8.2844 -18.2861 4.99787 72 24 106 255 
8.17359 -18.0495 4.73131 72 26 108 255 
7.62751 -16.8523 4.23662 72 33 115 255 
7.50612 -16.5676 4.01236 72 33 115 255 
7.55543 -16.6848 3.84973 68 57 131 255 
7.66327 -16.9462 3.72644 72 35 116 255 
7.58801 -16.7962 3.51584 72 41 121 255 
8.99932 -19.8635 3.97873 72 32 113 255 
8.94285 -19.7579 3.74219 72 31 112 255 
9.0769 -20.0909 3.5865 72 20 103 255 
8.16548 -18.1165 3.04788 70 50 126 255 
8.13545 -17.9651 2.86296 72 40 120 255 
10.1896 -22.5228 3.34673 72 20 103 255 
8.06021 -17.8655 2.46557 70 52 128 255 
7.92743 -17.6047 2.251 70 50 126 255 
7.91648 -17.4815 2.08136 71 16 99 255 
8.87194 -19.6377 2.13187 72 24 106 255 
8.39254 -18.6107 1.82563 71 42 122 255 
8.33436 -18.5342 1.62792 72 31 112 255 
8.61739 -19.0381 1.50896 72 38 119 255 
8.49343 -18.8086 1.29478 70 51 127 255 
8.49043 -18.8541 1.10177 72 28 110 255 
8.28475 -18.4411 0.88621 70 52 128 255 
9.60845 -21.2473 0.838765 72 22 104 255 
0 -0 0 69 4 87 255 
0 -0 0 68 2 86 255 
0 -0 0 68 2 86 255 
30.4384 -67.3403 -0.012898 69 4 87 255 
0 -0 -0 68 1 84 255 
6.64376 -14.774 -0.305382 67 61 132 255 
6.60453 -14.7285 -0.456513 69 5 89 255 
6.64318 -14.7175 -0.586453 71 14 97 255 
6.60914 -14.6768 -0.733743 70 10 93 255 
6.62291 -14.7345 -0.889039 68 58 131 255 
6.59826 -14.7214 -1.04041 67 62 133 255 
6.62757 -14.6898 -1.16932 66 65 134 255 
6.57289 -14.6099 -1.31149 66 65 134 255 
6.09084 -13.5698 -1.35888 68 59 132 255 
5.58931 -12.4704 -1.37847 72 32 113 255 
5.12487 -11.3749 -1.35975 71 47 125 255 
4.74675 -10.5558 -1.37192 69 55 129 255 
4.35048 -9.69695 -1.3615 67 62 133 255 
3.99158 -8.91396 -1.34484 69 55 129 255 
3.73186 -8.29465 -1.32851 65 68 135 255 
3.48448 -7.75601 -1.32238 55 90 140 255 
3.25597 -7.26077 -1.31306 54 93 141 255 
3.05555 -6.82364 -1.30755 55 90 140 255 
2.87935 -6.41175 -1.28999 51 98 141 255 
2.72298 -6.0695 -1.28344 45 112 142 255 
2.56522 -5.72041 -1.27207 50 102 142 255 
2.43359 -5.43213 -1.26847 52 97 141 255 
2.3381 -5.21378 -1.26782 50 100 142 255 
2.23338 -4.98284 -1.26466 50 101 142 255 
2.14959 -4.79804 -1.27097 51 99 141 255 
2.05666 -4.58648 -1.26816 56 89 140 255 
1.98821 -4.44392 -1.27266 55 91 141 255 
1.91071 -4.27092 -1.26946 53 95 141 255 
1.83784 -4.1041 -1.26739 58 83 139 255 
1.76912 -3.94156 -1.26582 68 57 131 255 
8.25743 -18.5624 6.10287 72 22 104 255 
8.04971 -18.0537 5.71665 72 26 108 255 
8.05539 -18.049 5.50735 72 33 115 255 
7.94083 -17.7933 5.23188 72 38 119 255 
7.97437 -17.9008 5.0863 72 40 120 255 
8.00653 -17.9653 4.89665 70 50 126 255 
8.07812 -18.134 4.74037 71 19 101 255 
8.68009 -19.4954 4.88761 70 11 94 255 
7.50807 -16.8462 4.06858 70 52 128 255 
7.48636 -16.806 3.86701 70 50 126 255 
9.01095 -20.2565 4.44215 71 19 101 255 
8.9556 -20.152 4.20671 72 28 110 255 
8.92052 -20.0154 3.99812 71 45 123 255 
8.73767 -19.6242 3.70665 72 33 115 255 
7.85271 -17.6694 3.14557 72 27 109 255 
7.90033 -17.8192 2.98967 71 45 123 255 
8.06533 -18.105 2.87733 69 55 129 255 
8.14981 -18.3125 2.71364 72 33 115 255 
7.99068 -18.0053 2.47805 68 59 132 255 
7.80438 -17.6194 2.24671 72 28 110 255 
7.90737 -17.7504 2.10756 72 40 120 255 
9.48399 -21.3405 2.31036 72 23 105 255 
8.29798 -18.7065 1.82999 71 47 125 255 
8.07936 -18.266 1.59997 70 48 126 255 
8.44686 -18.9704 1.49945 71 19 101 255 
8.37827 -18.8613 1.29484 70 48 126 255 
8.16185 -18.4256 1.07378 71 44 122 255 
8.21464 -18.5893 0.890896 71 46 124 255 
11.0815 -24.9108 0.98068 72 22 104 255 
9.0125 -20.3082 0.589565 72 24 106 255 
0 -0 0 68 2 86 255 
0 -0 0 68 2 86 255 
0 -0 -0 69 4 87 255 
0 -0 -0 68 1 84 255 
6.54085 -14.7871 -0.304817 66 65 134 255 
6.52573 -14.7953 -0.457333 69 4 87 255 
6.52517 -14.6959 -0.583985 71 14 97 255 
6.51411 -14.7062 -0.733197 71 16 99 255 
6.51785 -14.742 -0.887061 68 57 131 255 
6.49211 -14.726 -1.0379 65 68 135 255 
6.52153 -14.6946 -1.1665 62 73 137 255 
6.47223 -14.6254 -1.30928 67 61 132 255 
5.98977 -13.5668 -1.35488 67 62 133 255 
5.50828 -12.4944 -1.37736 72 40 120 255 
5.06223 -11.4225 -1.3617 72 37 118 255 
4.68631 -10.5947 -1.37321 69 53 129 255 
4.30131 -9.74706 -1.3648 66 63 133 255 
3.9392 -8.94372 -1.34566 69 55 129 255 
3.67889 -8.31286 -1.32779 66 64 134 255 
3.44162 -7.78809 -1.32422 56 89 140 255 
3.21614 -7.29144 -1.31501 53 95 141 255 
3.01601 -6.84766 -1.30859 55 91 141 255 
2.83558 -6.4194 -1.288 53 95 141 255 
2.6837 -6.0816 -1.2825 45 112 142 255 
2.53205 -5.74052 -1.27307 53 95 141 255 
2.41756 -5.48634 -1.27764 53 95 141 255 
2.30449 -5.22446 -1.26695 50 102 142 255 
2.20394 -4.99912 -1.26534 52 96 141 255 
2.11854 -4.80758 -1.27003 52 97 141 255 
2.02535 -4.59191 -1.26621 55 91 141 255 
1.96051 -4.45515 -1.27241 55 91 141 255 
1.88874 -4.29228 -1.27234 55 91 141 255 
1.81107 -4.11178 -1.2663 57 86 140 255 
1.74296 -3.94795 -1.26442 64 69 136 255 
8.14069 -18.6065 6.10086 71 14 97 255 
7.92026 -18.0605 5.70332 72 23 105 255 
7.89532 -17.9861 5.47326 72 36 117 255 
7.87265 -17.9354 5.25937 71 42 122 255 
7.85428 -17.9264 5.07976 71 42 122 255 
7.93004 -18.0914 4.91767 70 52 128 255 
7.9304 -18.1003 4.71877 72 37 118 255 
8.55991 -19.5474 4.88739 70 10 93 255 
7.31596 -16.6898 4.0199 71 47 125 255 
7.3183 -16.7037 3.83307 69 55 129 255 
9.37933 -21.4379 4.68851 71 13 96 255 
9.02101 -20.6395 4.29684 72 24 106 255 
9.23712 -21.0725 4.19789 71 16 99 255 
8.57203 -19.5746 3.68726 72 38 119 255 
7.80225 -17.8502 3.16918 72 28 110 255 
7.80625 -17.9027 2.99558 72 40 120 255 
7.90643 -18.0454 2.86009 69 53 129 255 
7.92086 -18.0962 2.67433 69 53 129 255 
7.87886 -18.0512 2.47768 70 50 126 255 
9.10039 -20.8905 2.65666 71 16 99 255 
9.84743 -22.4755 2.66136 70 11 94 255 
10.0033 -22.8864 2.47103 72 29 111 255 
8.64146 -19.8078 1.93251 72 40 120 255 
9.85225 -22.6488 1.97855 71 14 97 255 
7.9934 -18.2526 1.43881 71 47 125 255 
8.20924 -18.7907 1.28652 70 50 126 255 
7.88911 -18.1092 1.0525 70 52 128 255 
8.12392 -18.6935 0.89348 70 51 127 255 
7.87047 -17.9889 0.706268 70 51 127 255 
8.89491 -20.3796 0.590042 72 40 120 255 
0 -0 0 68 2 86 255 
28.6153 -65.9078 0.564334 69 4 87 255 
29.3012 -67.0033 -0.0127636 69 4 87 255 
0 -0 -0 68 1 84 255 
6.42368 -14.7664 -0.303573 64 69 136 255 
6.39386 -14.7406 -0.454421 71 14 97 255 
6.44128 -14.7503 -0.584565 70 10 93 255 
6.38625 -14.6598 -0.728916 72 20 103 255 
6.39701 -14.7121 -0.882885 68 59 132 255 
6.38297 -14.7225 -1.03488 67 62 133 255 
6.41569 -14.6987 -1.16367 64 70 136 255 
6.37083 -14.6383 -1.30692 66 65 134 255 
5.89531 -13.5777 -1.35233 66 64 134 255 
5.42953 -12.5234 -1.37686 72 32 113 255 
5.00436 -11.4816 -1.36506 72 37 118 255 
4.63904 -10.6643 -1.37851 65 66 135 255 
4.24774 -9.78783 -1.36683 64 70 136 255 
3.8937 -8.98954 -1.34893 69 55 129 255 
3.62071 -8.31895 -1.32519 62 73 137 255 
3.40204 -7.82809 -1.32745 57 86 140 255 
3.16781 -7.30289 -1.31355 53 95 141 255 
2.97276 -6.86333 -1.30807 54 92 141 255 
2.80124 -6.44841 -1.29035 56 89 140 255 
2.64594 -6.09705 -1.28231 46 109 142 255 
2.49912 -5.76135 -1.27426 53 95 141 255 
2.38347 -5.50017 -1.27743 52 96 141 255 
2.26889 -5.23044 -1.265 50 100 142 255 
2.17826 -5.02417 -1.26827 50 102 142 255 
2.08939 -4.82138 -1.27026 50 100 142 255 
2.00099 -4.61315 -1.26865 54 92 141 255 
1.93276 -4.4662 -1.27216 55 90 140 255 
1.86199 -4.30291 -1.27208 53 94 141 255 
1.78963 -4.13165 -1.26901 60 79 138 255 
1.71947 -3.96034 -1.26498 64 69 136 255 
7.99799 -18.5902 6.07928 72 28 110 255 
8.01015 -18.5745 5.85001 72 24 106 255 
8.13872 -18.8541 5.72208 72 22 104 255 
7.73068 -17.9098 5.23784 72 35 116 255 
7.69933 -17.8702 5.05037 71 45 123 255 
7.74014 -17.957 4.86814 70 48 126 255 
7.82304 -18.1576 4.72109 71 42 122 255 
8.44251 -19.6058 4.88895 72 20 103 255 
7.20376 -16.712 4.01451 72 31 112 255 
7.20483 -16.7231 3.82731 70 51 127 255 
8.50633 -19.772 4.31268 72 24 106 255 
8.47104 -19.7099 4.09241 72 35 116 255 
8.62205 -20.0023 3.97407 72 20 103 255 
8.68055 -20.1581 3.78708 72 24 106 255 
8.81351 -20.5057 3.63098 72 24 106 255 
7.70794 -17.9775 3.00013 72 36 117 255 
7.80731 -18.1208 2.8644 72 38 119 255 
8.02633 -18.6478 2.74852 71 44 122 255 
7.67912 -17.8923 2.44934 70 52 128 255 
7.67322 -17.9138 2.27207 72 22 104 255 
8.90291 -20.6637 2.44031 71 16 99 255 
8.59189 -19.9906 2.15264 71 47 125 255 
8.52997 -19.8843 1.93483 72 41 121 255 
8.70172 -20.3443 1.77253 72 32 113 255 
7.86666 -18.2674 1.43614 71 46 124 255 
8.01973 -18.6683 1.27474 70 48 126 255 
8.24457 -19.2468 1.11565 72 23 105 255 
7.907 -18.5041 0.882094 70 48 126 255 
7.77298 -18.0672 0.707454 70 48 126 255 
7.71784 -17.9829 0.519271 70 50 126 255 
8.7507 -20.4382 0.380311 72 29 111 255 
0 -0 0 68 2 86 255 
0 -0 -0 69 4 87 255 
0 -0 -0 68 1 84 255 
6.32351 -14.7835 -0.303121 66 64 134 255 
6.29309 -14.7557 -0.453686 70 51 127 255 
6.31989 -14.7179 -0.581734 66 65 134 255 
6.3123 -14.7363 -0.730783 67 61 132 255 
6.28778 -14.7071 -0.880247 67 61 132 255 
6.27843 -14.7284 -1.03256 67 61 132 255 
6.30413 -14.6883 -1.15977 66 63 133 255 
6.14169 -14.3519 -1.27795 65 68 135 255 
5.79898 -13.5834 -1.34933 65 68 135 255 
5.35415 -12.5601 -1.37726 72 37 118 255 
4.94204 -11.5313 -1.36733 72 41 121 255 
4.57938 -10.7062 -1.38028 68 59 132 255 
4.20784 -9.86115 -1.37344 64 69 136 255 
3.83032 -8.99412 -1.34607 69 55 129 255 
3.56687 -8.33464 -1.32417 64 69 136 255 
3.35627 -7.85427 -1.32837 56 88 140 255 
3.12874 -7.3358 -1.31599 55 91 141 255 
2.92828 -6.876 -1.30703 55 91 141 255 
2.76625 -6.47633 -1.29252 53 95 141 255 
2.6108 -6.11859 -1.28344 48 105 142 255 
2.46757 -5.78559 -1.27625 55 90 140 255 
2.34776 -5.5102 -1.27639 53 95 141 255 
2.24518 -5.26402 -1.26977 47 107 142 255 
2.14587 -5.03386 -1.26737 50 102 142 255 
2.06358 -4.84305 -1.27261 50 100 142 255 
1.98178 -4.64675 -1.27453 55 91 141 255 
1.90872 -4.48599 -1.27443 54 92 141 255 
1.83101 -4.30359 -1.26894 56 88 140 255 
1.77217 -4.16115 -1.27471 59 81 139 255 
1.69589 -3.97258 -1.26554 64 70 136 255 
7.90541 -18.69 6.09597 72 28 110 255 
7.99615 -18.8594 5.92418 72 23 105 255 
9.4225 -22.2015 6.72032 71 19 101 255 
7.66441 -18.06 5.26792 72 22 104 255 
7.60161 -17.9456 5.05841 72 36 117 255 
7.66541 -18.0881 4.89085 72 29 111 255 
8.71643 -20.5778 5.33634 72 20 103 255 
8.30229 -19.6106 4.87735 72 31 112 255 
7.0744 -16.6929 3.99943 72 32 113 255 
7.08643 -16.7301 3.81887 70 52 128 255 
8.73512 -20.652 4.49283 72 36 117 255 
8.26315 -19.5561 4.04987 72 31 112 255 
8.43198 -19.8963 3.94266 72 31 112 255 
8.54555 -20.1846 3.78214 72 29 111 255 
8.48929 -20.0903 3.54812 72 31 112 255 
8.42984 -19.9992 3.32881 72 31 112 255 
8.27497 -19.5353 3.0799 72 33 115 255 
7.84843 -18.547 2.72652 71 19 101 255 
7.57305 -17.9482 2.45059 72 36 117 255 
9.49134 -22.5395 2.85133 71 14 97 255 
8.69064 -20.5166 2.41659 71 19 101 255 
8.52368 -20.1722 2.16652 72 33 115 255 
8.47011 -20.084 1.94917 72 40 120 255 
8.37774 -19.9241 1.73141 72 35 116 255 
8.524 -20.1329 1.57867 72 29 111 255 
7.98813 -18.914 1.28814 70 51 127 255 
7.69187 -18.2654 1.05601 72 41 121 255 
7.50158 -17.8578 0.849073 69 56 130 255 
8.07503 -19.0911 0.745593 72 28 110 255 
7.61085 -18.0382 0.51951 71 46 124 255 
8.22948 -19.5515 0.362866 70 10 93 255 
0 -0 0 68 2 86 255 
0 -0 -0 68 2 86 255 
0 -0 -0 68 1 84 255 
6.28229 -14.94 -0.305533 70 52 128 255 
6.25693 -14.924 -0.457672 71 45 123 255 
6.24307 -14.7886 -0.583005 70 48 126 255 
6.26208 -14.8705 -0.735519 71 45 123 255 
6.25467 -14.8816 -0.88838 71 45 123 255 
6.25273 -14.9212 -1.04337 70 48 126 255 
6.22281 -14.7478 -1.16143 69 55 129 255 
6.04501 -14.3691 -1.27616 66 64 134 255 
5.70358 -13.5903 -1.34651 67 62 133 255 
5.28505 -12.612 -1.37937 72 35 116 255 
4.87505 -11.5706 -1.36841 72 37 118 255 
4.51745 -10.7433 -1.38145 67 61 132 255 
4.15109 -9.89593 -1.37471 63 71 136 255 
3.78692 -9.04578 -1.35029 68 59 132 255 
3.52334 -8.37461 -1.32706 66 64 134 255 
3.3149 -7.89112 -1.33114 55 90 140 255 
3.08596 -7.36032 -1.31696 55 90 140 255 
2.88717 -6.89657 -1.30755 53 94 141 255 
2.72265 -6.48411 -1.29071 54 92 141 255 
2.57434 -6.13721 -1.28401 48 106 142 255 
2.43051 -5.797 -1.27545 49 103 142 255 
2.30823 -5.51097 -1.27326 51 98 141 255 
2.2185 -5.2912 -1.27302 50 102 142 255 
2.1172 -5.05232 -1.26872 53 95 141 255 
2.02969 -4.84576 -1.27003 54 93 141 255 
1.9626 -4.68117 -1.28064 54 93 141 255 
1.87818 -4.49048 -1.27241 57 86 140 255 
1.8001 -4.30406 -1.26579 54 92 141 255 
1.73954 -4.15507 -1.26956 63 71 136 255 
1.66814 -3.97494 -1.26301 63 71 136 255 
7.86485 -18.9168 6.15408 71 14 97 255 
7.83593 -18.8017 5.89085 72 24 106 255 
8.56062 -20.5199 6.1953 71 13 96 255 
7.65571 -18.3518 5.33924 72 24 106 255 
7.58214 -18.21 5.11971 72 27 109 255 
7.55577 -18.1384 4.89182 72 31 112 255 
8.38774 -20.1451 5.21069 72 24 106 255 
8.22 -19.7529 4.90012 72 37 118 255 
6.91589 -16.6017 3.96734 71 46 124 255 
6.99004 -16.7886 3.82237 70 52 128 255 
8.40497 -20.2163 4.38675 72 37 118 255 
8.10796 -19.5221 4.03245 72 41 121 255 
8.29385 -19.9095 3.93512 72 32 113 255 
8.14553 -19.5735 3.65819 72 26 108 255 
8.59226 -20.6871 3.64414 72 26 108 255 
8.27897 -19.9829 3.31759 72 32 113 255 
8.1287 -19.5226 3.06998 70 48 126 255 
7.78243 -18.7101 2.74342 70 50 126 255 
8.09146 -19.5102 2.65704 72 35 116 255 
8.10731 -19.5879 2.4716 72 38 119 255 
8.4274 -20.24 2.37788 72 33 115 255 
8.38562 -20.1901 2.16288 72 38 119 255 
8.25747 -19.9203 1.92833 72 35 116 255 
8.23401 -19.9235 1.72694 72 38 119 255 
8.44208 -20.2852 1.58652 72 33 115 255 
7.66185 -18.4566 1.25377 70 50 126 255 
7.5067 -18.136 1.04584 71 46 124 255 
7.38386 -17.8841 0.848154 71 45 123 255 
7.35387 -17.6878 0.689014 68 58 131 255 
7.82324 -18.8639 0.541897 71 17 100 255 
0 -0 0 68 2 86 255 
0 -0 0 69 4 87 255 
0 -0 -0 68 2 86 255 
0 -0 -0 68 2 86 255 
6.24397 -15.1076 -0.308172 69 55 129 255 
6.23074 -15.1211 -0.462535 70 50 126 255 
6.23877 -15.0353 -0.591207 70 50 126 255 
6.2372 -15.0693 -0.743443 70 50 126 255 
6.21509 -15.0452 -0.895853 70 48 126 255 
6.19716 -15.047 -1.04949 70 51 127 255 
6.20747 -14.9672 -1.17569 70 48 126 255 
5.9396 -14.3644 -1.27249 65 66 135 255 
5.59692 -13.5689 -1.34096 62 73 137 255 
5.21855 -12.6709 -1.38228 72 37 118 255 
4.80701 -11.6076 -1.36928 71 46 124 255 
4.45903 -10.7891 -1.38381 66 65 134 255 
4.09143 -9.92396 -1.37509 67 62 133 255 
3.7321 -9.07068 -1.35057 69 56 130 255 
3.48739 -8.43356 -1.33299 64 69 136 255 
3.26793 -7.91496 -1.33175 57 85 140 255 
3.03961 -7.37638 -1.31648 57 85 140 255 
2.85005 -6.92691 -1.30996 54 93 141 255 
2.6907 -6.51979 -1.2945 52 97 141 255 
2.53739 -6.15471 -1.28439 47 107 142 255 
2.39937 -5.82268 -1.27784 51 99 141 255 
2.27922 -5.53678 -1.27597 52 97 141 255 
2.1886 -5.31103 -1.27453 52 96 141 255 
2.0958 -5.08864 -1.27459 50 102 142 255 
1.99992 -4.85812 -1.27003 56 89 140 255 
1.93051 -4.68506 -1.27844 56 89 140 255 
1.85316 -4.50818 -1.27418 58 84 140 255 
1.77953 -4.32931 -1.26998 59 81 139 255 
1.71072 -4.15766 -1.26711 60 79 138 255 
1.64555 -3.98954 -1.26442 63 72 137 255 
7.50158 -18.3601 5.95787 70 11 94 255 
7.5959 -18.5455 5.79583 72 27 109 255 
7.55349 -18.4231 5.54815 70 11 94 255 
7.63821 -18.6308 5.40666 72 36 117 255 
7.51425 -18.3637 5.14986 72 32 113 255 
8.12373 -19.844 5.33826 72 38 119 255 
8.16563 -19.9558 5.14868 72 28 110 255 
8.09016 -19.7823 4.89498 70 10 93 255 
8.0167 -19.5818 4.66766 72 26 108 255 
6.89616 -16.8538 3.82751 68 57 131 255 
7.95479 -19.4696 4.21406 72 29 111 255 
7.92047 -19.4059 3.99834 72 28 110 255 
7.90094 -19.2991 3.80481 72 36 117 255 
7.94023 -19.4151 3.61942 71 45 123 255 
9.35178 -22.9116 4.02582 72 26 108 255 
8.94786 -21.9778 3.6396 72 28 110 255 
8.16729 -19.9596 3.13076 71 42 122 255 
8.20104 -20.0628 2.93433 72 23 105 255 
7.9525 -19.5126 2.65067 72 28 110 255 
7.97612 -19.6106 2.46825 72 40 120 255 
8.35275 -20.4128 2.39212 71 17 100 255 
8.86553 -21.7209 2.32099 71 19 101 255 
8.17905 -20.0785 1.93875 71 42 122 255 
8.11273 -19.9764 1.72718 72 38 119 255 
9.42712 -23.0499 1.79819 71 19 101 255 
7.81046 -19.1455 1.29729 71 45 123 255 
7.6451 -18.7959 1.08117 70 48 126 255 
7.40807 -18.2595 0.863788 71 45 123 255 
7.252 -17.7492 0.689661 70 51 127 255 
7.38855 -18.1293 0.519483 72 27 109 255 
0 -0 0 68 1 84 255 
0 -0 0 68 2 86 255 
0 -0 -0 68 2 86 255 
0 -0 -0 68 2 86 255 
6.22376 -15.3244 -0.31181 70 7 90 255 
6.16223 -15.2192 -0.464372 70 10 93 255 
6.20715 -15.2223 -0.597051 70 48 126 255 
6.19091 -15.2211 -0.749044 72 40 120 255 
6.20265 -15.2801 -0.907557 71 45 123 255 
6.1912 -15.2984 -1.06435 72 41 121 255 
6.1908 -15.1897 -1.19016 70 50 126 255 
5.89637 -14.5114 -1.28228 67 62 133 255 
5.51804 -13.614 -1.34205 62 73 137 255 
5.14519 -12.7137 -1.38349 72 40 120 255 
4.73345 -11.6314 -1.36863 72 41 121 255 
4.39462 -10.8209 -1.3844 66 64 134 255 
4.03232 -9.95348 -1.37573 69 53 129 255 
3.67154 -9.08147 -1.34879 70 51 127 255 
3.446 -8.48047 -1.33704 59 82 139 255 
3.22153 -7.94036 -1.33268 56 89 140 255 
2.99207 -7.38941 -1.3155 56 89 140 255 
2.81008 -6.95066 -1.31117 54 93 141 255 
2.65877 -6.55623 -1.29847 51 98 141 255 
2.50105 -6.1738 -1.28515 48 106 142 255 
2.36507 -5.84093 -1.27864 49 103 142 255 
2.25217 -5.56789 -1.27993 49 104 142 255 
2.1545 -5.32074 -1.27367 47 107 142 255 
2.05833 -5.08605 -1.27076 49 103 142 255 
1.97481 -4.88202 -1.27308 53 94 141 255 
1.89918 -4.69053 -1.27673 56 89 140 255 
1.82148 -4.5096 -1.2714 57 86 140 255 
1.75077 -4.33478 -1.26841 59 82 139 255 
1.69167 -4.18414 -1.272 59 82 139 255 
1.62536 -4.01023 -1.26779 63 72 137 255 
7.39985 -18.4333 5.96679 72 29 111 255 
7.36254 -18.2949 5.70332 71 42 122 255 
7.42591 -18.4334 5.53741 72 29 111 255 
7.42451 -18.431 5.33535 72 36 117 255 
7.59063 -18.88 5.2815 72 36 117 255 
7.97212 -19.8197 5.31845 72 24 106 255 
9.67717 -24.0702 6.19476 71 16 99 255 
8.47562 -21.0933 5.20642 71 19 101 255 
6.80129 -16.9082 4.02033 70 10 93 255 
6.79773 -16.9085 3.83039 72 41 121 255 
7.80705 -19.448 4.19893 72 29 111 255 
7.8411 -19.5535 4.01877 72 24 106 255 
7.75263 -19.2733 3.79027 72 40 120 255 
7.7144 -19.1983 3.57011 70 48 126 255 
7.78227 -19.4058 3.40136 72 32 113 255 
8.34479 -20.8622 3.4463 72 28 110 255 
8.28609 -20.6098 3.22471 72 31 112 255 
8.02903 -19.9914 2.91662 72 33 115 255 
7.83815 -19.5749 2.65254 71 44 122 255 
8.10737 -20.2892 2.54734 72 29 111 255 
8.58596 -21.3557 2.49638 72 32 113 255 
8.18612 -20.4134 2.17587 72 31 112 255 
8.0668 -20.1561 1.94142 72 37 118 255 
7.99887 -20.048 1.72909 72 22 104 255 
9.17952 -22.8435 1.77766 71 14 97 255 
7.65757 -19.105 1.29134 70 51 127 255 
7.38697 -18.4855 1.06069 72 36 117 255 
7.38023 -18.5162 0.873773 71 44 122 255 
7.34959 -18.3081 0.709611 70 48 126 255 
7.27494 -18.1688 0.519324 72 24 106 255 
0 -0 0 68 2 86 255 
0 -0 0 68 2 86 255 
0 -0 -0 68 2 86 255 
28.3383 -70.845 -0.732474 69 5 89 255 
0 -0 -0 68 1 84 255 
0 -0 -0 68 2 86 255 
22.1325 -55.2442 -2.16143 69 5 89 255 
14.1954 -35.524 -1.74385 71 13 96 255 
11.3402 -28.4358 -1.68477 71 14 97 255 
7.9089 -19.893 -1.38061 72 26 108 255 
6.73074 -16.8089 -1.31377 72 28 110 255 
5.86486 -14.6917 -1.29501 70 51 127 255 
5.47272 -13.7439 -1.35151 65 68 135 255 
5.06929 -12.7506 -1.38409 72 33 115 255 
4.67601 -11.6953 -1.37275 70 48 126 255 
4.33402 -10.8624 -1.38628 69 55 129 255 
3.97227 -9.98079 -1.37611 68 58 131 255 
3.62453 -9.12592 -1.35207 70 52 128 255 
3.40308 -8.52443 -1.34065 60 79 138 255 
3.16946 -7.95171 -1.33129 59 81 139 255 
2.95725 -7.43422 -1.32022 52 96 141 255 
2.76883 -6.97143 -1.31186 53 94 141 255 
2.62032 -6.57699 -1.29938 51 98 141 255 
2.46276 -6.18812 -1.28496 48 106 142 255 
2.32339 -5.84076 -1.27545 50 102 142 255 
2.21977 -5.58615 -1.28097 49 103 142 255 
2.12073 -5.33114 -1.27302 47 107 142 255 
2.02456 -5.09225 -1.26918 53 95 141 255 
1.9459 -4.89675 -1.27379 54 93 141 255 
1.86786 -4.69578 -1.27501 56 88 140 255 
1.79449 -4.52249 -1.2719 60 80 139 255 
1.72698 -4.35261 -1.27051 55 90 140 255 
1.66205 -4.1846 -1.26901 60 79 138 255 
1.60499 -4.03083 -1.27117 62 74 137 255 
8.21833 -20.8412 6.72976 71 16 99 255 
7.23107 -18.2915 5.68832 72 37 118 255 
7.30522 -18.4598 5.53177 71 47 125 255 
7.29884 -18.4447 5.32627 72 31 112 255 
7.475 -18.9271 5.28175 72 24 106 255 
7.9149 -20.0316 5.36218 72 27 109 255 
8.14199 -20.6163 5.29291 72 28 110 255 
8.297 -21.0207 5.17583 72 23 105 255 
8.28251 -20.9611 4.97183 72 41 121 255 
8.31394 -21.0522 4.75745 72 26 108 255 
8.51916 -21.6044 4.65314 72 24 106 255 
7.71413 -19.5839 4.01521 71 19 101 255 
7.75172 -19.6178 3.8486 72 33 115 255 
7.61346 -19.2883 3.5781 72 22 104 255 
7.6446 -19.4064 3.39317 71 44 122 255 
8.2712 -21.0519 3.4692 72 24 106 255 
8.31252 -21.0478 3.2852 72 26 108 255 
8.11642 -20.5731 2.99416 72 33 115 255 
7.98191 -20.2938 2.74328 69 55 129 255 
7.97619 -20.3219 2.54526 72 22 104 255 
8.70418 -22.0395 2.57003 72 23 105 255 
8.96157 -22.7502 2.41905 72 27 109 255 
8.79532 -22.3734 2.14975 72 32 113 255 
7.85607 -20.0466 1.72478 72 28 110 255 
7.49634 -18.9909 1.47424 72 26 108 255 
7.26562 -18.4542 1.24431 70 52 128 255 
7.10739 -18.1075 1.03648 70 51 127 255 
7.18562 -18.3546 0.864051 71 47 125 255 
7.22171 -18.3138 0.708101 68 58 131 255 
7.1721 -18.2354 0.519961 71 16 99 255 
0 -0 0 68 2 86 255 
0 -0 0 68 2 86 255 
0 -0 -0 68 2 86 255 
0 -0 -0 68 1 84 255 
0 -0 -0 68 2 86 255 
0 -0 -0 68 1 84 255 
0 -0 -0 69 4 87 255 
14.0199 -35.7193 -1.74918 70 8 92 255 
11.0432 -28.1925 -1.66631 71 14 97 255 
7.7954 -19.9635 -1.38216 72 23 105 255 
6.57454 -16.7153 -1.30327 72 33 115 255 
5.83463 -14.8805 -1.30847 71 47 125 255 
5.38865 -13.7781 -1.3516 68 59 132 255 
5.01484 -12.8427 -1.39071 72 37 118 255 
4.60525 -11.7265 -1.37307 71 44 122 255 
4.27019 -10.8962 -1.38722 70 50 126 255 
3.91746 -10.0216 -1.3784 70 50 126 255 
3.56846 -9.14799 -1.35207 69 55 129 255 
3.35071 -8.54515 -1.34065 61 78 138 255 
3.12961 -7.99402 -1.33513 56 88 140 255 
2.91553 -7.46233 -1.32201 54 92 141 255 
2.72636 -6.98921 -1.31203 54 92 141 255 
2.57489 -6.58012 -1.29685 55 91 141 255 
2.42724 -6.20951 -1.28629 50 101 142 255 
2.28965 -5.86038 -1.27665 50 100 142 255 
2.18545 -5.59966 -1.28097 51 98 141 255 
2.08798 -5.34405 -1.27302 49 104 142 255 
1.99221 -5.10185 -1.2685 53 94 141 255 
1.9197 -4.91856 -1.27637 54 92 141 255 
1.83866 -4.70625 -1.27477 57 86 140 255 
1.77233 -4.54784 -1.27595 57 85 140 255 
1.69779 -4.35683 -1.26867 57 86 140 255 
1.63425 -4.18934 -1.26739 63 72 137 255 
1.58162 -4.04418 -1.27229 60 79 138 255 
9.39764 -24.2671 7.81724 71 13 96 255 
7.14165 -18.3947 5.70665 72 36 117 255 
7.27383 -18.7153 5.59485 72 28 110 255 
7.24641 -18.6458 5.37139 71 46 124 255 
7.74199 -19.9608 5.55684 72 29 111 255 
7.77991 -20.049 5.35397 72 31 112 255 
8.01042 -20.6532 5.28966 72 23 105 255 
8.01602 -20.6795 5.07961 72 36 117 255 
8.18129 -21.0825 4.98863 72 32 113 255 
8.22919 -21.2178 4.78336 72 31 112 255 
7.40492 -19.1217 4.10856 71 47 125 255 
7.41769 -19.1756 3.92208 72 24 106 255 
8.95586 -23.0785 4.51666 71 19 101 255 
8.63045 -22.2639 4.12018 72 28 110 255 
8.16709 -21.1117 3.68252 72 28 110 255 
7.78073 -20.1663 3.31532 72 40 120 255 
7.9481 -20.4922 3.19081 72 27 109 255 
7.76091 -20.0311 2.9083 72 26 108 255 
7.70459 -19.9472 2.68999 72 26 108 255 
8.74369 -22.6856 2.83453 71 16 99 255 
8.54398 -22.0285 2.56259 72 31 112 255 
8.2409 -21.3031 2.25975 70 11 94 255 
8.86808 -22.9714 2.20194 72 35 116 255 
8.43246 -21.9123 1.88081 72 27 109 255 
7.1147 -18.353 1.42131 70 48 126 255 
7.14613 -18.4826 1.24325 70 51 127 255 
7.04141 -18.2682 1.04318 68 58 131 255 
7.108 -18.4898 0.868343 72 37 118 255 
7.10054 -18.3354 0.707238 69 56 130 255 
7.08205 -18.3359 0.521579 71 44 122 255 
24.5328 -63.6808 1.16736 69 4 87 255 
24.4358 -63.6302 0.535345 69 5 89 255 
24.9245 -64.3947 -0.0120515 69 4 87 255 
33.419 -86.6142 -0.891206 69 4 87 255 
0 -0 -0 68 2 86 255 
0 -0 -0 68 2 86 255 
0 -0 -0 69 4 87 255 
13.9089 -36.0861 -1.76293 70 8 92 255 
10.1903 -26.4928 -1.56212 71 13 96 255 
7.73528 -20.174 -1.39342 72 23 105 255 
6.47509 -16.7637 -1.30392 72 37 118 255 
5.73606 -14.8975 -1.30684 70 51 127 255 
5.26224 -13.7021 -1.34096 67 61 132 255 
4.94806 -12.9048 -1.39412 71 45 123 255 
4.53679 -11.7638 -1.37416 71 45 123 255 
4.18827 -10.8833 -1.38228 71 47 125 255 
3.84416 -10.0149 -1.3742 71 45 123 255 
3.50589 -9.15306 -1.34961 68 57 131 255 
3.29892 -8.5674 -1.34094 62 76 138 255 
3.08547 -8.02598 -1.33729 59 81 139 255 
2.86863 -7.47731 -1.32152 58 83 139 255 
2.68659 -7.01408 -1.31358 53 95 141 255 
2.53835 -6.60589 -1.29884 51 98 141 255 
2.39226 -6.23254 -1.28799 48 105 142 255 
2.26242 -5.8972 -1.28162 50 100 142 255 
2.1507 -5.61205 -1.28076 54 93 141 255 
2.05655 -5.36041 -1.27388 50 101 142 255 
1.96541 -5.1258 -1.27143 54 92 141 255 
1.88983 -4.93116 -1.27661 57 86 140 255 
1.81391 -4.72831 -1.27771 55 90 140 255 
1.73713 -4.53965 -1.27064 59 81 139 255 
1.67689 -4.38249 -1.27313 57 86 140 255 
1.60748 -4.19659 -1.26657 60 79 138 255 
1.55196 -4.04126 -1.26835 63 72 137 255 
9.44053 -24.8292 7.9795 72 20 103 255 
7.08168 -18.5773 5.74971 72 28 110 255 
7.25056 -18.9999 5.66652 72 32 113 255 
7.18385 -18.8262 5.41055 72 26 108 255 
7.2997 -19.1685 5.3237 72 24 106 255 
7.61321 -19.9821 5.32353 72 23 105 255 
7.49827 -19.6902 5.03116 72 29 111 255 
7.62929 -20.0459 4.9124 72 32 113 255 
8.31185 -21.8149 5.14976 71 14 97 255 
8.17198 -21.4599 4.82656 71 19 101 255 
7.2439 -19.0522 4.084 70 50 126 255 
7.23153 -19.0407 3.88535 72 41 121 255 
7.29464 -19.1452 3.73804 68 59 132 255 
8.51786 -22.38 4.13191 72 33 115 255 
7.84114 -20.6447 3.5926 72 31 112 255 
7.84172 -20.7017 3.39536 72 28 110 255 
7.67288 -20.1485 3.12989 72 37 118 255 
7.55505 -19.8607 2.87677 72 33 115 255 
7.53808 -19.8782 2.67438 71 44 122 255 
10.3971 -27.4767 3.42513 71 16 99 255 
7.71873 -20.2688 2.35233 72 40 120 255 
8.66264 -22.8082 2.41373 71 17 100 255 
10.206 -26.9278 2.57514 70 10 93 255 
6.98839 -18.4976 1.584 72 24 106 255 
7.00372 -18.4009 1.42167 70 50 126 255 
7.08147 -18.6549 1.25189 72 40 120 255 
7.08221 -18.7154 1.06622 71 19 101 255 
6.96901 -18.4657 0.865189 72 41 121 255 
6.94138 -18.2563 0.702529 71 46 124 255 
6.92368 -18.2585 0.518157 72 38 119 255 
0 -0 0 69 4 87 255 
23.7592 -63.021 0.528984 69 5 89 255 
0 -0 -0 68 2 86 255 
0 -0 -0 68 1 84 255 
0 -0 -0 68 2 86 255 
0 -0 -0 68 1 84 255 
0 -0 -0 69 4 87 255 
13.8417 -36.5791 -1.78283 70 11 94 255 
10.5994 -28.069 -1.6512 70 10 93 255 
7.49182 -19.9035 -1.37154 72 20 103 255 
6.37352 -16.8068 -1.30421 71 46 124 255 
5.72383 -15.1421 -1.32519 70 51 127 255 
5.18614 -13.7556 -1.34305 67 61 132 255 
4.89472 -13.0038 -1.40155 72 41 121 255 
4.46136 -11.7831 -1.37318 71 45 123 255 
4.12036 -10.906 -1.38192 69 55 129 255 
3.78054 -10.0327 -1.37344 71 47 125 255 
3.4528 -9.18275 -1.35084 70 50 126 255 
3.24979 -8.59673 -1.34238 57 85 140 255 
3.04489 -8.06787 -1.34113 57 85 140 255 
2.82269 -7.49478 -1.32152 55 90 140 255 
2.64455 -7.0332 -1.3141 53 95 141 255 
2.50124 -6.63055 -1.30064 53 94 141 255 
2.35328 -6.24526 -1.28761 49 103 142 255 
2.22758 -5.91463 -1.28241 50 101 142 255 
2.11485 -5.62148 -1.27993 55 91 141 255 
2.02741 -5.38298 -1.27627 49 103 142 255 
1.93426 -5.13868 -1.27166 53 94 141 255 
1.86468 -4.9563 -1.28013 56 88 140 255 
1.78999 -4.75296 -1.28137 55 91 141 255 
1.71468 -4.56472 -1.27469 55 90 140 255 
1.65811 -4.41438 -1.27941 57 85 140 255 
1.58576 -4.21719 -1.26983 61 77 138 255 
1.53187 -4.06328 -1.27229 61 77 138 255 
6.94625 -18.6121 5.96765 71 14 97 255 
6.92447 -18.5052 5.71415 71 45 123 255 
6.97468 -18.6191 5.5401 72 35 116 255 
7.00079 -18.6899 5.35895 72 35 116 255 
7.0518 -18.8648 5.22723 72 32 113 255 
7.49148 -20.0312 5.32425 70 8 92 255 
7.37391 -19.7268 5.02883 72 36 117 255 
7.5232 -20.138 4.92356 72 33 115 255 
8.18707 -21.8902 5.15558 72 23 105 255 
8.13575 -21.7654 4.88395 72 31 112 255 
7.12617 -19.0945 4.08361 72 37 118 255 
7.08746 -19.012 3.87055 70 48 126 255 
7.07778 -18.9242 3.68635 70 48 126 255 
7.14781 -19.1326 3.5242 72 33 115 255 
7.70226 -20.6601 3.58698 72 38 119 255 
7.85303 -21.1219 3.45631 72 20 103 255 
7.59139 -20.3083 3.14742 72 26 108 255 
8.53502 -22.8579 3.30327 72 24 106 255 
7.42877 -19.9584 2.679 71 44 122 255 
8.3443 -22.4672 2.79423 72 20 103 255 
7.52773 -20.1379 2.33173 72 33 115 255 
7.585 -20.3461 2.14821 71 44 122 255 
8.24483 -22.1627 2.11457 72 36 117 255 
6.87025 -18.5279 1.58297 72 33 115 255 
6.86904 -18.3856 1.4172 69 55 129 255 
7.79656 -20.9248 1.40098 71 46 124 255 
7.80134 -21.0042 1.19387 72 26 108 255 
6.92498 -18.6955 0.873948 72 40 120 255 
6.8163 -18.2639 0.701199 70 51 127 255 
6.80629 -18.2865 0.517759 72 40 120 255 
0 -0 0 69 4 87 255 
23.3696 -63.159 0.528929 69 5 89 255 
23.6553 -63.4168 -0.0118133 69 4 87 255 
31.8839 -85.7543 -0.878266 69 4 87 255 
31.8178 -85.8033 -1.72518 69 4 87 255 
31.6344 -85.5873 -2.58062 69 4 87 255 
20.2845 -54.4671 -2.11091 69 5 89 255 
13.4643 -36.2522 -1.76284 70 7 90 255 
10.1768 -27.4585 -1.61158 70 8 92 255 
7.40587 -20.0474 -1.37829 71 14 97 255 
6.21774 -16.7045 -1.29329 72 32 113 255 
5.5899 -15.0667 -1.31557 72 41 121 255 
5.12445 -13.8488 -1.34905 64 69 136 255 
4.8138 -13.0308 -1.40125 71 42 122 255 
4.3914 -11.8168 -1.37394 71 46 124 255 
4.05509 -10.9357 -1.38251 70 50 126 255 
3.73887 -10.1097 -1.38081 70 50 126 255 
3.41045 -9.24187 -1.35643 69 53 129 255 
3.1956 -8.6128 -1.34181 65 68 135 255 
2.99773 -8.09289 -1.3422 58 84 140 255 
2.77871 -7.51751 -1.3225 54 92 141 255 
2.6068 -7.06408 -1.31685 53 95 141 255 
2.45948 -6.643 -1.3001 52 97 141 255 
2.31253 -6.25314 -1.28629 51 99 141 255 
2.18819 -5.91992 -1.28062 51 99 141 255 
2.07557 -5.62151 -1.27701 58 83 139 255 
1.99163 -5.38799 -1.27453 49 104 142 255 
1.9027 -5.15045 -1.27166 54 92 141 255 
1.83726 -4.97586 -1.28224 52 96 141 255 
1.75912 -4.75931 -1.28015 54 92 141 255 
1.68832 -4.57969 -1.27595 57 86 140 255 
1.637 -4.44077 -1.28412 57 86 140 255 
1.56119 -4.23045 -1.27091 60 79 138 255 
1.50791 -4.07531 -1.27313 60 80 139 255 
6.82994 -18.6489 5.96593 72 35 116 255 
6.80582 -18.5338 5.70999 72 35 116 255 
6.87094 -18.6905 5.54868 70 52 128 255 
6.93496 -18.8658 5.39707 72 36 117 255 
7.25959 -19.79 5.47117 72 22 104 255 
7.46606 -20.3428 5.39479 72 28 110 255 
7.33781 -20.0036 5.08783 72 31 112 255 
7.35017 -20.0492 4.89074 72 31 112 255 
7.9732 -21.7237 5.10474 72 22 104 255 
7.90903 -21.5614 4.82718 72 32 113 255 
7.87883 -21.5133 4.59047 72 24 106 255 
6.9619 -19.0312 3.86568 70 48 126 255 
6.93475 -18.8943 3.67217 72 41 121 255 
7.53026 -20.5399 3.77483 72 36 117 255 
7.5238 -20.5661 3.56257 71 46 124 255 
7.57761 -20.7704 3.39112 71 14 97 255 
7.82108 -21.3207 3.29683 71 19 101 255 
7.57636 -20.6768 2.98128 71 47 125 255 
7.43552 -20.3578 2.72643 72 40 120 255 
7.42439 -20.3724 2.528 72 32 113 255 
8.61263 -23.4785 2.71236 71 19 101 255 
7.43643 -20.3278 2.14142 72 22 104 255 
8.13225 -22.2775 2.12071 72 27 109 255 
6.73258 -18.5042 1.57738 72 24 106 255 
6.80039 -18.5482 1.42649 72 32 113 255 
7.66631 -20.9675 1.40066 69 53 129 255 
6.83663 -18.7587 1.06383 72 35 116 255 
6.82106 -18.7677 0.87535 72 32 113 255 
8.07298 -22.043 0.844372 71 19 101 255 
0 -0 0 69 4 87 255 
0 -0 0 69 4 87 255 
23.0765 -63.5626 0.531112 70 7 90 255 
23.2585 -63.541 -0.0118096 69 5 89 255 
0 -0 -0 68 2 86 255 
0 -0 -0 69 4 87 255 
0 -0 -0 68 2 86 255 
0 -0 -0 69 4 87 255 
13.5707 -37.2371 -1.80665 70 7 90 255 
9.59654 -26.3887 -1.54531 71 16 99 255 
6.88587 -18.9976 -1.30319 71 16 99 255 
6.03197 -16.5147 -1.2757 71 42 122 255 
5.48099 -15.0558 -1.31165 71 44 122 255 
5.04108 -13.8847 -1.34951 66 63 133 255 
4.73579 -13.0657 -1.40185 72 40 120 255 
4.32017 -11.8472 -1.37437 72 37 118 255 
3.98961 -10.9651 -1.3831 70 50 126 255 
3.65985 -10.0858 -1.37446 71 47 125 255 
3.35705 -9.27193 -1.3578 69 55 129 255 
3.14473 -8.63782 -1.34267 64 69 136 255 
2.94228 -8.09534 -1.33959 58 84 140 255 
2.73354 -7.5372 -1.32299 54 92 141 255 
2.56877 -7.09476 -1.31961 53 95 141 255 
2.41465 -6.64687 -1.29793 54 92 141 255 
2.27814 -6.27829 -1.28856 50 100 142 255 
2.14982 -5.92771 -1.27943 54 92 141 255 
2.04204 -5.6369 -1.27764 58 83 139 255 
1.96153 -5.40837 -1.27648 49 103 142 255 
1.87969 -5.18584 -1.27752 56 88 140 255 
1.8057 -4.9843 -1.28154 55 91 141 255 
1.72724 -4.76272 -1.27819 55 90 140 255 
1.66117 -4.59269 -1.27671 58 83 139 255 
1.60841 -4.4471 -1.28308 58 84 140 255 
1.53684 -4.24447 -1.27227 59 82 139 255 
1.4855 -4.0917 -1.27538 61 78 138 255 
6.64479 -18.494 5.90321 72 26 108 255 
6.66853 -18.5102 5.68998 72 38 119 255 
6.74174 -18.6924 5.53687 72 35 116 255 
6.82103 -18.9134 5.39862 72 29 111 255 
7.11115 -19.7595 5.45057 72 31 112 255 
7.23919 -20.1052 5.3199 72 37 118 255 
7.24919 -20.1434 5.11198 72 29 111 255 
7.18743 -19.9839 4.86395 72 31 112 255 
7.27635 -20.2075 4.73788 72 31 112 255 
7.74477 -21.5211 4.80743 71 42 122 255 
7.73806 -21.5372 4.58537 72 36 117 255 
7.05967 -19.6717 3.98691 71 17 100 255 
6.81269 -18.9198 3.66894 69 55 129 255 
6.93316 -19.2764 3.53474 72 24 106 255 
7.33278 -20.4316 3.53142 72 29 111 255 
6.93377 -19.374 3.15613 72 29 111 255 
7.81411 -21.7128 3.34999 72 20 103 255 
7.98436 -22.2112 3.1954 72 32 113 255 
7.35063 -20.5151 2.74141 71 45 123 255 
7.29022 -20.3924 2.52487 72 37 118 255 
8.08092 -22.4542 2.58825 72 35 116 255 
7.29206 -20.3187 2.13571 72 29 111 255 
7.89937 -22.0588 2.09524 72 32 113 255 
8.38539 -23.4945 1.99835 71 17 100 255 
8.36659 -23.2607 1.78494 72 22 104 255 
7.55537 -21.064 1.40398 72 24 106 255 
7.39004 -20.6705 1.16966 72 20 103 255 
8.54426 -23.966 1.11534 72 24 106 255 
8.46471 -23.5593 0.900448 71 17 100 255 
23.4011 -65.3129 1.84098 69 4 87 255 
22.7995 -63.8071 1.15906 69 4 87 255 
22.4677 -63.0897 0.525999 69 5 89 255 
0 -0 -0 68 2 86 255 
0 -0 -0 68 2 86 255 
0 -0 -0 68 2 86 255 
0 -0 -0 68 2 86 255 
19.7664 -55.1353 -2.12724 69 5 89 255 
13.2475 -37.0553 -1.79385 71 13 96 255 
9.418 -26.401 -1.54262 71 16 99 255 
6.76817 -19.0367 -1.30299 72 26 108 255 
5.95576 -16.6218 -1.28113 70 50 126 255 
5.37275 -15.045 -1.30782 70 52 128 255 
4.95412 -13.9107 -1.34905 65 68 135 255 
4.67353 -13.1451 -1.40727 71 47 125 255 
4.24606 -11.8698 -1.37394 71 47 125 255 
3.90924 -10.9529 -1.37851 71 47 125 255 
3.60687 -10.1333 -1.37789 70 51 127 255 
3.3107 -9.32223 -1.36216 68 57 131 255 
3.09134 -8.65603 -1.34253 62 74 137 255 
2.89487 -8.11976 -1.34067 58 83 139 255 
2.68889 -7.55848 -1.3238 52 97 141 255 
2.52387 -7.10668 -1.31892 53 95 141 255 
2.38438 -6.69121 -1.30371 53 95 141 255 
2.23694 -6.28475 -1.28704 54 93 141 255 
2.11603 -5.94817 -1.28102 52 97 141 255 
2.01855 -5.68066 -1.28472 53 95 141 255 
1.93681 -5.44422 -1.28211 50 101 142 255 
1.84555 -5.19085 -1.27594 53 94 141 255 
1.77606 -4.99803 -1.28224 54 92 141 255 
1.70058 -4.78054 -1.28015 52 97 141 255 
1.63361 -4.60462 -1.27721 54 93 141 255 
1.57787 -4.44779 -1.28046 60 80 139 255 
1.51657 -4.27015 -1.27715 59 81 139 255 
1.45843 -4.09531 -1.2737 61 77 138 255 
6.52514 -18.5173 5.89774 72 24 106 255 
6.52122 -18.4556 5.66081 72 41 121 255 
6.63817 -18.7652 5.54627 72 38 119 255 
6.65655 -18.8183 5.35972 72 41 121 255 
6.90601 -19.5655 5.38525 72 23 105 255 
7.07885 -20.0449 5.29236 72 32 113 255 
7.0688 -20.027 5.07134 72 24 106 255 
7.0637 -20.0249 4.86328 72 31 112 255 
7.14539 -20.2324 4.73336 72 40 120 255 
7.73667 -21.9198 4.8858 72 26 108 255 
7.68626 -21.8127 4.63389 72 23 105 255 
7.33735 -20.8469 4.21589 72 24 106 255 
6.65945 -18.8565 3.64865 70 50 126 255 
6.76558 -19.1791 3.50923 71 45 123 255 
7.1827 -20.4064 3.51938 72 37 118 255 
6.80789 -19.3966 3.15295 72 40 120 255 
7.64055 -21.6465 3.33246 71 19 101 255 
7.64561 -21.6859 3.11303 72 29 111 255 
7.2233 -20.5561 2.74091 72 20 103 255 
8.0736 -23.0284 2.84507 71 17 100 255 
8.31658 -23.5618 2.70999 72 35 116 255 
8.47495 -24.0784 2.52538 72 20 103 255 
7.74836 -22.0626 2.09105 72 26 108 255 
7.98158 -22.8041 1.93543 72 24 106 255 
8.23068 -23.3314 1.78645 72 32 113 255 
8.20991 -23.3384 1.5522 71 17 100 255 
7.32915 -20.904 1.1803 72 20 103 255 
7.31724 -20.9295 0.971915 72 41 121 255 
8.00115 -22.7059 0.86594 71 19 101 255 
22.7511 -64.747 1.82106 69 5 89 255 
0 -0 0 68 2 86 255 
22.336 -63.959 0.532094 69 5 89 255 
0 -0 -0 68 2 86 255 
29.7277 -84.6962 -0.861678 69 4 87 255 
0 -0 -0 68 2 86 255 
0 -0 -0 68 2 86 255 
0 -0 -0 68 2 86 255 
12.8764 -36.7267 -1.77409 70 11 94 255 
9.26869 -26.4951 -1.54476 71 19 101 255 
6.68343 -19.1702 -1.3093 71 17 100 255 
5.84969 -16.6467 -1.28026 70 50 126 255 
5.2912 -15.1087 -1.31051 70 50 126 255 
4.8424 -13.8656 -1.34178 66 63 133 255 
4.59671 -13.1848 -1.40848 71 46 124 255 
4.17084 -11.889 -1.37318 71 42 122 255 
3.84229 -10.9776 -1.37863 69 55 129 255 
3.54234 -10.1487 -1.377 70 50 126 255 
3.2567 -9.35172 -1.36353 70 51 127 255 
3.03947 -8.67857 -1.34311 64 70 136 255 
2.85315 -8.16069 -1.34451 57 86 140 255 
2.64864 -7.59253 -1.3269 53 94 141 255 
2.4773 -7.11366 -1.31737 53 94 141 255 
2.34555 -6.71222 -1.30497 48 105 142 255 
2.19801 -6.29743 -1.28685 53 95 141 255 
2.08337 -5.97215 -1.28341 52 97 141 255 
1.98687 -5.70217 -1.28681 53 95 141 255 
1.90434 -5.45876 -1.28276 50 102 142 255 
1.81302 -5.20024 -1.27549 57 86 140 255 
1.74536 -5.00883 -1.28224 57 86 140 255 
1.67505 -4.80187 -1.28309 55 90 140 255 
1.59992 -4.59903 -1.27291 58 84 140 255 
1.54167 -4.43187 -1.27313 58 84 140 255 
1.49382 -4.28937 -1.28013 58 84 140 255 
1.43739 -4.11596 -1.27735 59 81 139 255 
6.34572 -18.3669 5.83733 72 31 112 255 
6.44277 -18.596 5.69165 70 50 126 255 
6.52858 -18.822 5.5511 72 35 116 255 
6.57608 -18.9601 5.38851 72 36 117 255 
6.61932 -19.1264 5.25311 72 32 113 255 
6.8211 -19.6992 5.18993 72 41 121 255 
6.95087 -20.0847 5.07505 72 37 118 255 
6.9407 -20.0678 4.86328 72 29 111 255 
6.98564 -20.1735 4.70945 72 27 109 255 
7.5185 -21.7255 4.83211 72 31 112 255 
7.31661 -21.1774 4.4893 71 17 100 255 
6.86227 -19.8859 4.01296 71 14 97 255 
6.72324 -19.4157 3.74881 72 27 109 255 
6.75085 -19.5183 3.56365 72 28 110 255 
7.01807 -20.3363 3.49979 72 24 106 255 
6.60416 -19.1922 3.11307 72 36 117 255 
6.62205 -19.1343 2.93939 71 47 125 255 
7.7086 -22.3 3.19433 72 22 104 255 
7.73466 -22.4508 2.98717 72 35 116 255 
7.96185 -23.164 2.85573 71 17 100 255 
8.00668 -23.1351 2.65521 72 22 104 255 
8.02807 -23.2636 2.4347 72 36 117 255 
7.98445 -23.189 2.19312 72 26 108 255 
7.70627 -22.4586 1.90205 72 27 109 255 
8.10497 -23.4323 1.79034 72 27 109 255 
7.17136 -20.7928 1.37994 72 40 120 255 
7.08032 -20.5982 1.16056 72 37 118 255 
8.19315 -23.9046 1.10772 72 29 111 255 
8.28005 -23.9655 0.912023 70 8 92 255 
8.28337 -24.0442 0.674819 72 22 104 255 
0 -0 0 68 2 86 255 
21.945 -64.1005 0.532141 69 5 89 255 
0 -0 -0 69 4 87 255 
0 -0 -0 68 2 86 255 
28.848 -84.0683 -1.67555 69 4 87 255 
0 -0 -0 68 2 86 255 
0 -0 -0 68 2 86 255 
12.3514 -35.934 -1.7321 70 8 92 255 
9.01104 -26.2747 -1.52866 71 19 101 255 
5.83275 -17.0663 -1.16314 71 19 101 255 
5.7299 -16.6314 -1.27635 69 53 129 255 
5.19581 -15.1334 -1.30986 69 56 130 255 
4.74724 -13.8658 -1.33896 67 62 133 255 
4.51444 -13.209 -1.40807 70 51 127 255 
4.10105 -11.9238 -1.37427 71 45 123 255 
3.76326 -10.9671 -1.37439 70 51 127 255 
3.4678 -10.1346 -1.37217 69 53 129 255 
3.19734 -9.3659 -1.36271 71 46 124 255 
2.99324 -8.71764 -1.34629 63 71 136 255 
2.80494 -8.18365 -1.34543 58 84 140 255 
2.60647 -7.62171 -1.32918 53 94 141 255 
2.43233 -7.12499 -1.31668 52 96 141 255 
2.30305 -6.72276 -1.30425 52 96 141 255 
2.16219 -6.31916 -1.28856 51 98 141 255 
2.04542 -5.98111 -1.28261 54 92 141 255 
1.949 -5.70592 -1.28493 56 88 140 255 
1.86891 -5.4648 -1.28146 51 98 141 255 
1.78329 -5.21772 -1.27707 53 94 141 255 
1.71711 -5.02681 -1.28412 54 92 141 255 
1.64775 -4.81848 -1.2848 55 91 141 255 
1.57573 -4.62066 -1.2762 57 86 140 255 
1.52036 -4.4586 -1.2781 58 83 139 255 
1.46747 -4.29846 -1.28013 59 82 139 255 
1.41553 -4.13469 -1.28044 62 74 137 255 
7.71294 -22.776 7.22344 71 13 96 255 
6.45489 -19.0073 5.80528 72 28 110 255 
6.49204 -19.0942 5.61955 72 27 109 255 
6.4534 -18.9818 5.38332 72 40 120 255 
6.51179 -19.1959 5.26115 72 36 117 255 
6.64552 -19.5798 5.14765 71 46 124 255 
6.81751 -20.0975 5.06762 72 32 113 255 
6.80241 -20.0657 4.85256 72 22 104 255 
6.87491 -20.2548 4.7185 72 33 115 255 
7.32281 -21.5877 4.79139 72 29 111 255 
7.25446 -21.4225 4.53173 71 19 101 255 
6.94092 -20.5213 4.13251 72 24 106 255 
6.6296 -19.532 3.76335 71 19 101 255 
6.63824 -19.5808 3.56756 72 37 118 255 
6.99942 -20.6931 3.55374 72 24 106 255 
6.40635 -18.9954 3.07472 71 46 124 255 
6.4616 -19.048 2.92 68 57 131 255 
7.44793 -21.9818 3.14214 72 20 103 255 
7.56756 -22.4114 2.97568 72 29 111 255 
6.86765 -20.3866 2.50808 71 13 96 255 
7.81859 -23.0482 2.63968 72 37 118 255 
7.57876 -22.4065 2.34009 72 38 119 255 
7.79711 -23.1045 2.18057 72 24 106 255 
7.5893 -22.5678 1.90732 72 20 103 255 
7.94246 -23.4268 1.78616 72 28 110 255 
6.96693 -20.6095 1.36491 72 28 110 255 
6.94582 -20.6176 1.15923 70 48 126 255 
6.94374 -20.672 0.95593 72 36 117 255 
7.10807 -20.9898 0.797103 72 22 104 255 
21.5304 -63.7645 1.78586 70 10 93 255 
21.8199 -64.8063 1.16972 69 5 89 255 
21.5446 -64.214 0.531976 70 7 90 255 
21.5755 -63.7479 -0.0117461 70 7 90 255 
28.2378 -83.7253 -0.848211 69 4 87 255 
28.1127 -83.5927 -1.6626 69 5 89 255 
0 -0 -0 68 2 86 255 
0 -0 -0 68 2 86 255 
12.1266 -35.9968 -1.73151 70 10 93 255 
8.84933 -26.3286 -1.5286 72 23 105 255 
5.68546 -16.975 -1.15452 72 27 109 255 
5.52531 -16.3629 -1.25312 70 50 126 255 
5.09713 -15.148 -1.30839 70 52 128 255 
4.67189 -13.924 -1.34178 66 65 134 255 
4.4371 -13.2478 -1.40928 66 64 134 255 
4.02527 -11.9412 -1.3734 71 46 124 255 
3.70096 -11.0051 -1.37627 70 52 128 255 
3.39672 -10.1293 -1.36861 69 55 129 255 
3.14358 -9.39662 -1.36434 68 58 131 255 
2.94253 -8.74428 -1.34759 65 68 135 255 
2.75625 -8.20539 -1.3462 58 83 139 255 
2.55683 -7.62914 -1.32771 53 95 141 255 
2.38919 -7.14165 -1.31703 53 95 141 255 
2.26175 -6.73677 -1.30425 51 98 141 255 
2.12463 -6.33603 -1.28932 51 99 141 255 
2.00993 -5.99726 -1.28341 55 90 140 255 
1.91333 -5.71592 -1.28452 54 92 141 255 
1.83535 -5.47617 -1.28146 50 101 142 255 
1.7534 -5.23503 -1.27865 53 95 141 255 
1.68345 -5.02895 -1.28201 55 90 140 255 
1.61753 -4.82666 -1.28431 55 91 141 255 
1.55256 -4.64584 -1.2805 58 84 140 255 
1.49695 -4.47974 -1.28151 56 88 140 255 
1.44626 -4.3229 -1.28475 58 83 139 255 
1.39013 -4.1433 -1.28044 59 81 139 255 
7.11217 -21.4339 6.78384 72 20 103 255 
6.52286 -19.6016 5.97447 72 22 104 255 
6.47677 -19.4399 5.70947 72 38 119 255 
6.32765 -18.9936 5.37554 72 41 121 255 
6.38472 -19.208 5.25361 72 38 119 255 
6.51637 -19.5935 5.14065 72 41 121 255 
8.11669 -24.4189 6.1446 71 13 96 255 
7.93842 -23.898 5.76744 72 24 106 255 
7.39584 -22.2369 5.16958 71 19 101 255 
7.40844 -22.2888 4.93681 72 22 104 255 
7.10621 -21.4163 4.52112 72 28 110 255 
6.69683 -20.2073 4.06093 72 31 112 255 
7.13087 -21.4403 4.1225 72 20 103 255 
6.52014 -19.6277 3.56875 72 32 113 255 
6.32923 -19.097 3.2729 69 56 130 255 
6.31108 -19.0991 3.08518 68 57 131 255 
6.27562 -18.8798 2.88825 70 52 128 255 
6.28502 -18.931 2.70049 72 37 118 255 
7.51872 -22.7259 3.01126 72 20 103 255 
7.08643 -21.4706 2.63605 72 33 115 255 
7.70744 -23.1873 2.65014 71 17 100 255 
7.45334 -22.4894 2.34393 72 27 109 255 
7.46633 -22.5807 2.12677 72 40 120 255 
6.85646 -20.8104 1.7552 72 23 105 255 
7.71619 -23.2271 1.76729 72 22 104 255 
6.85101 -20.6841 1.36704 72 41 121 255 
6.80855 -20.6276 1.15742 72 20 103 255 
7.98757 -24.2719 1.12011 72 20 103 255 
6.97316 -21.015 0.79642 72 32 113 255 
0 -0 0 68 2 86 255 
21.3833 -64.8222 1.16761 69 5 89 255 
21.0622 -64.0771 0.529761 69 5 89 255 
21.1902 -63.898 -0.0117496 69 5 89 255 
0 -0 -0 68 2 86 255 
0 -0 -0 68 2 86 255 
27.3549 -83.3193 -2.48018 69 4 87 255 
0 -0 -0 68 2 86 255 
11.9549 -36.2205 -1.73871 70 10 93 255 
8.68137 -26.3634 -1.52751 72 27 109 255 
5.64902 -17.2163 -1.16855 71 16 99 255 
5.37531 -16.2469 -1.24169 70 50 126 255 
4.99504 -15.1515 -1.30602 70 52 128 255 
4.58823 -13.958 -1.34232 65 66 135 255 
4.35232 -13.2644 -1.40818 65 66 135 255 
3.95753 -11.9827 -1.37535 70 51 127 255 
3.63616 -11.0361 -1.37733 70 50 126 255 
3.32924 -10.134 -1.36645 71 47 125 255 
3.09049 -9.42985 -1.36639 69 53 129 255 
2.89316 -8.77533 -1.34961 64 70 136 255 
2.70894 -8.23153 -1.34774 61 77 138 255 
2.51059 -7.64656 -1.32804 55 91 141 255 
2.35699 -7.19175 -1.32357 54 92 141 255 
2.21669 -6.73931 -1.30208 52 97 141 255 
2.08295 -6.34055 -1.28761 51 98 141 255 
1.97187 -6.00576 -1.28261 58 84 140 255 
1.87396 -5.71454 -1.2816 58 83 139 255 
1.80384 -5.49382 -1.28298 49 103 142 255 
1.7255 -5.25865 -1.28181 53 95 141 255 
1.65347 -5.04196 -1.28271 55 90 140 255 
1.58849 -4.83834 -1.2848 55 91 141 255 
1.52192 -4.64884 -1.27873 57 85 140 255 
1.47094 -4.49343 -1.28281 61 78 138 255 
1.41641 -4.32163 -1.28176 58 83 139 255 
1.36348 -4.1481 -1.27932 61 77 138 255 
6.79047 -20.8924 6.59914 72 23 105 255 
6.83326 -20.9629 6.37647 72 31 112 255 
6.43477 -19.7164 5.77899 72 27 109 255 
