ply
format ascii 1.0
comment VTK generated PLY File
obj_info vtkPolyData points and polygons: vtk4.0
element vertex 1156
property float x
property float y
property float z
property uchar red
property uchar green
property uchar blue
property uchar alpha
element face 0
property list uchar int vertex_indices
end_header
-18.5359 -6.79925 4.14983 51 98 141 255 
-18.556 -6.79577 3.95945 50 101 142 255 
-18.5524 -6.78675 3.76843 66 64 134 255 
-18.5194 -6.79713 3.59929 70 48 126 255 
-18.62 -6.82642 3.422 70 50 126 255 
-18.6251 -6.8137 3.22634 71 44 122 255 
-18.5789 -6.77811 3.03333 72 40 120 255 
-18.6022 -6.82385 2.87647 70 48 126 255 
-18.5674 -6.80345 2.67715 67 61 132 255 
-18.5731 -6.78367 2.48741 67 61 132 255 
-18.5554 -6.76222 2.30253 68 57 131 255 
-18.5737 -6.81341 2.14573 68 58 131 255 
-18.568 -6.79265 1.95603 71 45 123 255 
-20.1854 -7.36855 1.92156 72 20 103 255 
-21.438 -7.80003 1.82747 70 11 94 255 
-28.6591 -10.5074 2.20409 70 48 126 255 
-28.6257 -10.4663 1.91224 68 59 132 255 
-28.671 -10.4492 1.62597 70 50 126 255 
-28.7431 -10.4466 1.34061 70 8 92 255 
-0 -0 0 68 1 84 255 
-37.4296 -13.6705 1.05738 70 8 92 255 
-37.5685 -13.6844 0.683948 69 5 89 255 
-0 -0 0 68 2 86 255 
-37.6876 -13.7951 -0.00700453 70 7 90 255 
-18.6158 -6.79174 -0.190227 72 41 121 255 
-19.089 -6.9457 -0.382944 71 44 122 255 
-18.2483 -6.61787 -0.548986 71 42 122 255 
-18.231 -6.66245 -0.704955 71 46 124 255 
-19.375 -7.06105 -0.940027 65 66 135 255 
-19.396 -7.05357 -1.13582 62 73 137 255 
-18.2442 -6.6128 -1.25151 71 44 122 255 
-18.1148 -6.61642 -1.3993 70 52 128 255 
-18.1669 -6.6136 -1.58269 71 42 122 255 
-17.7843 -6.45692 -1.72853 72 20 103 255 
-15.5333 -5.63019 -1.66661 72 24 106 255 
-13.8758 -5.0599 -1.6097 72 38 119 255 
-12.4572 -4.53254 -1.57132 71 47 125 255 
-11.283 -4.09428 -1.53761 70 48 126 255 
-10.2966 -3.72803 -1.50785 68 58 131 255 
-9.52764 -3.46868 -1.48099 67 62 133 255 
-8.88473 -3.22918 -1.47022 69 53 129 255 
-8.26254 -2.9966 -1.45031 68 59 132 255 
-7.74959 -2.80586 -1.44141 68 57 131 255 
-7.26904 -2.64066 -1.41942 55 90 140 255 
-6.83763 -2.4811 -1.40336 61 78 138 255 
-6.48326 -2.3513 -1.39934 62 76 138 255 
-6.15369 -2.22925 -1.39477 63 71 136 255 
-5.87092 -2.12929 -1.38565 53 94 141 255 
-5.56502 -2.01713 -1.37094 59 82 139 255 
-5.31786 -1.92654 -1.3673 61 77 138 255 
-5.07173 -1.8393 -1.36112 60 79 138 255 
-4.85108 -1.75463 -1.34854 64 70 136 255 
-4.71756 -1.70623 -1.36111 69 55 129 255 
-4.49878 -1.62892 -1.3485 70 48 126 255 
-4.34066 -1.57589 -1.35299 71 47 125 255 
-24.8591 -8.93171 7.93491 71 14 97 255 
-25.6445 -9.23879 7.88308 71 13 96 255 
-26.3142 -9.49067 7.79452 71 13 96 255 
-27.3444 -9.86163 7.80516 70 11 94 255 
-25.9089 -9.32421 7.14684 71 14 97 255 
-37.9214 -13.6542 10.0342 72 20 103 255 
-37.8405 -13.618 9.60314 72 24 106 255 
-37.8371 -13.6085 9.20929 72 29 111 255 
-37.8287 -13.6214 8.86937 72 24 106 255 
-18.5865 -6.6887 4.15189 53 95 141 255 
-18.5853 -6.67748 3.95689 53 95 141 255 
-18.5872 -6.67047 3.76711 64 70 136 255 
-18.5561 -6.6817 3.5984 70 48 126 255 
-18.6059 -6.69203 3.4118 70 51 127 255 
-18.6563 -6.69563 3.22457 59 81 139 255 
-18.635 -6.66931 3.03576 71 46 124 255 
-18.6158 -6.69953 2.87216 71 44 122 255 
-18.62 -6.69341 2.67876 68 58 131 255 
-18.5938 -6.66222 2.48467 67 61 132 255 
-18.5994 -6.64924 2.30288 68 58 131 255 
-18.6171 -6.69999 2.14595 66 63 133 255 
-18.6093 -6.67859 1.95603 71 45 123 255 
-20.0286 -7.17236 1.90241 72 24 106 255 
-28.6157 -10.2132 2.43394 70 48 126 255 
-28.631 -10.2982 2.19703 69 53 129 255 
-28.6086 -10.2615 1.90686 69 56 130 255 
-28.6095 -10.2283 1.61889 71 46 124 255 
-0 -0 0 68 1 84 255 
-28.6821 -10.3053 1.09625 69 4 87 255 
-37.5072 -13.4386 1.05722 70 7 90 255 
-37.5077 -13.4022 0.681331 70 7 90 255 
-0 -0 0 68 2 86 255 
-19.4688 -6.99119 -0.00361039 65 66 135 255 
-19.4659 -6.96683 -0.198472 60 79 138 255 
-19.443 -6.93969 -0.389183 63 72 137 255 
-18.8423 -6.70277 -0.565609 72 35 116 255 
-19.422 -6.96292 -0.749344 64 70 136 255 
-19.4274 -6.9454 -0.940483 62 74 137 255 
-19.4352 -6.93308 -1.1356 65 68 135 255 
-19.3328 -6.87347 -1.32327 71 44 122 255 
-18.294 -6.55494 -1.41002 72 41 121 255 
-18.9111 -6.75339 -1.64389 72 27 109 255 
-17.7392 -6.3176 -1.72034 72 20 103 255 
-15.5535 -5.52978 -1.6651 72 24 106 255 
-13.9309 -4.98337 -1.61252 71 44 122 255 
-12.4652 -4.44901 -1.56885 71 47 125 255 
-11.2967 -4.02098 -1.53608 70 51 127 255 
-10.308 -3.6608 -1.50621 69 56 130 255 
-9.51333 -3.39751 -1.4755 66 63 133 255 
-8.91647 -3.17892 -1.47221 69 55 129 255 
-8.27798 -2.94485 -1.44982 69 56 130 255 
-7.73417 -2.74672 -1.43538 70 52 128 255 
-7.2814 -2.59469 -1.4187 57 85 140 255 
-6.86937 -2.44503 -1.40677 60 79 138 255 
-6.50679 -2.31476 -1.40133 64 69 136 255 
-6.17094 -2.19276 -1.39561 61 77 138 255 
-5.87652 -2.09061 -1.38392 54 93 141 255 
-5.59198 -1.98817 -1.37455 62 73 137 255 
-5.336 -1.89616 -1.36895 60 80 139 255 
-5.07926 -1.80684 -1.36015 62 73 137 255 
-4.85537 -1.72256 -1.34677 63 71 136 255 
-4.71157 -1.67144 -1.3564 68 57 131 255 
-4.5232 -1.60644 -1.35284 69 55 129 255 
-4.34483 -1.54729 -1.3513 70 50 126 255 
-24.5765 -8.66029 7.8276 70 10 93 255 
-25.4725 -9.00061 7.81307 70 10 93 255 
-26.4019 -9.33963 7.80337 70 8 92 255 
-27.1759 -9.61283 7.74007 70 7 90 255 
-25.9501 -9.15958 7.14257 71 14 97 255 
-35.4333 -12.5133 9.35531 69 5 89 255 
-35.5139 -12.5351 8.993 69 5 89 255 
-0 -0 0 69 4 87 255 
-24.8456 -8.77459 5.8126 69 5 89 255 
-26.066 -9.20011 5.80997 69 5 89 255 
-26.7196 -9.41531 5.67631 70 8 92 255 
-27.8991 -9.81944 5.64205 71 13 96 255 
-27.9972 -9.88762 5.41734 72 20 103 255 
-18.6838 -6.59085 3.4186 71 44 122 255 
-18.6942 -6.58005 3.22409 62 73 137 255 
-18.6877 -6.5591 3.03773 71 44 122 255 
-18.6416 -6.57991 2.86986 71 45 123 255 
-18.6803 -6.58596 2.68157 70 48 126 255 
-18.6409 -6.5503 2.48554 68 59 132 255 
-18.6689 -6.54518 2.30647 69 56 130 255 
-18.6475 -6.58199 2.14476 67 62 133 255 
-18.6763 -6.57353 1.95879 72 41 121 255 
-20.0553 -7.04339 1.9008 71 16 99 255 
-28.6317 -10.0213 2.43002 72 35 116 255 
-28.6203 -10.0965 2.19142 70 51 127 255 
-28.6136 -10.0656 1.90304 69 56 130 255 
-28.5812 -10.0209 1.61378 70 51 127 255 
-28.5645 -9.98657 1.32647 72 36 117 255 
-28.5629 -10.065 1.08931 72 27 109 255 
-28.5246 -10.0231 0.802276 72 29 111 255 
-28.4995 -9.98663 0.516574 72 35 116 255 
-28.4416 -9.93248 0.236614 72 40 120 255 
-19.5094 -6.87094 -0.00361004 64 69 136 255 
-19.5017 -6.84494 -0.198405 64 70 136 255 
-19.4918 -6.82257 -0.389315 63 71 136 255 
-19.5126 -6.80663 -0.584466 66 65 134 255 
-19.4747 -6.84726 -0.749743 63 71 136 255 
-19.4894 -6.833 -0.941439 62 74 137 255 
-19.4811 -6.81502 -1.13582 66 64 134 255 
-19.4651 -6.78626 -1.32945 66 65 134 255 
-19.0067 -6.67898 -1.46176 71 45 123 255 
-19.0359 -6.66655 -1.65115 72 41 121 255 
-17.7691 -6.20568 -1.71953 72 20 103 255 
-15.557 -5.42376 -1.66189 72 23 105 255 
-13.8758 -4.86785 -1.60266 72 40 120 255 
-12.481 -4.36851 -1.56744 71 46 124 255 
-11.3015 -3.94472 -1.53342 70 48 126 255 
-10.3668 -3.61019 -1.51153 69 56 130 255 
-9.50692 -3.32959 -1.4713 68 59 132 255 
-8.89663 -3.11045 -1.46576 70 52 128 255 
-8.26887 -2.88458 -1.4451 68 59 132 255 
-7.75181 -2.69954 -1.43555 65 66 135 255 
-7.29904 -2.55061 -1.41906 59 81 139 255 
-6.90372 -2.40963 -1.41075 58 83 139 255 
-6.49034 -2.26414 -1.39477 64 70 136 255 
-6.18612 -2.1555 -1.39602 61 78 138 255 
-5.89292 -2.0558 -1.38479 54 92 141 255 
-5.61512 -1.95767 -1.37725 59 81 139 255 
-5.33927 -1.8605 -1.36683 62 73 137 255 
-5.08934 -1.77533 -1.3599 62 76 138 255 
-4.8759 -1.69624 -1.34955 63 72 137 255 
-4.71627 -1.6406 -1.35482 66 64 134 255 
-4.55115 -1.58499 -1.35826 69 53 129 255 
-4.34156 -1.51617 -1.34736 70 50 126 255 
-18.8484 -6.5121 5.99038 72 41 121 255 
-18.8003 -6.51353 5.75416 71 44 122 255 
-18.8465 -6.53711 5.55835 72 35 116 255 
-18.9337 -6.5669 5.38099 72 24 106 255 
-18.7943 -6.5044 5.16192 71 42 122 255 
-18.8858 -6.53946 4.97565 72 31 112 255 
-18.7188 -6.47817 4.72992 72 33 115 255 
-18.8601 -6.52299 4.5706 72 29 111 255 
-18.9462 -6.56066 4.42294 72 23 105 255 
-18.792 -6.50332 4.17966 72 38 119 255 
-18.7446 -6.47612 3.97359 72 37 118 255 
-18.7085 -6.45597 3.77536 72 33 115 255 
-18.6906 -6.47216 3.60881 72 32 113 255 
-18.7118 -6.4719 3.41639 62 76 138 255 
-18.7063 -6.45556 3.21927 62 73 137 255 
-18.7099 -6.4382 3.03485 61 78 138 255 
-18.6741 -6.46281 2.86871 66 65 134 255 
-18.6932 -6.46182 2.67768 65 66 135 255 
-18.6685 -6.4316 2.48392 63 72 137 255 
-18.6702 -6.41727 2.30172 64 70 136 255 
-18.6697 -6.46127 2.14272 66 64 134 255 
-18.6946 -6.45135 1.95652 71 46 124 255 
-19.0236 -6.55021 1.79918 71 17 100 255 
-18.7334 -6.42804 1.58656 72 26 108 255 
-22.9931 -7.95304 1.75678 70 8 92 255 
-22.0401 -7.60155 1.46272 70 7 90 255 
-18.7898 -6.45869 1.05867 71 16 99 255 
-18.6604 -6.39574 0.864708 72 31 112 255 
-22.9246 -7.92042 0.87241 70 7 90 255 
-25.7275 -8.86327 0.722061 70 10 93 255 
-18.8744 -6.48409 0.341384 71 17 100 255 
-18.7358 -6.41428 0.155539 72 22 104 255 
-19.5456 -6.74914 -0.00360899 64 70 136 255 
-19.5499 -6.72743 -0.198472 65 66 135 255 
-19.538 -6.70446 -0.389409 68 57 131 255 
-19.5001 -6.66834 -0.582854 72 41 121 255 
-19.5126 -6.72634 -0.749598 67 62 133 255 
-19.5414 -6.71686 -0.94194 66 64 134 255 
-19.5188 -6.69406 -1.1356 70 52 128 255 
-19.4705 -6.65443 -1.327 71 44 122 255 
-19.0303 -6.55639 -1.46046 72 37 118 255 
-19.1217 -6.56516 -1.65507 72 26 108 255 
-17.7871 -6.08976 -1.71762 72 22 104 255 
-15.5401 -5.31114 -1.65657 72 24 106 255 
-13.8932 -4.77841 -1.60125 72 38 119 255 
-12.5076 -4.29184 -1.56744 70 51 127 255 
-11.303 -3.8676 -1.53037 69 55 129 255 
-10.4084 -3.55324 -1.51439 67 61 132 255 
-9.54776 -3.27826 -1.47448 69 56 130 255 
-8.89312 -3.04811 -1.46207 70 52 128 255 
-8.27522 -2.82996 -1.44314 69 56 130 255 
-7.7617 -2.64969 -1.43434 65 68 135 255 
-7.32293 -2.50865 -1.42069 60 80 139 255 
-6.90072 -2.36118 -1.40715 55 90 140 255 
-6.50318 -2.22396 -1.39457 61 78 138 255 
-6.19646 -2.11656 -1.3954 61 77 138 255 
-5.88972 -2.01423 -1.38111 57 85 140 255 
-5.62334 -1.92192 -1.37635 57 85 140 255 
-5.33403 -1.82205 -1.36261 62 73 137 255 
-5.10472 -1.74563 -1.36112 64 70 136 255 
-4.89995 -1.67097 -1.35334 63 72 137 255 
-4.69245 -1.6001 -1.34514 69 55 129 255 
-4.5198 -1.54304 -1.34605 70 51 127 255 
-4.3535 -1.49044 -1.34821 70 48 126 255 
-18.7456 -6.3481 5.94521 66 64 134 255 
-18.7517 -6.36808 5.72721 62 73 137 255 
-18.7942 -6.39002 5.53124 59 82 139 255 
-18.7541 -6.376 5.31875 64 70 136 255 
-18.7321 -6.35445 5.13403 62 73 137 255 
-18.7078 -6.34955 4.91839 62 74 137 255 
-18.7205 -6.35038 4.7204 63 71 136 255 
-18.7272 -6.34863 4.52885 65 66 135 255 
-18.7087 -6.35013 4.35832 65 68 135 255 
-18.7333 -6.35457 4.15785 63 71 136 255 
-18.7283 -6.34211 3.9618 63 71 136 255 
-18.7115 -6.32878 3.76805 64 70 136 255 
-18.7048 -6.34882 3.60396 63 71 136 255 
-18.697 -6.33861 3.40653 57 85 140 255 
-18.7212 -6.33243 3.2151 60 80 139 255 
-18.6994 -6.30654 3.02681 59 82 139 255 
-18.6806 -6.33698 2.86368 59 81 139 255 
-18.7203 -6.34287 2.67594 56 89 140 255 
-18.6663 -6.30297 2.47843 61 78 138 255 
-18.6716 -6.2899 2.29709 60 80 139 255 
-18.6751 -6.3351 2.13883 60 80 139 255 
-18.6773 -6.31739 1.95062 62 73 137 255 
-18.668 -6.29992 1.76186 62 73 137 255 
-18.6449 -6.27008 1.57578 64 69 136 255 
-18.6481 -6.32233 1.42181 63 72 137 255 
-18.6855 -6.31652 1.23749 60 80 139 255 
-18.6379 -6.27888 1.04792 62 74 137 255 
-18.6529 -6.26553 0.862562 61 78 138 255 
-18.6319 -6.30959 0.707562 63 72 137 255 
-18.6222 -6.28788 0.521552 60 80 139 255 
-18.6447 -6.27755 0.336526 61 78 138 255 
-18.6345 -6.25212 0.154376 63 72 137 255 
-18.6261 -6.30401 -0.00343202 59 82 139 255 
-18.6405 -6.28682 -0.188844 63 71 136 255 
-18.6397 -6.26862 -0.37073 62 73 137 255 
-18.6137 -6.23792 -0.555206 69 55 129 255 
-18.5878 -6.28021 -0.712577 69 55 129 255 
-18.5996 -6.26579 -0.894672 65 68 135 255 
-18.5979 -6.25096 -1.07977 68 58 131 255 
-18.5685 -6.21917 -1.2629 70 52 128 255 
-18.5854 -6.2758 -1.42333 70 48 126 255 
-18.5552 -6.24364 -1.60268 66 65 134 255 
-17.7467 -5.95453 -1.71015 71 14 97 255 
-15.5809 -5.21854 -1.65747 72 22 104 255 
-13.9232 -4.69339 -1.60136 72 35 116 255 
-12.5374 -4.21628 -1.56791 70 50 126 255 
-11.318 -3.79533 -1.52922 70 51 127 255 
-10.4028 -3.48019 -1.51044 67 62 133 255 
-9.5677 -3.21961 -1.47448 68 58 131 255 
-8.92008 -2.99632 -1.46345 70 51 127 255 
-8.30459 -2.7832 -1.44526 68 57 131 255 
-7.76941 -2.59921 -1.43279 68 59 132 255 
-7.32513 -2.45929 -1.41816 61 78 138 255 
-6.90204 -2.31443 -1.40449 62 74 137 255 
-6.54644 -2.19398 -1.40093 63 72 137 255 
-6.19913 -2.07508 -1.3931 60 79 138 255 
-5.89827 -1.97681 -1.38024 59 82 139 255 
-5.60546 -1.87747 -1.36913 59 81 139 255 
-5.3534 -1.79206 -1.36472 61 78 138 255 
-5.11258 -1.71335 -1.36039 62 73 137 255 
-4.90736 -1.63995 -1.35258 64 69 136 255 
-4.71682 -1.57618 -1.34932 68 57 131 255 
-4.53466 -1.51711 -1.34768 69 55 129 255 
-4.36711 -1.46522 -1.34961 70 48 126 255 
-18.7588 -6.22451 5.93716 62 74 137 255 
-18.7703 -6.24623 5.7211 61 77 138 255 
-18.7426 -6.24444 5.50466 62 74 137 255 
-18.7535 -6.24768 5.3076 63 72 137 255 
-18.7267 -6.22473 5.12197 61 78 138 255 
-18.7188 -6.22545 4.91114 62 73 137 255 
-18.7258 -6.22435 4.71203 63 72 137 255 
-18.7399 -6.22499 4.5226 64 70 136 255 
-18.7 -6.2195 4.34733 64 69 136 255 
-18.7162 -6.22098 4.14551 61 77 138 255 
-18.6933 -6.20269 3.94628 62 73 137 255 
-18.6987 -6.19686 3.75774 66 64 134 255 
-18.7192 -6.22585 3.59929 62 76 138 255 
-18.6907 -6.20886 3.39837 56 88 140 255 
-18.711 -6.2013 3.20675 58 83 139 255 
-18.6749 -6.1709 3.01665 60 79 138 255 
-18.6854 -6.211 2.85851 57 86 140 255 
-18.6771 -6.20072 2.66427 57 86 140 255 
-18.6594 -6.17335 2.47244 59 82 139 255 
-18.6674 -6.16121 2.29188 60 80 139 255 
-18.6693 -6.20565 2.13377 58 84 140 255 
-18.6892 -6.1939 1.94786 64 70 136 255 
-18.6628 -6.17087 1.75776 65 68 135 255 
-18.6547 -6.1462 1.57338 64 70 136 255 
-18.662 -6.19961 1.41994 62 73 137 255 
-18.6443 -6.17539 1.23223 60 80 139 255 
-18.6486 -6.15533 1.04638 61 77 138 255 
-18.6284 -6.13035 0.859671 62 73 137 255 
-18.6257 -6.18036 0.705872 61 78 138 255 
-18.6471 -6.1691 0.521181 62 76 138 255 
-18.6306 -6.1458 0.335586 62 74 137 255 
-18.6136 -6.11831 0.153889 62 74 137 255 
-18.599 -6.16788 -0.00341997 59 81 139 255 
-18.5951 -6.14471 -0.188 61 77 138 255 
-18.6455 -6.14349 -0.370089 64 70 136 255 
-18.6089 -6.10956 -0.553934 69 56 130 255 
-18.5956 -6.15599 -0.711416 66 64 134 255 
-18.576 -6.1312 -0.891712 66 65 134 255 
-18.5686 -6.11456 -1.07587 67 62 133 255 
-18.5513 -6.08707 -1.25917 69 55 129 255 
-18.5696 -6.14379 -1.41921 68 58 131 255 
-18.5487 -6.115 -1.59885 66 65 134 255 
-17.7526 -5.83558 -1.70724 71 13 96 255 
-15.6249 -5.12687 -1.65878 72 24 106 255 
-13.9395 -4.60382 -1.59995 72 38 119 255 
-12.5565 -4.1371 -1.56708 70 50 126 255 
-11.3722 -3.73603 -1.53342 70 50 126 255 
-10.423 -3.41599 -1.5103 69 55 129 255 
-9.57035 -3.15527 -1.47188 67 62 133 255 
-8.93267 -2.93968 -1.46253 71 46 124 255 
-8.35994 -2.74481 -1.45193 65 68 135 255 
-7.803 -2.55731 -1.43607 66 65 134 255 
-7.32513 -2.40938 -1.41527 62 73 137 255 
-6.93477 -2.27816 -1.40828 60 80 139 255 
-6.56443 -2.1553 -1.40193 66 65 134 255 
-6.20059 -2.03335 -1.3906 62 76 138 255 
-5.92141 -1.94424 -1.38284 58 84 140 255 
-5.6104 -1.84092 -1.36755 62 73 137 255 
-5.35598 -1.75646 -1.36261 63 72 137 255 
-5.12576 -1.68286 -1.36112 65 66 135 255 
-4.91641 -1.60951 -1.35233 63 71 136 255 
-4.77685 -1.56372 -1.36373 64 70 136 255 
-4.57498 -1.49945 -1.3569 69 56 130 255 
-4.38331 -1.4408 -1.35186 70 48 126 255 
-18.6955 -6.07643 5.90522 63 72 137 255 
-18.7307 -6.10564 5.69748 63 72 137 255 
-18.7558 -6.12125 5.49742 62 76 138 255 
-18.7309 -6.11271 5.29048 65 68 135 255 
-18.7286 -6.09803 5.11217 63 71 136 255 
-18.7206 -6.09875 4.90172 64 69 136 255 
-18.7267 -6.09729 4.70274 64 69 136 255 
-18.7054 -6.08637 4.50519 66 65 134 255 
-18.6599 -6.07923 4.32924 64 70 136 255 
-18.6889 -6.08481 4.13111 62 76 138 255 
-18.6826 -6.07211 3.93607 65 68 135 255 
-18.6812 -6.06411 3.74669 66 65 134 255 
-18.7056 -6.09412 3.58942 62 74 137 255 
-18.6891 -6.08125 3.39123 56 88 140 255 
-18.7008 -6.07083 3.19856 57 85 140 255 
-18.6663 -6.04128 3.00922 61 78 138 255 
-18.6789 -6.08183 2.85176 54 92 141 255 
-18.6752 -6.07313 2.65863 54 93 141 255 
-18.6526 -6.04437 2.46657 56 89 140 255 
-18.668 -6.03464 2.28736 61 78 138 255 
-18.6361 -6.0679 2.12568 57 86 140 255 
-18.6654 -6.05914 1.94146 61 78 138 255 
-18.6681 -6.04581 1.75473 61 78 138 255 
-18.6379 -6.01418 1.56883 64 69 136 255 
-18.6475 -6.06801 1.41598 61 78 138 255 
-18.6401 -6.04732 1.22947 61 78 138 255 
-18.6233 -6.02051 1.04287 63 72 137 255 
-18.6095 -5.99785 0.857088 63 71 136 255 
-18.6005 -6.04557 0.7035 60 80 139 255 
-18.6247 -6.03516 0.51951 58 83 139 255 
-18.6271 -6.01816 0.33485 61 77 138 255 
-18.6185 -5.99356 0.153622 62 73 137 255 
-18.5975 -6.04098 -0.00341282 61 77 138 255 
-18.5611 -6.00741 -0.18728 62 76 138 255 
-18.6172 -6.00778 -0.368789 63 72 137 255 
-18.6004 -5.98058 -0.552576 69 55 129 255 
-18.5979 -6.03036 -0.710073 66 63 133 255 
-18.5772 -6.00543 -0.889982 67 62 133 255 
-18.5867 -5.99438 -1.07477 68 59 132 255 
-18.5731 -5.96825 -1.25814 69 56 130 255 
-18.5538 -6.01252 -1.41515 69 56 130 255 
-18.546 -5.98821 -1.59542 66 65 134 255 
-17.8118 -5.73417 -1.70952 71 19 101 255 
-15.6561 -5.0309 -1.65878 72 23 105 255 
-13.9202 -4.5029 -1.59453 72 40 120 255 
-12.5665 -4.0551 -1.5652 71 44 122 255 
-11.3477 -3.65099 -1.52706 70 50 126 255 
-10.4419 -3.35136 -1.51003 66 65 134 255 
-9.58953 -3.09649 -1.47188 65 66 135 255 
-8.97969 -2.89421 -1.4673 70 51 127 255 
-8.32403 -2.67655 -1.44282 68 57 131 255 
-7.82229 -2.51059 -1.43676 66 65 134 255 
-7.33697 -2.36348 -1.41473 62 73 137 255 
-6.96077 -2.23948 -1.41075 62 74 137 255 
-6.53835 -2.10238 -1.39357 62 74 137 255 
-6.21481 -1.99586 -1.39102 62 74 137 255 
-5.94531 -1.91175 -1.38565 58 83 139 255 
-5.62437 -1.80735 -1.36823 60 79 138 255 
-5.38054 -1.72802 -1.36613 61 78 138 255 
-5.13137 -1.64989 -1.3599 64 69 136 255 
-4.9308 -1.58079 -1.35359 62 73 137 255 
-4.77808 -1.53173 -1.36137 65 66 135 255 
-4.5841 -1.47135 -1.3569 68 57 131 255 
-4.39207 -1.41387 -1.35186 70 51 127 255 
-18.6987 -5.95086 5.89458 63 72 137 255 
-18.7312 -5.97891 5.68637 59 81 139 255 
-18.7435 -5.99022 5.48292 62 73 137 255 
-18.7211 -5.98268 5.27726 61 77 138 255 
-18.7122 -5.96594 5.0976 63 72 137 255 
-18.6967 -5.96431 4.88578 61 77 138 255 
-18.6896 -5.95863 4.68416 62 74 137 255 
-18.6857 -5.95343 4.49157 63 72 137 255 
-18.6763 -5.95809 4.3245 65 68 135 255 
-18.6821 -5.95606 4.12145 62 76 138 255 
-18.6382 -5.93149 3.91898 63 72 137 255 
-18.6694 -5.9339 3.73695 64 70 136 255 
-18.6601 -5.95292 3.57363 61 78 138 255 
-18.6706 -5.94881 3.3812 58 83 139 255 
-18.6719 -5.93504 3.18732 59 82 139 255 
-18.6653 -5.91469 3.00316 58 83 139 255 
-18.6536 -5.94727 2.84228 56 89 140 255 
-18.6479 -5.93798 2.64951 57 85 140 255 
-18.6439 -5.9154 2.46058 57 85 140 255 
-18.6734 -5.91009 2.28354 62 76 138 255 
-18.6304 -5.93984 2.12083 60 80 139 255 
-18.6273 -5.92068 1.93368 62 76 138 255 
-18.6156 -5.90285 1.74636 61 78 138 255 
-18.626 -5.88439 1.56476 64 69 136 255 
-18.6026 -5.92744 1.40979 62 74 137 255 
-18.6026 -5.90927 1.22459 60 79 138 255 
-18.6027 -5.88805 1.03967 64 70 136 255 
-18.6079 -5.87153 0.855336 61 78 138 255 
-18.6049 -5.92102 0.702278 59 81 139 255 
-18.5813 -5.89537 0.517281 61 78 138 255 
-18.5864 -5.87932 0.333465 62 73 137 255 
-18.6005 -5.86208 0.153175 61 78 138 255 
-18.5884 -5.91221 -0.00340444 60 79 138 255 
-18.571 -5.88495 -0.187011 62 76 138 255 
-18.5784 -5.86964 -0.3673 62 73 137 255 
-18.5013 -5.82372 -0.548562 69 55 129 255 
-18.5878 -5.90132 -0.708295 65 66 135 255 
-18.5651 -5.87595 -0.887659 66 65 134 255 
-18.526 -5.84956 -1.06917 67 62 133 255 
-18.5332 -5.83021 -1.25299 68 59 132 255 
-18.5238 -5.87744 -1.41009 68 57 131 255 
-18.5168 -5.85358 -1.58979 65 68 135 255 
-17.8562 -5.62776 -1.71043 71 19 101 255 
-15.7189 -4.94489 -1.66219 72 24 106 255 
-13.922 -4.4093 -1.59161 72 37 118 255 
-12.5675 -3.97043 -1.56226 71 46 124 255 
-11.369 -3.581 -1.52694 70 48 126 255 
-10.4188 -3.27357 -1.50375 69 53 129 255 
-9.60741 -3.03729 -1.47174 66 63 133 255 
-8.95676 -2.82627 -1.46069 70 52 128 255 
-8.3177 -2.61832 -1.43891 66 64 134 255 
-7.81218 -2.45458 -1.43211 65 66 135 255 
-7.34289 -2.31576 -1.4131 62 73 137 255 
-6.97438 -2.19672 -1.41075 62 76 138 255 
-6.55487 -2.0634 -1.39437 62 76 138 255 
-6.21295 -1.95329 -1.38789 62 73 137 255 
-5.94855 -1.8726 -1.3837 59 82 139 255 
-5.64929 -1.77719 -1.37161 58 84 140 255 
-5.39104 -1.69497 -1.36613 64 70 136 255 
-5.1414 -1.61838 -1.3599 64 70 136 255 
-4.93671 -1.54935 -1.35258 63 71 136 255 
-4.77818 -1.49949 -1.35875 66 65 134 255 
-4.55631 -1.43165 -1.34605 69 55 129 255 
-4.35582 -1.37276 -1.33808 71 42 122 255 
-18.712 -5.82889 5.88739 62 73 137 255 
-18.7162 -5.84782 5.67081 62 73 137 255 
-18.7045 -5.85151 5.46091 62 76 138 255 
-18.693 -5.84751 5.25911 63 71 136 255 
-18.6764 -5.82852 5.07801 61 77 138 255 
-18.6931 -5.83704 4.87539 61 77 138 255 
-18.6645 -5.82472 4.66883 62 73 137 255 
-18.6819 -5.82618 4.48197 66 65 134 255 
-18.6594 -5.82679 4.31222 62 74 137 255 
-18.6809 -5.82965 4.11322 64 70 136 255 
-18.6471 -5.80856 3.91328 63 72 137 255 
-18.668 -5.80756 3.72945 66 63 133 255 
-18.6418 -5.8213 3.56322 62 73 137 255 
-18.6579 -5.81888 3.37235 58 83 139 255 
-18.6382 -5.79866 3.17544 60 80 139 255 
-18.6625 -5.78805 2.99694 57 86 140 255 
-18.6435 -5.81825 2.83524 54 93 141 255 
-18.6291 -5.80635 2.64173 55 90 140 255 
-18.6164 -5.78118 2.45222 56 88 140 255 
-18.6182 -5.76719 2.27242 60 80 139 255 
-18.6437 -5.81831 2.11824 55 91 141 255 
-18.6186 -5.79238 1.92906 62 76 138 255 
-18.6306 -5.78202 1.7444 61 77 138 255 
-18.6504 -5.76646 1.5638 63 71 136 255 
-18.6358 -5.81229 1.40957 62 76 138 255 
-18.6033 -5.78405 1.22227 58 84 140 255 
-18.587 -5.75784 1.0368 62 74 137 255 
-18.5987 -5.74339 0.853278 62 76 138 255 
-18.6056 -5.79575 0.700948 57 85 140 255 
-18.5942 -5.77413 0.516645 60 79 138 255 
-18.6011 -5.75866 0.333089 61 77 138 255 
-18.5635 -5.72544 0.152578 61 78 138 255 
-18.5709 -5.78139 -0.00339467 62 73 137 255 
-18.5647 -5.75785 -0.186589 62 76 138 255 
-18.5653 -5.74047 -0.366338 63 71 136 255 
-18.5348 -5.7095 -0.548506 69 56 130 255 
-18.5273 -5.7572 -0.704629 66 64 134 255 
-18.5473 -5.74538 -0.885109 66 64 134 255 
-18.5282 -5.72545 -1.06724 68 57 131 255 
-18.5362 -5.7064 -1.2508 68 57 131 255 
-18.5157 -5.75007 -1.40676 66 63 133 255 
-18.501 -5.72394 -1.58539 65 66 135 255 
-17.8932 -5.51897 -1.7107 72 20 103 255 
-15.6701 -4.82405 -1.65386 72 26 108 255 
-13.9535 -4.32527 -1.59215 72 35 116 255 
-12.6134 -3.89999 -1.56496 70 48 126 255 
-11.421 -3.52052 -1.531 69 53 129 255 
-10.4794 -3.2221 -1.50962 68 58 131 255 
-9.61925 -2.97624 -1.47073 69 56 130 255 
-8.97488 -2.77155 -1.46084 70 48 126 255 
-8.3487 -2.57188 -1.44151 64 69 136 255 
-7.81956 -2.40428 -1.43073 66 64 134 255 
-7.36072 -2.27182 -1.41383 65 68 135 255 
-6.97928 -2.15129 -1.40904 62 76 138 255 
-6.57771 -2.02631 -1.39656 65 66 135 255 
-6.22668 -1.91571 -1.38831 61 78 138 255 
-5.93101 -1.82715 -1.37699 58 84 140 255 
-5.66288 -1.74336 -1.37229 60 80 139 255 
-5.3809 -1.65557 -1.36096 64 70 136 255 
-5.15587 -1.58823 -1.36112 62 73 137 255 
-4.94613 -1.51903 -1.35258 63 72 137 255 
-4.77807 -1.46731 -1.35613 69 55 129 255 
-4.53189 -1.39348 -1.33629 69 53 129 255 
-4.39625 -1.35591 -1.34793 70 51 127 255 
-18.7263 -5.70755 5.88077 62 76 138 255 
-18.6874 -5.71321 5.65137 64 70 136 255 
-18.6765 -5.71718 5.44239 62 73 137 255 
-18.6832 -5.71885 5.2464 64 69 136 255 
-18.6738 -5.70223 5.06771 63 72 137 255 
-18.685 -5.7089 4.86404 61 78 138 255 
-18.6711 -5.70128 4.66163 61 78 138 255 
-18.6931 -5.70405 4.47616 65 68 135 255 
-18.6593 -5.70135 4.30403 61 77 138 255 
-18.6798 -5.70377 4.1052 60 80 139 255 
-18.6561 -5.68603 3.90778 63 72 137 255 
-18.644 -5.67489 3.71765 63 72 137 255 
-18.6405 -5.6956 3.55622 61 77 138 255 
-18.6319 -5.6856 3.3613 56 88 140 255 
-18.646 -5.67585 3.17078 57 86 140 255 
-18.6183 -5.64932 2.98421 57 86 140 255 
-18.6391 -5.69161 2.8292 55 91 141 255 
-18.617 -5.67748 2.63502 57 86 140 255 
-18.6173 -5.65646 2.44772 58 84 140 255 
-18.5877 -5.63296 2.26443 62 76 138 255 
-18.5934 -5.67767 2.10853 59 81 139 255 
-18.6147 -5.66615 1.92502 63 72 137 255 
-18.638 -5.65921 1.74182 61 77 138 255 
-18.6081 -5.62853 1.55733 64 69 136 255 
-18.5748 -5.66843 1.4023 63 72 137 255 
-18.6069 -5.66021 1.2202 56 88 140 255 
-18.5904 -5.63412 1.03504 62 76 138 255 
-18.5781 -5.6124 0.850737 60 80 139 255 
-18.5873 -5.66516 0.698935 57 85 140 255 
-18.5853 -5.64656 0.515425 61 78 138 255 
-18.5634 -5.62239 0.331789 63 72 137 255 
-18.56 -5.59987 0.152264 64 70 136 255 
-18.5658 -5.6551 -0.00338733 60 80 139 255 
-18.5528 -5.62961 -0.186118 60 80 139 255 
-18.5476 -5.61053 -0.365302 64 70 136 255 
-18.5465 -5.58874 -0.547827 69 53 129 255 
-18.5164 -5.62946 -0.702887 66 65 134 255 
-18.5564 -5.62364 -0.88388 65 66 135 255 
-18.5391 -5.60444 -1.06587 67 61 132 255 
-18.5241 -5.57846 -1.24765 68 59 132 255 
-18.5201 -5.62707 -1.40444 67 62 133 255 
-18.5119 -5.6031 -1.58335 64 70 136 255 
-17.9258 -5.40879 -1.71061 72 22 104 255 
-15.7051 -4.72953 -1.65446 72 29 111 255 
-13.9807 -4.23986 -1.59226 72 38 119 255 
-12.6162 -3.8162 -1.56237 70 50 126 255 
-11.4481 -3.45209 -1.53176 71 44 122 255 
-10.516 -3.16287 -1.51207 69 55 129 255 
-9.62691 -2.914 -1.46914 68 58 131 255 
-8.9501 -2.70386 -1.45408 70 50 126 255 
-8.35677 -2.51833 -1.44021 65 68 135 255 
-7.83322 -2.35597 -1.43055 66 65 134 255 
-7.37923 -2.22803 -1.41473 63 72 137 255 
-6.97449 -2.10304 -1.40544 60 79 138 255 
-6.60878 -1.99157 -1.40053 61 77 138 255 
-6.24394 -1.87915 -1.38956 62 74 137 255 
-5.94678 -1.79214 -1.37807 58 83 139 255 
-5.66881 -1.70717 -1.37116 61 78 138 255 
-5.38631 -1.62112 -1.35979 65 66 135 255 
-5.16366 -1.556 -1.36064 63 71 136 255 
-4.95813 -1.48949 -1.35334 64 69 136 255 
-4.75001 -1.42686 -1.34566 70 51 127 255 
-4.5634 -1.37258 -1.34307 69 55 129 255 
-4.39071 -1.32475 -1.34371 71 47 125 255 
-18.6903 -5.57147 5.85862 63 72 137 255 
-18.6742 -5.58413 5.63692 60 80 139 255 
-18.6761 -5.59197 5.43219 60 79 138 255 
-18.6819 -5.5933 5.23629 62 74 137 255 
-18.664 -5.57424 5.05565 62 73 137 255 
-18.6657 -5.57803 4.85002 61 77 138 255 
-18.6703 -5.57603 4.65281 61 77 138 255 
-18.6595 -5.56889 4.45987 68 58 131 255 
-18.6631 -5.57752 4.29693 64 69 136 255 
-18.6498 -5.56973 4.091 62 73 137 255 
-18.6549 -5.56081 3.90031 62 76 138 255 
-18.6399 -5.54889 3.70996 63 72 137 255 
-18.644 -5.57182 3.55029 62 76 138 255 
-18.6136 -5.55538 3.35178 57 85 140 255 
-18.6171 -5.54247 3.16002 56 89 140 255 
-18.6147 -5.52373 2.97815 61 78 138 255 
-18.6272 -5.56326 2.82216 55 91 141 255 
-18.6002 -5.54784 2.62778 59 81 139 255 
-18.5889 -5.52347 2.43948 58 83 139 255 
-18.5857 -5.50808 2.26003 61 78 138 255 
-18.5965 -5.55409 2.10498 58 83 139 255 
-18.6043 -5.53848 1.92039 60 80 139 255 
-18.5922 -5.52092 1.73433 63 71 136 255 
-18.6031 -5.50266 1.55406 62 74 137 255 
-18.5834 -5.54665 1.40035 59 82 139 255 
-18.5887 -5.53028 1.21676 58 84 140 255 
-18.5529 -5.49867 1.03105 62 74 137 255 
-18.5566 -5.48189 0.848197 62 76 138 255 
-18.5748 -5.53702 0.697173 58 83 139 255 
-18.5746 -5.51904 0.514178 60 80 139 255 
-18.5707 -5.50043 0.33131 60 79 138 255 
-18.5566 -5.47485 0.151957 63 71 136 255 
-18.5475 -5.52537 -0.00337774 60 80 139 255 
-18.5314 -5.49916 -0.185561 62 74 137 255 
-18.5327 -5.48215 -0.36434 63 72 137 255 
-18.5057 -5.4528 -0.545622 68 57 131 255 
-18.5334 -5.51061 -0.702233 64 70 136 255 
-18.513 -5.48668 -0.880191 68 58 131 255 
-18.5224 -5.47557 -1.06296 67 61 132 255 
-18.5244 -5.45483 -1.24539 68 57 131 255 
-18.5027 -5.49799 -1.40053 69 56 130 255 
-18.4953 -5.47441 -1.57902 63 72 137 255 
-17.9243 -5.28855 -1.70733 72 22 104 255 
-15.7624 -4.64151 -1.65747 72 24 106 255 
-14.0093 -4.15484 -1.59258 72 41 121 255 
-12.626 -3.73477 -1.56073 70 48 126 255 
-11.4415 -3.37365 -1.52808 67 61 132 255 
-10.5267 -3.09577 -1.51085 68 58 131 255 
-9.61425 -2.84589 -1.46451 68 59 132 255 
-8.96178 -2.64749 -1.45331 71 46 124 255 
-8.38153 -2.46979 -1.44184 68 58 131 255 
-7.84469 -2.30703 -1.43004 66 64 134 255 
-7.38427 -2.1802 -1.4131 63 72 137 255 
-6.94583 -2.04798 -1.39711 62 76 138 255 
-6.57105 -1.9363 -1.39 61 77 138 255 
-6.26567 -1.84384 -1.39185 60 79 138 255 
-5.97546 -1.76086 -1.38219 58 83 139 255 
-5.68572 -1.67428 -1.37274 60 80 139 255 
-5.40921 -1.59188 -1.36308 64 69 136 255 
-5.17962 -1.52621 -1.36235 61 78 138 255 
-4.95883 -1.45658 -1.35107 66 65 134 255 
-4.74201 -1.39279 -1.34095 68 59 132 255 
-4.60313 -1.35379 -1.35229 69 56 130 255 
-4.39323 -1.29616 -1.34202 71 46 124 255 
-18.6589 -5.43766 5.83819 61 78 138 255 
-18.6565 -5.45434 5.62136 62 73 137 255 
-18.6814 -5.46888 5.42387 60 80 139 255 
-18.663 -5.4631 5.2215 62 76 138 255 
-18.6458 -5.44442 5.04158 65 68 135 255 
-18.6372 -5.44516 4.83384 60 80 139 255 
-18.6481 -5.44501 4.63887 61 78 138 255 
-18.6353 -5.43737 4.44603 66 65 134 255 
-18.6529 -5.45003 4.2868 63 71 136 255 
-18.6582 -5.44778 4.08545 61 77 138 255 
-18.6266 -5.42813 3.88735 62 74 137 255 
-18.6085 -5.41548 3.69703 64 69 136 255 
-18.607 -5.43662 3.53683 64 69 136 255 
-18.6218 -5.43362 3.34719 55 90 140 255 
-18.6328 -5.42289 3.15697 58 83 139 255 
-18.6093 -5.39811 2.97193 57 85 140 255 
-18.5802 -5.42528 2.80995 57 86 140 255 
-18.6072 -5.42584 2.62402 57 85 140 255 
-18.5681 -5.39353 2.43237 58 84 140 255 
-18.5886 -5.38509 2.25633 60 79 138 255 
-18.5873 -5.42734 2.10012 60 80 139 255 
-18.5931 -5.41115 1.91577 60 79 138 255 
-18.5856 -5.39508 1.73059 62 76 138 255 
-18.5829 -5.3729 1.54959 64 69 136 255 
-18.573 -5.41967 1.39704 61 78 138 255 
-18.5322 -5.38992 1.21087 58 83 139 255 
-18.5527 -5.375 1.02919 61 78 138 255 
-18.5515 -5.35684 0.846446 60 79 138 255 
-18.5614 -5.40924 0.695412 58 83 139 255 
-18.5601 -5.39102 0.512852 59 81 139 255 
-18.5254 -5.36358 0.329907 61 78 138 255 
-18.5409 -5.34675 0.151557 62 74 137 255 
-18.533 -5.39748 -0.00336901 60 79 138 255 
-18.5177 -5.3717 -0.185091 61 78 138 255 
-18.5209 -5.35528 -0.363454 65 68 135 255 
-18.5109 -5.33113 -0.544802 69 55 129 255 
-18.4881 -5.37392 -0.699257 64 69 136 255 
-18.5291 -5.36798 -0.879372 66 63 133 255 
-18.5173 -5.35073 -1.06076 67 61 132 255 
-18.4962 -5.3234 -1.24128 68 59 132 255 
-18.4872 -5.37016 -1.39684 67 61 132 255 
-18.4749 -5.34531 -1.57445 64 69 136 255 
-17.921 -5.16826 -1.70397 71 19 101 255 
-15.7495 -4.53287 -1.65316 72 22 104 255 
-14.0117 -4.06216 -1.58998 72 38 119 255 
-12.622 -3.64951 -1.55743 70 48 126 255 
-11.4725 -3.3064 -1.52948 69 56 130 255 
-10.5312 -3.02702 -1.5088 69 55 129 255 
-9.65149 -2.79262 -1.46755 68 58 131 255 
-8.98355 -2.5941 -1.45423 65 66 135 255 
-8.39747 -2.41859 -1.442 66 65 134 255 
-7.84829 -2.25586 -1.42814 66 65 134 255 
-7.40318 -2.13649 -1.41419 65 68 135 255 
-6.98185 -2.01212 -1.40184 61 78 138 255 
-6.57622 -1.89404 -1.3886 62 76 138 255 
-6.26935 -1.8032 -1.39019 60 80 139 255 
-5.97677 -1.72146 -1.38002 58 84 140 255 
-5.70431 -1.64179 -1.37477 61 78 138 255 
-5.43942 -1.56457 -1.36824 61 77 138 255 
-5.19355 -1.49574 -1.36357 66 64 134 255 
-4.96953 -1.42666 -1.35157 65 66 135 255 
-4.76902 -1.36899 -1.34618 67 61 132 255 
-4.58452 -1.31781 -1.34443 68 57 131 255 
-4.40571 -1.2705 -1.34343 70 51 127 255 
-18.6375 -5.30759 5.82122 62 74 137 255 
-18.6453 -5.3271 5.60803 62 74 137 255 
-18.6646 -5.33985 5.40938 60 80 139 255 
-18.6396 -5.33228 5.20569 60 80 139 255 
-18.6481 -5.32115 5.03329 61 77 138 255 
-18.6329 -5.32005 4.82417 61 77 138 255 
-18.6223 -5.31367 4.62424 60 80 139 255 
-18.6486 -5.31731 4.44134 65 68 135 255 
-18.6174 -5.3159 4.27108 62 74 137 255 
-18.6207 -5.31306 4.07002 61 77 138 255 
-18.619 -5.30219 3.8789 63 72 137 255 
-18.597 -5.28857 3.68823 63 72 137 255 
-18.5842 -5.30641 3.52624 65 66 135 255 
-18.5941 -5.30196 3.33631 54 92 141 255 
-18.6049 -5.29118 3.1467 58 84 140 255 
-18.5907 -5.26927 2.96374 58 83 139 255 
-18.597 -5.30656 2.80751 54 92 141 255 
-18.5906 -5.29745 2.61704 55 91 141 255 
-18.5417 -5.2627 2.42463 57 85 140 255 
-18.5764 -5.25822 2.25088 59 81 139 255 
-18.56 -5.296 2.09333 58 83 139 255 
-18.5838 -5.28499 1.91143 58 83 139 255 
-18.5541 -5.26273 1.72463 64 69 136 255 
-18.5445 -5.23873 1.54368 63 71 136 255 
-18.5685 -5.29494 1.39423 62 73 137 255 
-18.5687 -5.2772 1.21113 59 82 139 255 
-18.544 -5.24937 1.0269 61 78 138 255 
-18.5379 -5.22988 0.844344 61 78 138 255 
-18.5394 -5.27965 0.693363 60 79 138 255 
-18.5438 -5.26312 0.511499 61 77 138 255 
-18.5117 -5.23675 0.329086 61 78 138 255 
-18.505 -5.21363 0.150999 63 72 137 255 
-18.5052 -5.26642 -0.00335801 59 81 139 255 
-18.507 -5.24571 -0.184659 59 81 139 255 
-18.5149 -5.23066 -0.362701 63 72 137 255 
-18.4865 -5.20147 -0.543134 70 52 128 255 
-18.4948 -5.25301 -0.698277 64 70 136 255 
-18.4751 -5.2297 -0.875273 66 63 133 255 
-18.4729 -5.21531 -1.05636 66 63 133 255 
-18.4747 -5.19468 -1.23767 67 61 132 255 
-18.4671 -5.24165 -1.39286 68 59 132 255 
-18.4748 -5.22263 -1.57168 64 69 136 255 
-17.9169 -5.04821 -1.7006 71 19 101 255 
-15.778 -4.43642 -1.65326 72 26 108 255 
-14.065 -3.98424 -1.59323 72 36 117 255 
-12.6222 -3.56578 -1.55472 71 47 125 255 
-11.4677 -3.22896 -1.52617 67 62 133 255 
-10.4933 -2.94654 -1.50075 69 55 129 255 
-9.6713 -2.73416 -1.46798 68 58 131 255 
-8.99169 -2.53678 -1.453 67 61 132 255 
-8.38176 -2.35847 -1.43679 66 63 133 255 
-7.84207 -2.20207 -1.42453 66 63 133 255 
-7.42467 -2.09343 -1.41581 64 70 136 255 
-6.99595 -1.96978 -1.40222 62 76 138 255 
-6.59621 -1.85605 -1.39039 61 77 138 255 
-6.25676 -1.75809 -1.38498 64 70 136 255 
-5.97406 -1.68105 -1.37699 58 83 139 255 
-5.71709 -1.60755 -1.37545 62 76 138 255 
-5.44331 -1.52959 -1.36683 63 71 136 255 
-5.19049 -1.46043 -1.36039 63 71 136 255 
-4.98285 -1.39745 -1.35284 67 62 133 255 
-4.77547 -1.33918 -1.34566 68 58 131 255 
-4.58418 -1.28731 -1.34198 68 59 132 255 
-4.42913 -1.24787 -1.34821 70 50 126 255 
-18.6273 -5.18133 5.80798 64 70 136 255 
-18.6406 -5.20226 5.59691 60 80 139 255 
-18.6516 -5.21252 5.39622 61 77 138 255 
-18.6059 -5.19935 5.18727 62 73 137 255 
-18.6366 -5.19441 5.02148 62 73 137 255 
-18.6287 -5.19545 4.81475 62 74 137 255 
-18.6236 -5.19069 4.61658 59 81 139 255 
-18.5711 -5.17218 4.41522 67 62 133 255 
-18.6205 -5.19343 4.2644 62 76 138 255 
-18.5974 -5.1832 4.05789 62 74 137 255 
-18.5888 -5.17051 3.86593 61 77 138 255 
-18.5988 -5.16595 3.68223 63 72 137 255 
-18.5596 -5.17643 3.51547 64 69 136 255 
-18.5542 -5.16767 3.32338 56 88 140 255 
-18.5762 -5.16001 3.13642 59 82 139 255 
-18.5846 -5.14456 2.95768 56 89 140 255 
-18.5901 -5.18146 2.80162 52 96 141 255 
-18.5607 -5.16601 2.60832 55 91 141 255 
-18.5545 -5.14353 2.42214 55 91 141 255 
-18.5642 -5.13196 2.24556 59 82 139 255 
-18.5586 -5.17268 2.08956 56 88 140 255 
-18.5497 -5.15248 1.90464 61 78 138 255 
-18.5477 -5.13814 1.72106 63 72 137 255 
-18.5504 -5.11768 1.54152 61 77 138 255 
-18.5459 -5.16565 1.39012 62 74 137 255 
-18.5392 -5.14608 1.20712 56 88 140 255 
-18.5191 -5.11979 1.02376 63 72 137 255 
-18.5041 -5.09799 0.841366 61 77 138 255 
-18.5127 -5.14946 0.69117 57 86 140 255 
-18.5141 -5.13214 0.509801 59 81 139 255 
-18.5194 -5.11641 0.328659 61 78 138 255 
-18.5116 -5.09309 0.150795 62 73 137 255 
-18.5121 -5.14581 -0.00335348 61 78 138 255 
-18.508 -5.12352 -0.184352 61 77 138 255 
-18.4985 -5.10367 -0.361758 62 74 137 255 
-18.4699 -5.0747 -0.541721 69 53 129 255 
-18.4988 -5.13168 -0.697225 62 73 137 255 
-18.4722 -5.10666 -0.873634 65 66 135 255 
-18.4641 -5.09072 -1.05405 69 56 130 255 
-18.4803 -5.07409 -1.23593 68 58 131 255 
-18.4614 -5.11785 -1.39004 67 61 132 255 
-18.4536 -5.09459 -1.56719 63 72 137 255 
-17.9129 -4.92867 -1.69733 71 17 100 255 
-15.8337 -4.34743 -1.65627 72 24 106 255 
-14.0643 -3.89097 -1.59042 72 32 113 255 
-12.6275 -3.48378 -1.55272 71 45 123 255 
-11.4959 -3.1609 -1.52732 68 58 131 255 
-10.5122 -2.88236 -1.50089 70 48 126 255 
-9.67359 -2.67081 -1.46581 66 64 134 255 
-9.02709 -2.48707 -1.45623 68 57 131 255 
-8.39798 -2.30751 -1.43712 66 64 134 255 
-7.84593 -2.1513 -1.4228 65 68 135 255 
-7.4203 -2.04313 -1.41256 66 63 133 255 
-7.02779 -1.93228 -1.4062 59 81 139 255 
-6.61409 -1.81736 -1.39178 65 66 135 255 
-6.26365 -1.71863 -1.38414 66 65 134 255 
-5.97862 -1.64281 -1.37569 57 86 140 255 
-5.72215 -1.57115 -1.37432 59 82 139 255 
-5.42916 -1.48973 -1.36096 63 72 137 255 
-5.19094 -1.42624 -1.35819 66 65 134 255 
-4.99693 -1.36838 -1.35435 65 66 135 255 
-4.74078 -1.29813 -1.33361 69 56 130 255 
-4.6152 -1.26552 -1.34877 67 62 133 255 
-4.44133 -1.22195 -1.34961 69 53 129 255 
-18.6301 -5.05915 5.79907 59 81 139 255 
-18.6305 -5.07643 5.58441 59 81 139 255 
-18.6377 -5.08555 5.38307 61 77 138 255 
-18.6197 -5.08026 5.18235 62 74 137 255 
-18.6074 -5.06344 5.00515 62 73 137 255 
-18.606 -5.06626 4.80074 59 82 139 255 
-18.6007 -5.06151 4.60311 59 81 139 255 
-18.5883 -5.0543 4.41187 67 62 133 255 
-18.6031 -5.06574 4.2532 63 72 137 255 
-18.5825 -5.0564 4.04781 59 81 139 255 
-18.5738 -5.04376 3.8563 63 71 136 255 
-18.5847 -5.03939 3.67324 66 64 134 255 
-18.5407 -5.04875 3.50596 64 69 136 255 
-18.5599 -5.04675 3.31879 55 91 141 255 
-18.5837 -5.03948 3.13241 56 89 140 255 
-18.5633 -5.01624 2.94934 57 86 140 255 
-18.5633 -5.05144 2.79285 56 89 140 255 
-18.5596 -5.04319 2.60376 57 86 140 255 
-18.5359 -5.01611 2.41565 58 83 139 255 
-18.5331 -5.00114 2.23803 58 83 139 255 
-18.5459 -5.0467 2.0846 59 81 139 255 
-18.5541 -5.03127 1.90188 61 78 138 255 
-18.5433 -5.01462 1.71777 62 76 138 255 
-18.5198 -4.98718 1.53641 65 68 135 255 
-18.5195 -5.03605 1.3858 63 72 137 255 
-18.504 -5.01421 1.2028 58 83 139 255 
-18.5039 -4.99357 1.02121 62 76 138 255 
-18.4897 -4.97217 0.839307 61 78 138 255 
-18.5015 -5.02424 0.689589 56 89 140 255 
-18.5047 -5.00748 0.508687 58 84 140 255 
-18.509 -4.99148 0.327923 62 76 138 255 
-18.4922 -4.96593 0.150386 63 72 137 255 
-18.5028 -5.02112 -0.00334615 61 78 138 255 
-18.4967 -4.99838 -0.18393 61 77 138 255 
-18.5034 -4.98305 -0.361249 63 72 137 255 
-18.4534 -4.94859 -0.540335 70 50 126 255 
-18.4691 -5.00162 -0.694938 65 68 135 255 
-18.4936 -4.99062 -0.873178 63 71 136 255 
-18.4718 -4.9711 -1.05274 66 63 133 255 
-18.4628 -4.94769 -1.23272 69 55 129 255 
-18.4539 -4.99405 -1.38715 68 58 131 255 
-18.4287 -4.96622 -1.56246 65 68 135 255 
-17.9438 -4.81892 -1.69742 71 16 99 255 
-15.7909 -4.23165 -1.64904 72 23 105 255 
-14.085 -3.80382 -1.59009 72 38 119 255 
-12.6324 -3.40184 -1.55072 70 48 126 255 
-11.5256 -3.09313 -1.52871 70 50 126 255 
-10.545 -2.8219 -1.50307 70 48 126 255 
-9.68215 -2.60935 -1.46466 67 62 133 255 
-9.04314 -2.43189 -1.45638 68 58 131 255 
-8.40721 -2.25466 -1.4363 68 59 132 255 
-7.87992 -2.10872 -1.42659 66 63 133 255 
-7.42415 -1.99527 -1.41094 66 64 134 255 
-7.03003 -1.88658 -1.40431 58 83 139 255 
-6.62227 -1.77598 -1.39119 65 66 135 255 
-6.27786 -1.68117 -1.38498 62 74 137 255 
-5.99424 -1.60761 -1.37699 57 85 140 255 
-5.72321 -1.53374 -1.37229 61 77 138 255 
-5.4335 -1.45514 -1.35979 63 71 136 255 
-5.18367 -1.39009 -1.35403 63 71 136 255 
-4.99869 -1.33595 -1.35258 66 63 133 255 
-4.78781 -1.27948 -1.34461 67 62 133 255 
-4.63311 -1.23992 -1.35175 67 62 133 255 
-4.42928 -1.18944 -1.34371 69 56 130 255 
-18.6099 -4.93125 5.78324 62 76 138 255 
-18.6241 -4.95214 5.5733 61 77 138 255 
-18.6145 -4.95672 5.3675 62 76 138 255 
-18.6132 -4.95598 5.17197 62 76 138 255 
-18.5979 -4.93849 4.99435 59 81 139 255 
-18.5758 -4.93581 4.78504 61 77 138 255 
-18.5806 -4.9338 4.59056 59 81 139 255 
-18.5672 -4.9264 4.39959 68 58 131 255 
-18.5809 -4.93746 4.24113 61 77 138 255 
-18.5773 -4.93274 4.03999 59 81 139 255 
-18.5523 -4.91589 3.8455 62 73 137 255 
-18.5326 -4.9034 3.65693 66 65 134 255 
-18.5447 -4.92782 3.50093 62 73 137 255 
-18.5429 -4.92014 3.31029 55 91 141 255 
-18.5713 -4.91399 3.12518 55 90 140 255 
-18.5565 -4.89242 2.94343 57 85 140 255 
-18.5662 -4.93008 2.78869 55 91 141 255 
-18.5193 -4.91042 2.59383 59 81 139 255 
-18.5213 -4.89037 2.40978 56 88 140 255 
-18.525 -4.87721 2.2334 58 84 140 255 
-18.5285 -4.92005 2.07921 56 88 140 255 
-18.5394 -4.90537 1.89726 60 80 139 255 
-18.5275 -4.88855 1.71349 62 76 138 255 
-18.4961 -4.85926 1.53194 65 66 135 255 
-18.5019 -4.90954 1.3822 64 70 136 255 
-18.4803 -4.88629 1.19929 59 81 139 255 
-18.5042 -4.87206 1.01956 61 77 138 255 
-18.487 -4.85 0.837818 62 73 137 255 
-18.5059 -4.90372 0.688618 58 84 140 255 
-18.4655 -4.87547 0.506777 60 80 139 255 
-18.4899 -4.86484 0.327051 62 74 137 255 
-18.4653 -4.83742 0.149923 62 73 137 255 
-18.484 -4.89444 -0.00333724 61 77 138 255 
-18.4699 -4.86975 -0.183363 60 80 139 255 
-18.4524 -4.84808 -0.359666 65 68 135 255 
-18.4292 -4.8211 -0.538752 69 53 129 255 
-18.4444 -4.87365 -0.692869 66 65 134 255 
-18.4388 -4.85467 -0.869171 67 62 133 255 
-18.4373 -4.84068 -1.04905 67 61 132 255 
-18.4378 -4.81992 -1.22905 68 58 131 255 
-18.437 -4.86825 -1.3836 68 59 132 255 
-18.4029 -4.83835 -1.55773 65 68 135 255 
-17.9586 -4.70495 -1.69605 71 13 96 255 
-15.8156 -4.13443 -1.64894 72 24 106 255 
-14.0783 -3.70947 -1.58673 72 35 116 255 
-12.6415 -3.32124 -1.54931 71 46 124 255 
-11.5252 -3.01733 -1.52617 70 50 126 255 
-10.5669 -2.7584 -1.50375 69 53 129 255 
-9.69415 -2.54888 -1.46408 71 45 123 255 
-9.05025 -2.37435 -1.45516 66 63 133 255 
-8.41707 -2.20204 -1.43565 67 62 133 255 
-7.89175 -2.06008 -1.42642 66 63 133 255 
-7.43911 -1.95042 -1.41148 64 69 136 255 
-7.02438 -1.83893 -1.4009 60 79 138 255 
-6.6321 -1.73506 -1.39099 64 69 136 255 
-6.28333 -1.64138 -1.38393 61 78 138 255 
-6.01249 -1.57303 -1.37894 58 83 139 255 
-5.73817 -1.50007 -1.37364 60 79 138 255 
-5.44703 -1.423 -1.36096 63 72 137 255 
-5.1846 -1.3563 -1.35207 66 65 134 255 
-4.99275 -1.30159 -1.34879 64 69 136 255 
-4.80118 -1.25154 -1.34618 67 61 132 255 
-4.64342 -1.21219 -1.35256 69 56 130 255 
-4.42535 -1.15933 -1.34033 69 55 129 255 
-18.5999 -4.80667 5.77087 61 77 138 255 
-18.6105 -4.82644 5.56024 62 74 137 255 
-18.5924 -4.82885 5.35247 61 77 138 255 
-18.6152 -4.83439 5.16419 60 80 139 255 
-18.6119 -4.82016 4.99008 60 79 138 255 
-18.5747 -4.8137 4.77707 58 83 139 255 
-18.5879 -4.81385 4.58499 60 80 139 255 
-18.5678 -4.80481 4.39267 65 68 135 255 
-18.5731 -4.81355 4.23252 62 73 137 255 
-18.5721 -4.80958 4.03238 61 78 138 255 
-18.5831 -4.8022 3.8457 61 77 138 255 
-18.5234 -4.77953 3.64925 63 72 137 255 
-18.5365 -4.80406 3.49375 59 81 139 255 
-18.5298 -4.79516 3.30264 55 91 141 255 
-18.5476 -4.78614 3.11619 55 91 141 255 
-18.5373 -4.76591 2.9357 55 90 140 255 
-18.5281 -4.79845 2.77849 54 93 141 255 
-18.5116 -4.78702 2.5886 54 92 141 255 
-18.5211 -4.76897 2.40591 57 86 140 255 
-18.5113 -4.75234 2.22818 59 82 139 255 
-18.5391 -4.80129 2.07705 56 89 140 255 
-18.5441 -4.78506 1.8947 59 82 139 255 
-18.479 -4.75467 1.70628 64 69 136 255 
-18.5014 -4.7395 1.52994 62 74 137 255 
-18.4863 -4.78417 1.37882 61 78 138 255 
-18.4713 -4.76284 1.19679 60 79 138 255 
-18.4989 -4.74949 1.01764 62 73 137 255 
-18.4923 -4.73029 0.836723 60 79 138 255 
-18.4796 -4.77557 0.686533 56 88 140 255 
-18.4621 -4.7536 0.505875 60 79 138 255 
-18.4671 -4.73788 0.326127 61 78 138 255 
-18.4462 -4.71165 0.14953 62 73 137 255 
-18.441 -4.76218 -0.00332415 59 81 139 255 
-18.451 -4.74388 -0.182883 62 76 138 255 
-18.444 -4.72509 -0.358931 64 69 136 255 
-18.4333 -4.70151 -0.538017 70 52 128 255 
-18.442 -4.75215 -0.691671 66 63 133 255 
-18.4141 -4.72753 -0.866621 67 61 132 255 
-18.3893 -4.70765 -1.04466 68 58 131 255 
-18.4322 -4.69782 -1.22673 67 61 132 255 
-18.4124 -4.7411 -1.37955 66 63 133 255 
-18.385 -4.71321 -1.55373 66 63 133 255 
-17.9263 -4.57914 -1.69032 71 14 97 255 
-15.8387 -4.03681 -1.64874 72 24 106 255 
-14.0863 -3.61931 -1.58511 72 31 112 255 
-12.6357 -3.23696 -1.54613 72 41 121 255 
-11.532 -2.94361 -1.52465 70 50 126 255 
-10.5865 -2.69424 -1.50416 69 53 129 255 
-9.76712 -2.5041 -1.47275 70 52 128 255 
-9.0455 -2.31388 -1.45208 66 65 134 255 
-8.44381 -2.15376 -1.43793 64 69 136 255 
-7.89565 -2.00943 -1.42487 64 70 136 255 
-7.42807 -1.89889 -1.40715 59 82 139 255 
-7.03267 -1.79507 -1.40033 61 77 138 255 
-6.62838 -1.6907 -1.38801 66 65 134 255 
-6.28949 -1.60183 -1.3831 62 73 137 255 
-6.02298 -1.53635 -1.37916 60 80 139 255 
-5.74066 -1.46315 -1.37206 61 78 138 255 
-5.45095 -1.38835 -1.35979 66 64 134 255 
-5.20504 -1.32757 -1.35525 64 69 136 255 
-4.9847 -1.26688 -1.34449 66 64 134 255 
-4.81438 -1.22349 -1.34775 68 57 131 255 
-4.67129 -1.1889 -1.35853 67 61 132 255 
-4.41658 -1.12811 -1.33555 69 53 129 255 
-18.6216 -4.69058 5.76857 62 76 138 255 
-18.5829 -4.69779 5.5433 61 77 138 255 
-18.6011 -4.70948 5.34657 59 81 139 255 
-18.5715 -4.70159 5.14397 62 73 137 255 
-18.5586 -4.68502 4.96797 61 77 138 255 
-18.57 -4.69108 4.76837 60 79 138 255 
-18.5945 -4.69399 4.57942 59 82 139 255 
-18.5705 -4.68411 4.38642 62 73 137 255 
-18.5502 -4.68634 4.22067 62 76 138 255 
-18.5662 -4.68667 4.02477 62 76 138 255 
-18.5485 -4.67204 3.83253 63 71 136 255 
-18.5504 -4.66531 3.64888 65 68 135 255 
-18.5484 -4.6859 3.49052 60 79 138 255 
-18.5426 -4.67727 3.29975 55 91 141 255 
-18.5106 -4.65563 3.10511 57 85 140 255 
-18.5202 -4.64055 2.92842 56 88 140 255 
-18.5236 -4.67619 2.77346 55 91 141 255 
-18.5166 -4.66729 2.58525 54 93 141 255 
-18.5193 -4.64751 2.40192 53 95 141 255 
-18.5102 -4.63119 2.22459 58 84 140 255 
-18.4997 -4.67017 2.06939 56 88 140 255 
-18.5133 -4.65613 1.88859 61 78 138 255 
-18.5049 -4.64047 1.70601 62 74 137 255 
-18.506 -4.61985 1.52795 64 70 136 255 
-18.4708 -4.65943 1.3755 62 76 138 255 
-18.4595 -4.6392 1.19416 61 78 138 255 
-18.4812 -4.62425 1.01509 65 68 135 255 
-18.4696 -4.60392 0.834402 61 78 138 255 
-18.4794 -4.65477 0.685455 58 84 140 255 
-18.4803 -4.63755 0.505584 58 84 140 255 
-18.4687 -4.61769 0.325649 60 80 139 255 
-18.4456 -4.59113 0.149295 61 77 138 255 
-18.436 -4.6404 -0.00331805 59 81 139 255 
-18.442 -4.6211 -0.182509 60 80 139 255 
-18.4426 -4.60432 -0.358347 61 77 138 255 
-18.4462 -4.58446 -0.537565 67 62 133 255 
-18.4379 -4.63063 -0.690437 66 65 134 255 
-18.4146 -4.60742 -0.865301 65 66 135 255 
-18.4052 -4.59158 -1.04394 68 58 131 255 
-18.4142 -4.57309 -1.22364 67 61 132 255 
-18.3957 -4.61663 -1.37615 68 59 132 255 
-18.3671 -4.58872 -1.54981 67 62 133 255 
-17.9212 -4.46088 -1.68723 71 14 97 255 
-15.8081 -3.92588 -1.64302 72 26 108 255 
-14.1218 -3.53619 -1.58662 72 33 115 255 
-12.6591 -3.16033 -1.5466 71 44 122 255 
-11.5508 -2.87303 -1.52478 70 52 128 255 
-10.6105 -2.63114 -1.50525 70 52 128 255 
-9.79382 -2.447 -1.47448 70 50 126 255 
-9.05569 -2.25738 -1.45147 67 62 133 255 
-8.46931 -2.10501 -1.44005 65 66 135 255 
-7.90497 -1.96024 -1.42435 65 68 135 255 
-7.4453 -1.85471 -1.40823 62 74 137 255 
-7.04165 -1.75141 -1.39995 62 74 137 255 
-6.64528 -1.65165 -1.3894 62 74 137 255 
-6.29635 -1.56251 -1.38248 62 76 138 255 
-6.02376 -1.49724 -1.37721 59 81 139 255 
-5.7344 -1.42414 -1.36845 61 78 138 255 
-5.45936 -1.35488 -1.35979 65 68 135 255 
-5.21309 -1.29561 -1.35525 63 71 136 255 
-4.99707 -1.23743 -1.34575 68 58 131 255 
-4.79088 -1.18627 -1.33911 68 58 131 255 
-4.64206 -1.15118 -1.34795 68 59 132 255 
-4.42062 -1.1003 -1.33471 70 48 126 255 
-18.7998 -4.61298 5.81489 66 63 133 255 
-18.7644 -4.62136 5.58886 66 64 134 255 
-18.697 -4.61186 5.36589 66 65 134 255 
-18.6825 -4.6079 5.16679 66 65 134 255 
-18.7101 -4.60134 5.00088 65 68 135 255 
-18.7247 -4.60812 4.80074 64 69 136 255 
-18.691 -4.59653 4.59614 65 68 135 255 
-18.6973 -4.59427 4.40964 69 56 130 255 
-18.6497 -4.58994 4.23682 66 63 133 255 
-18.6668 -4.59043 4.0404 66 63 133 255 
-18.6377 -4.5731 3.84511 66 64 134 255 
-18.6379 -4.56589 3.66049 69 56 130 255 
-18.5893 -4.57506 3.49286 64 69 136 255 
