ply
format ascii 1.0
comment VTK generated PLY File
obj_info vtkPolyData points and polygons: vtk4.0
element vertex 1158
property float x
property float y
property float z
property uchar red
property uchar green
property uchar blue
property uchar alpha
element face 0
property list uchar int vertex_indices
end_header
9.47177 -1.69736 -0.349483 31 152 139 255 
9.46766 -1.7053 -0.438525 33 145 140 255 
9.45905 -1.71048 -0.529005 47 107 142 255 
9.47448 -1.72365 -0.621056 34 139 141 255 
9.47741 -1.70008 -0.698639 32 146 140 255 
9.47668 -1.71034 -0.788328 32 146 140 255 
9.53704 -1.72974 -0.88551 34 139 141 255 
9.65179 -1.75591 -0.989567 61 78 138 255 
9.13633 -1.64382 -1.01174 71 44 122 255 
8.54098 -1.54301 -1.02879 64 69 136 255 
8.04273 -1.46017 -1.04714 65 66 135 255 
7.59988 -1.38535 -1.0637 69 55 129 255 
7.17475 -1.29477 -1.06489 60 80 139 255 
6.80429 -1.23171 -1.07542 62 76 138 255 
6.43127 -1.16876 -1.07861 61 78 138 255 
6.12846 -1.11713 -1.08945 62 74 137 255 
5.87076 -1.06367 -1.09503 59 81 139 255 
5.62366 -1.02103 -1.10272 59 81 139 255 
5.37561 -0.976919 -1.10862 57 85 140 255 
5.16516 -0.940607 -1.11882 59 81 139 255 
4.97457 -0.903986 -1.12182 60 79 138 255 
4.81924 -0.876721 -1.13447 61 78 138 255 
4.593 -0.836349 -1.12857 61 77 138 255 
4.42174 -0.803632 -1.13386 64 69 136 255 
4.28572 -0.782665 -1.13887 64 70 136 255 
4.1337 -0.754987 -1.14011 64 70 136 255 
3.95426 -0.720753 -1.13283 65 68 135 255 
3.83743 -0.696056 -1.14267 66 63 133 255 
10.432 -1.92806 3.1868 62 76 138 255 
17.0061 -3.128 5.00072 72 37 118 255 
11.6397 -2.13663 3.29748 71 42 122 255 
11.7353 -2.15441 3.2037 72 37 118 255 
10.6737 -1.96695 2.81698 69 55 129 255 
10.5226 -1.93735 2.6637 55 90 140 255 
10.7315 -1.97766 2.60569 71 47 125 255 
10.6528 -1.96528 2.48098 72 33 115 255 
19.0569 -3.50838 4.27452 72 41 121 255 
17.3994 -3.20662 3.7187 72 24 106 255 
9.31978 -1.72255 1.89898 64 69 136 255 
9.36596 -1.73463 1.81704 34 141 141 255 
9.38089 -1.72703 1.74033 30 155 138 255 
9.37978 -1.73034 1.64579 31 148 140 255 
9.38399 -1.7378 1.55255 30 155 138 255 
9.39104 -1.74774 1.46512 31 152 139 255 
9.40052 -1.73233 1.38766 31 152 139 255 
9.38916 -1.73376 1.29262 31 152 139 255 
9.38624 -1.7433 1.20096 31 149 139 255 
9.39825 -1.75247 1.11461 32 146 140 255 
9.41239 -1.73452 1.03804 42 118 142 255 
9.40146 -1.74112 0.945921 31 151 139 255 
9.40566 -1.74861 0.855499 32 146 140 255 
9.40726 -1.75924 0.766649 32 147 140 255 
9.41131 -1.73602 0.691029 31 151 139 255 
9.403 -1.7431 0.59999 31 150 139 255 
9.41908 -1.7562 0.510525 41 121 142 255 
9.43263 -1.76739 0.420683 31 148 140 255 
9.43795 -1.74433 0.345226 31 160 136 255 
9.44115 -1.75359 0.254808 31 154 138 255 
9.4455 -1.76284 0.164364 30 155 138 255 
9.44373 -1.77288 0.0754681 33 144 141 255 
9.45948 -1.75002 -0.00167901 31 152 139 255 
9.4503 -1.7587 -0.0922768 32 146 140 255 
9.45343 -1.76773 -0.181303 33 145 140 255 
9.45535 -1.77847 -0.272104 34 139 141 255 
9.4602 -1.75527 -0.349447 31 150 139 255 
9.46585 -1.76501 -0.438934 32 146 140 255 
9.45622 -1.76996 -0.529445 34 141 141 255 
9.47255 -1.78342 -0.621635 40 125 142 255 
9.46876 -1.75856 -0.698784 33 143 141 255 
9.46895 -1.76901 -0.788573 34 141 141 255 
9.56148 -1.79484 -0.888786 33 144 141 255 
9.69853 -1.82596 -0.995488 66 64 134 255 
9.22478 -1.71824 -1.02268 70 50 126 255 
8.54306 -1.59757 -1.0302 68 59 132 255 
8.03752 -1.51022 -1.04765 65 68 135 255 
7.58929 -1.43159 -1.06343 69 56 130 255 
7.16959 -1.33931 -1.06532 62 76 138 255 
6.82963 -1.27962 -1.08065 60 79 138 255 
6.44531 -1.21222 -1.08219 61 78 138 255 
6.11665 -1.1538 -1.08859 65 66 135 255 
5.85929 -1.09877 -1.09413 60 79 138 255 
5.61343 -1.0548 -1.10196 59 81 139 255 
5.35989 -1.00807 -1.10663 59 81 139 255 
5.16795 -0.973912 -1.12069 62 76 138 255 
4.98044 -0.936657 -1.12442 59 81 139 255 
4.80037 -0.903752 -1.13131 62 76 138 255 
4.57059 -0.861276 -1.12434 62 73 137 255 
4.43483 -0.834153 -1.13851 63 71 136 255 
4.28369 -0.809486 -1.13963 62 73 137 255 
4.14701 -0.783742 -1.14508 61 78 138 255 
3.98003 -0.750711 -1.14151 64 69 136 255 
3.84535 -0.721891 -1.14633 66 63 133 255 
10.5855 -2.02368 3.23743 58 84 140 255 
11.2565 -2.14193 3.31381 68 58 131 255 
11.9519 -2.26984 3.38982 72 27 109 255 
11.2246 -2.13194 3.06781 65 68 135 255 
10.9618 -2.08968 2.89637 70 50 126 255 
10.6506 -2.02857 2.69921 61 77 138 255 
17.7216 -3.37841 4.30791 72 38 119 255 
10.7037 -2.04266 2.49571 72 35 116 255 
14.0333 -2.67266 3.15134 72 28 110 255 
12.1211 -2.31084 2.59357 71 16 99 255 
9.30326 -1.77859 1.8978 72 32 113 255 
9.34742 -1.79059 1.81554 33 143 141 255 
9.36915 -1.78437 1.74015 31 149 139 255 
9.37383 -1.78878 1.64664 31 148 140 255 
9.38187 -1.79702 1.554 31 151 139 255 
9.38791 -1.80683 1.46633 31 152 139 255 
9.3936 -1.79072 1.38824 37 133 142 255 
9.39003 -1.79357 1.29423 31 151 139 255 
9.37731 -1.80124 1.20121 33 145 140 255 
9.39512 -1.81161 1.11554 33 145 140 255 
9.40938 -1.79373 1.0389 44 115 142 255 
9.39842 -1.80027 0.946708 32 146 140 255 
9.40063 -1.80741 0.856034 35 138 141 255 
9.40607 -1.81882 0.767448 37 133 142 255 
9.41224 -1.79598 0.691893 33 143 141 255 
9.41957 -1.80603 0.601743 31 152 139 255 
9.43068 -1.81831 0.511749 47 107 142 255 
9.45202 -1.83113 0.42204 33 142 141 255 
9.44081 -1.80484 0.345729 31 148 140 255 
9.44493 -1.81431 0.255206 31 148 140 255 
9.44334 -1.82246 0.164518 33 142 141 255 
9.45329 -1.83479 0.0756331 38 130 142 255 
9.47607 -1.81329 -0.00168389 33 144 141 255 
9.4629 -1.82119 -0.0925071 34 139 141 255 
9.46106 -1.82931 -0.181661 39 128 142 255 
9.47271 -1.84199 -0.272924 41 123 142 255 
9.46103 -1.81554 -0.349883 36 134 142 255 
9.46956 -1.8259 -0.439617 38 130 142 255 
9.45695 -1.83023 -0.530104 42 120 142 255 
9.46437 -1.84208 -0.621828 57 85 140 255 
9.48326 -1.82152 -0.700666 40 125 142 255 
9.47944 -1.83123 -0.790368 41 122 142 255 
9.56104 -1.85556 -0.889786 35 136 142 255 
9.71253 -1.89038 -0.998097 65 66 135 255 
9.23554 -1.77894 -1.02507 68 57 131 255 
8.5487 -1.65298 -1.03209 69 56 130 255 
8.03686 -1.56121 -1.04879 68 57 131 255 
7.5755 -1.47718 -1.06275 70 52 128 255 
7.17192 -1.38534 -1.06691 60 80 139 255 
6.80515 -1.31831 -1.07804 63 71 136 255 
6.44259 -1.25268 -1.08301 62 74 137 255 
6.11429 -1.19225 -1.08945 64 69 136 255 
5.8563 -1.13545 -1.09485 59 82 139 255 
5.62227 -1.09221 -1.10499 59 81 139 255 
5.38439 -1.04693 -1.11299 57 85 140 255 
5.17147 -1.00747 -1.12278 60 80 139 255 
4.97939 -0.968131 -1.12551 56 89 140 255 
4.79856 -0.933934 -1.13222 60 80 139 255 
4.54709 -0.885773 -1.11988 61 78 138 255 
4.43438 -0.862275 -1.13973 64 69 136 255 
4.27295 -0.834642 -1.13811 62 76 138 255 
4.13644 -0.808063 -1.14351 60 80 139 255 
3.97818 -0.77567 -1.14233 63 71 136 255 
3.83237 -0.743826 -1.1438 63 72 137 255 
10.6829 -2.11031 3.27109 48 105 142 255 
18.1852 -3.57613 5.35994 72 22 104 255 
10.3459 -2.03069 2.93781 52 96 141 255 
10.8266 -2.12525 2.96253 72 33 115 255 
10.5984 -2.08787 2.80367 68 59 132 255 
10.4475 -2.0564 2.65089 63 71 136 255 
13.2459 -2.60948 3.22373 72 37 118 255 
10.691 -2.1083 2.49571 65 68 135 255 
14.0051 -2.75646 3.14875 72 27 109 255 
30.0271 -5.91572 6.4326 71 19 101 255 
12.4271 -2.45494 2.53806 70 48 126 255 
9.35071 -1.85077 1.81835 40 125 142 255 
9.38988 -1.84809 1.74607 37 133 142 255 
9.39072 -1.85179 1.65157 34 139 141 255 
9.39391 -1.85915 1.55785 35 138 141 255 
9.40088 -1.86921 1.47012 35 137 142 255 
9.40865 -1.85349 1.39212 41 123 142 255 
9.40218 -1.85576 1.29745 34 141 141 255 
9.40696 -1.86685 1.20645 35 137 142 255 
9.41305 -1.87505 1.11901 36 134 142 255 
9.41088 -1.85393 1.0403 47 107 142 255 
9.41941 -1.86428 0.949957 33 143 141 255 
9.41867 -1.87088 0.858706 34 140 141 255 
9.43872 -1.88529 0.771041 33 142 141 255 
9.43823 -1.86103 0.69463 34 139 141 255 
9.45139 -1.87233 0.604498 30 155 138 255 
9.44383 -1.88102 0.513079 45 113 142 255 
9.46509 -1.89399 0.423135 33 143 141 255 
9.4727 -1.87125 0.347311 33 145 140 255 
9.47775 -1.88099 0.256399 32 146 140 255 
9.45846 -1.88565 0.164979 31 148 140 255 
9.47029 -1.89846 0.0758608 32 146 140 255 
9.48242 -1.87489 -0.00168704 32 146 140 255 
9.48686 -1.88624 -0.0928527 32 146 140 255 
9.47319 -1.89203 -0.182114 32 146 140 255 
9.47691 -1.90323 -0.273376 34 141 141 255 
9.47323 -1.87822 -0.350754 33 144 141 255 
9.47875 -1.88806 -0.440574 34 141 141 255 
9.48764 -1.89663 -0.532467 37 132 142 255 
9.49202 -1.90798 -0.624403 50 100 142 255 
9.51397 -1.88802 -0.703777 33 144 141 255 
9.50028 -1.8958 -0.793061 34 139 141 255 
9.56803 -1.91791 -0.891515 36 135 142 255 
9.68905 -1.94758 -0.996893 63 71 136 255 
9.24882 -1.84043 -1.02777 66 64 134 255 
8.55398 -1.70852 -1.03397 69 53 129 255 
8.04561 -1.6142 -1.05121 66 63 133 255 
7.56047 -1.52246 -1.06193 70 52 128 255 
7.18269 -1.43319 -1.0698 61 77 138 255 
6.79984 -1.36062 -1.0785 62 74 137 255 
6.42221 -1.28966 -1.08089 64 69 136 255 
6.11555 -1.2315 -1.091 62 74 137 255 
5.85887 -1.17329 -1.09665 58 83 139 255 
5.6145 -1.1265 -1.1048 61 77 138 255 
5.37594 -1.07956 -1.11259 57 86 140 255 
5.17382 -1.04092 -1.12465 59 82 139 255 
4.95613 -0.995206 -1.12161 59 82 139 255 
4.80325 -0.965471 -1.1347 57 86 140 255 
4.59207 -0.923817 -1.13233 59 82 139 255 
4.42996 -0.889658 -1.13998 65 68 135 255 
4.25067 -0.857401 -1.13356 63 71 136 255 
4.12099 -0.831329 -1.14063 60 80 139 255 
3.98373 -0.802155 -1.14531 63 71 136 255 
3.84655 -0.771099 -1.14942 63 71 136 255 
10.7335 -2.18883 3.29065 52 97 141 255 
18.1573 -3.6865 5.35827 71 45 123 255 
10.322 -2.09184 2.93459 72 37 118 255 
12.2085 -2.47442 3.34477 72 31 112 255 
10.2126 -2.07705 2.70494 55 90 140 255 
10.3453 -2.1023 2.62818 72 41 121 255 
10.3435 -2.10371 2.52046 64 70 136 255 
10.4581 -2.12913 2.44437 63 71 136 255 
12.2932 -2.49796 2.76725 70 11 94 255 
30.2501 -6.15271 6.48834 71 14 97 255 
12.357 -2.51998 2.52686 72 35 116 255 
9.39981 -1.9205 1.83015 33 145 140 255 
9.41307 -1.91273 1.75253 33 144 141 255 
9.39849 -1.91331 1.65498 33 145 140 255 
9.41133 -1.92268 1.56267 31 151 139 255 
9.42119 -1.93342 1.47513 31 151 139 255 
9.43007 -1.91789 1.397 31 149 139 255 
9.42266 -1.91994 1.30188 32 147 140 255 
9.42643 -1.93091 1.21044 31 150 139 255 
9.41402 -1.93537 1.12052 37 131 142 255 
9.42563 -1.91699 1.04322 38 129 142 255 
9.43412 -1.92742 0.952615 31 153 138 255 
9.43531 -1.93444 0.861289 31 153 138 255 
9.45431 -1.9488 0.773277 31 150 139 255 
9.45693 -1.92507 0.696863 31 158 137 255 
9.45145 -1.93268 0.605249 31 159 136 255 
9.44972 -1.94255 0.514037 43 116 142 255 
9.46601 -1.95466 0.423705 31 152 139 255 
9.47866 -1.93294 0.347958 31 154 138 255 
9.47876 -1.94171 0.256744 30 155 138 255 
9.4614 -1.94667 0.165236 31 150 139 255 
9.47119 -1.95917 0.0759629 31 152 139 255 
9.49719 -1.93844 -0.00169175 31 150 139 255 
9.4898 -1.94743 -0.0929967 31 151 139 255 
9.47609 -1.95314 -0.182396 31 148 140 255 
9.49149 -1.96682 -0.27414 33 143 141 255 
9.47817 -1.93972 -0.351371 31 150 139 255 
9.48167 -1.94921 -0.441257 33 143 141 255 
9.49147 -1.95804 -0.533346 35 137 142 255 
9.47232 -1.96457 -0.623888 50 102 142 255 
9.50807 -1.94756 -0.704212 31 149 139 255 
9.50702 -1.95788 -0.794611 34 141 141 255 
9.57071 -1.97961 -0.89288 36 135 142 255 
9.69445 -2.01064 -0.998699 63 72 137 255 
9.23443 -1.89655 -1.02745 66 65 134 255 
8.5482 -1.76197 -1.03456 70 50 126 255 
8.0443 -1.66535 -1.05235 66 64 134 255 
7.57135 -1.57306 -1.06479 70 50 126 255 
7.16892 -1.47624 -1.06908 62 73 137 255 
6.80008 -1.40412 -1.07988 65 68 135 255 
6.42963 -1.33225 -1.0835 63 71 136 255 
6.11078 -1.2696 -1.09152 61 78 138 255 
5.87853 -1.21479 -1.10171 58 84 140 255 
5.60556 -1.16053 -1.10442 61 78 138 255 
5.37785 -1.11432 -1.11438 59 82 139 255 
5.18266 -1.07583 -1.12799 61 77 138 255 
4.9614 -1.02797 -1.12421 56 88 140 255 
4.80295 -0.996112 -1.13605 57 85 140 255 
4.58061 -0.950791 -1.13092 60 80 139 255 
4.42537 -0.91702 -1.14022 64 69 136 255 
4.25954 -0.886423 -1.13735 64 69 136 255 
4.13377 -0.860336 -1.1456 62 76 138 255 
3.99758 -0.8305 -1.15074 61 77 138 255 
3.82859 -0.791965 -1.14548 64 69 136 255 
10.7246 -2.25564 3.29209 60 79 138 255 
10.4742 -2.1936 3.09489 60 80 139 255 
10.2731 -2.14764 2.92439 52 96 141 255 
10.3639 -2.16683 2.84298 55 90 140 255 
10.1912 -2.13788 2.70268 55 90 140 255 
10.2164 -2.14145 2.59871 56 88 140 255 
10.2133 -2.14258 2.49189 56 89 140 255 
11.0878 -2.32828 2.59484 72 41 121 255 
30.2601 -6.34241 6.82032 70 11 94 255 
30.3258 -6.36212 6.51282 71 14 97 255 
12.9909 -2.73238 2.65987 71 17 100 255 
9.3965 -1.97996 1.83184 35 137 142 255 
9.41752 -1.97388 1.75558 31 156 137 255 
9.42515 -1.97904 1.66178 30 155 138 255 
9.41964 -1.98467 1.56604 31 154 138 255 
9.41785 -1.99303 1.47649 31 150 139 255 
9.43847 -1.97998 1.40002 31 158 137 255 
9.4301 -1.9818 1.30456 34 139 141 255 
9.42703 -1.99138 1.21207 30 157 137 255 
9.41654 -1.99618 1.12226 33 144 141 255 
9.43704 -1.97969 1.0458 36 134 142 255 
9.43867 -1.98876 0.954289 31 161 136 255 
9.43008 -1.99374 0.861912 31 151 139 255 
9.44218 -2.00678 0.773277 31 149 139 255 
9.45958 -1.98613 0.697943 31 156 137 255 
9.44332 -1.99146 0.6055 32 163 134 255 
9.44251 -2.00153 0.514303 44 114 142 255 
9.45873 -2.01374 0.423924 31 151 139 255 
9.46467 -1.99065 0.347886 31 154 138 255 
9.46275 -1.99901 0.256638 31 150 139 255 
9.4571 -2.00635 0.165373 30 155 138 255 
9.45997 -2.01745 0.0759708 31 149 139 255 
9.48414 -1.99647 -0.00169157 31 161 136 255 
9.47767 -2.00562 -0.0929967 31 151 139 255 
9.45806 -2.01 -0.182283 33 143 141 255 
9.48217 -2.02564 -0.274224 34 139 141 255 
9.49641 -2.00424 -0.352496 31 156 137 255 
9.48125 -2.00983 -0.441803 33 145 140 255 
9.47733 -2.01583 -0.533237 34 140 141 255 
9.48449 -2.02787 -0.625497 37 131 142 255 
9.5057 -2.00793 -0.704935 33 145 140 255 
9.49873 -2.017 -0.794937 34 141 141 255 
9.57494 -2.04183 -0.894426 35 138 141 255 
9.75782 -2.08631 -1.00653 62 74 137 255 
9.18469 -1.94514 -1.02322 69 53 129 255 
8.54305 -1.81563 -1.03527 70 51 127 255 
8.02423 -1.71261 -1.05108 67 61 132 255 
7.55381 -1.61782 -1.0637 70 52 128 255 
7.16457 -1.52123 -1.0698 64 69 136 255 
6.7836 -1.44417 -1.07865 62 74 137 255 
6.46669 -1.38136 -1.09115 61 78 138 255 
6.10672 -1.3079 -1.09221 62 73 137 255 
5.86423 -1.24941 -1.10044 55 90 140 255 
5.60218 -1.19572 -1.10518 58 83 139 255 
5.37283 -1.1477 -1.11478 58 83 139 255 
5.15397 -1.1029 -1.1232 60 80 139 255 
4.96741 -1.06105 -1.12702 55 90 140 255 
4.78246 -1.02251 -1.13267 57 86 140 255 
4.59845 -0.983963 -1.1368 61 77 138 255 
4.40069 -0.940105 -1.13533 66 63 133 255 
4.25591 -0.912949 -1.13786 62 76 138 255 
4.1303 -0.886089 -1.14613 62 73 137 255 
3.96982 -0.850175 -1.14423 63 71 136 255 
3.82366 -0.815442 -1.14548 62 73 137 255 
10.2996 -2.23234 3.16579 51 98 141 255 
10.2784 -2.21851 3.04099 53 94 141 255 
10.1204 -2.18061 2.88466 47 108 142 255 
10.1946 -2.19681 2.80019 59 81 139 255 
10.0842 -2.18012 2.6778 65 68 135 255 
10.1869 -2.20062 2.5946 66 65 134 255 
10.179 -2.20068 2.48678 56 88 140 255 
13.4484 -2.91024 3.1514 71 14 97 255 
13.3898 -2.89234 3.02187 72 27 109 255 
11.8091 -2.55322 2.53947 71 14 97 255 
12.8877 -2.79334 2.64218 72 24 106 255 
9.38706 -2.03821 1.8324 37 131 142 255 
9.40235 -2.031 1.75504 31 149 139 255 
9.40801 -2.0358 1.66093 31 152 139 255 
9.41307 -2.04368 1.56701 31 154 138 255 
9.41414 -2.05268 1.47785 31 154 138 255 
9.41937 -2.0364 1.39901 30 155 138 255 
9.42163 -2.04046 1.3051 40 124 142 255 
9.41657 -2.0496 1.21232 31 150 139 255 
9.42158 -2.05774 1.12434 35 137 142 255 
9.42666 -2.03797 1.04602 37 131 142 255 
9.43115 -2.04769 0.954781 31 150 139 255 
9.42643 -2.05347 0.862714 31 149 139 255 
9.44332 -2.06766 0.774395 31 149 139 255 
9.46184 -2.0473 0.699023 31 158 137 255 
9.44165 -2.0517 0.606189 30 157 137 255 
9.43395 -2.06029 0.514516 49 103 142 255 
9.45888 -2.07452 0.424493 31 148 140 255 
9.47376 -2.05334 0.348677 31 160 136 255 
9.45422 -2.05789 0.256744 33 145 140 255 
9.45633 -2.0669 0.165578 33 143 141 255 
9.46499 -2.07932 0.0761122 34 140 141 255 
9.47367 -2.05505 -0.00169192 31 150 139 255 
9.46909 -2.06459 -0.0930351 33 142 141 255 
9.47778 -2.07506 -0.182905 36 134 142 255 
9.47249 -2.08443 -0.274309 39 126 142 255 
9.48393 -2.06247 -0.352496 34 141 141 255 
9.48338 -2.07117 -0.442486 34 140 141 255 
9.47843 -2.07693 -0.534006 39 126 142 255 
9.4972 -2.0916 -0.62717 41 121 142 255 
9.51074 -2.07004 -0.706238 37 133 142 255 
9.48812 -2.07567 -0.795101 42 120 142 255 
9.57196 -2.10268 -0.895336 34 139 141 255 
9.78953 -2.15598 -1.01114 66 65 134 255 
9.20561 -2.00866 -1.02691 69 55 129 255 
8.55212 -1.87247 -1.03774 69 53 129 255 
7.99807 -1.7584 -1.04905 66 64 134 255 
7.53697 -1.66265 -1.06275 69 53 129 255 
7.16186 -1.56664 -1.07081 65 68 135 255 
6.79102 -1.48937 -1.08126 64 70 136 255 
6.44749 -1.41868 -1.08936 57 85 140 255 
6.10917 -1.34768 -1.09411 60 79 138 255 
5.85069 -1.2841 -1.09936 56 88 140 255 
5.61391 -1.23429 -1.10897 55 90 140 255 
5.37238 -1.18212 -1.11617 59 82 139 255 
5.15379 -1.13598 -1.12465 61 77 138 255 
4.96844 -1.09319 -1.12875 54 92 141 255 
4.77419 -1.05141 -1.13222 57 85 140 255 
4.58663 -1.01091 -1.13539 61 78 138 255 
4.40147 -0.968548 -1.13704 64 70 136 255 
4.25307 -0.939671 -1.13862 61 78 138 255 
4.11536 -0.909333 -1.14351 63 71 136 255 
3.94197 -0.869542 -1.13772 62 74 137 255 
3.81859 -0.838889 -1.14548 63 72 137 255 
10.2764 -2.29341 3.16292 63 71 136 255 
10.2468 -2.27757 3.03571 58 83 139 255 
10.1106 -2.2435 2.88573 50 101 142 255 
10.1159 -2.24488 2.7823 51 98 141 255 
10.0649 -2.2407 2.6763 57 85 140 255 
10.1505 -2.25802 2.58881 50 100 142 255 
10.1862 -2.26775 2.49189 53 94 141 255 
17.4863 -3.89649 4.10311 72 20 103 255 
18.0693 -4.01935 4.08345 71 45 123 255 
18.0185 -4.0116 3.87996 71 17 100 255 
15.0053 -3.34885 3.08049 72 26 108 255 
9.40697 -2.10305 1.83877 39 127 142 255 
9.40795 -2.09271 1.75845 34 140 141 255 
9.41073 -2.09691 1.66365 34 139 141 255 
9.40999 -2.10356 1.56861 34 139 141 255 
9.40812 -2.11192 1.47892 33 142 141 255 
9.42215 -2.0976 1.40131 31 151 139 255 
9.41861 -2.10039 1.30644 37 133 142 255 
9.41931 -2.11082 1.21431 46 110 142 255 
9.41459 -2.11682 1.12504 48 105 142 255 
9.44697 -2.10312 1.04968 41 121 142 255 
9.44657 -2.11182 0.957636 34 140 141 255 
9.45836 -2.1213 0.866811 37 131 142 255 
9.45477 -2.13104 0.776391 38 130 142 255 
9.45883 -2.10749 0.699743 35 137 142 255 
9.45226 -2.11482 0.607691 33 142 141 255 
9.43867 -2.12208 0.515473 54 92 141 255 
9.47521 -2.13912 0.425807 38 130 142 255 
9.49025 -2.11796 0.349755 35 138 141 255 
9.48238 -2.12504 0.257858 39 128 142 255 
9.49322 -2.13608 0.16645 40 125 142 255 
9.49205 -2.1464 0.0764342 42 120 142 255 
9.49699 -2.12121 -0.00169838 37 131 142 255 
9.49039 -2.13031 -0.0933711 38 130 142 255 
9.49803 -2.14065 -0.183546 38 130 142 255 
9.49657 -2.1509 -0.275384 42 120 142 255 
9.48572 -2.1239 -0.35304 37 131 142 255 
9.50558 -2.13721 -0.444126 41 122 142 255 
9.51713 -2.1467 -0.536918 43 117 142 255 
9.51728 -2.15734 -0.629358 47 108 142 255 
9.5183 -2.13293 -0.707758 42 118 142 255 
9.5034 -2.1402 -0.797467 46 110 142 255 
9.59384 -2.16928 -0.898611 34 141 141 255 
9.79941 -2.22129 -1.01355 64 69 136 255 
9.21736 -2.07056 -1.02962 69 56 130 255 
8.56857 -1.93124 -1.04115 69 55 129 255 
8.00938 -1.81248 -1.05197 66 63 133 255 
7.53435 -1.71062 -1.06384 68 57 131 255 
7.15018 -1.61012 -1.07053 66 65 134 255 
6.77501 -1.52948 -1.08019 65 68 135 255 
6.45598 -1.46214 -1.09229 61 78 138 255 
6.0979 -1.38448 -1.09359 60 80 139 255 
5.8427 -1.31997 -1.09936 59 81 139 255 
5.62251 -1.2724 -1.11219 56 89 140 255 
5.35547 -1.2129 -1.11418 58 84 140 255 
5.14767 -1.1678 -1.12486 60 80 139 255 
4.98163 -1.12818 -1.1333 56 88 140 255 
4.76955 -1.08112 -1.13267 55 91 141 255 
4.58034 -1.03903 -1.13539 57 86 140 255 
4.41814 -1.00068 -1.14291 64 69 136 255 
4.24156 -0.964463 -1.1371 62 74 137 255 
4.11817 -0.936493 -1.14587 61 77 138 255 
3.95627 -0.898188 -1.14341 59 81 139 255 
3.82179 -0.864208 -1.14801 64 69 136 255 
10.2061 -2.34356 3.14566 50 100 142 255 
10.1483 -2.32112 3.01071 45 113 142 255 
10.2018 -2.32951 2.9158 64 70 136 255 
10.0868 -2.30347 2.77815 53 94 141 255 
10.1595 -2.32727 2.70519 59 82 139 255 
10.1487 -2.32308 2.59195 57 86 140 255 
10.1873 -2.33368 2.4956 66 63 133 255 
17.9361 -4.11241 4.21452 72 38 119 255 
18.0329 -4.12754 4.08086 72 28 110 255 
14.9372 -3.42192 3.22093 70 51 127 255 
13.6322 -3.13035 2.8025 71 45 123 255 
9.40155 -2.16249 1.84027 39 126 142 255 
9.43329 -2.15918 1.76563 36 135 142 255 
9.44571 -2.16563 1.67215 35 137 142 255 
9.45077 -2.17364 1.5776 33 142 141 255 
9.44699 -2.18162 1.4871 33 145 140 255 
9.45926 -2.16686 1.40878 31 149 139 255 
9.45963 -2.17056 1.31395 34 141 141 255 
9.43422 -2.17504 1.21793 34 140 141 255 
9.45465 -2.18686 1.1314 39 128 142 255 
9.47847 -2.17126 1.05464 41 121 142 255 
9.46835 -2.17777 0.961181 32 146 140 255 
9.47622 -2.18646 0.869661 31 152 139 255 
9.47453 -2.19667 0.779106 32 147 140 255 
9.48558 -2.17463 0.702696 31 150 139 255 
9.47996 -2.18219 0.610321 31 156 137 255 
9.478 -2.1921 0.518347 46 111 142 255 
9.48526 -2.20265 0.426858 44 115 142 255 
9.48974 -2.17906 0.350222 45 112 142 255 
9.49352 -2.1888 0.258521 41 122 142 255 
9.4965 -2.19812 0.166741 46 111 142 255 
9.50207 -2.21004 0.0766227 41 123 142 255 
9.51596 -2.18683 -0.00170414 46 109 142 255 
9.49858 -2.19346 -0.0935822 46 109 142 255 
9.49933 -2.20227 -0.183829 43 116 142 255 
9.50169 -2.21344 -0.275921 42 120 142 255 
9.51341 -2.19148 -0.354565 44 114 142 255 
9.50884 -2.19932 -0.4449 45 113 142 255 
9.52421 -2.20979 -0.538072 38 129 142 255 
9.53205 -2.22227 -0.631225 39 127 142 255 
9.53128 -2.19735 -0.709711 44 115 142 255 
9.50757 -2.20252 -0.798935 41 121 142 255 
9.59975 -2.23262 -0.900431 35 137 142 255 
9.86602 -2.30013 -1.02188 66 64 134 255 
9.21513 -2.12954 -1.03081 69 55 129 255 
8.56333 -1.98535 -1.04198 70 52 128 255 
8.0068 -1.86362 -1.05311 67 61 132 255 
7.52468 -1.75704 -1.06398 68 59 132 255 
7.14885 -1.65597 -1.07183 66 64 134 255 
6.78089 -1.5746 -1.08265 64 70 136 255 
6.44689 -1.50173 -1.09229 60 80 139 255 
6.10272 -1.42501 -1.096 61 77 138 255 
5.86132 -1.36203 -1.10442 56 89 140 255 
5.60695 -1.30509 -1.11068 55 91 141 255 
5.34888 -1.24596 -1.11438 56 88 140 255 
5.1347 -1.19803 -1.12361 62 76 138 255 
4.96321 -1.15607 -1.1307 56 89 140 255 
4.7486 -1.10705 -1.12928 55 90 140 255 
4.56915 -1.06601 -1.13421 61 77 138 255 
4.40909 -1.02711 -1.14218 62 73 137 255 
4.23556 -0.990471 -1.1371 62 73 137 255 
4.10953 -0.961085 -1.14508 60 80 139 255 
3.96287 -0.925291 -1.14694 62 76 138 255 
3.81361 -0.88699 -1.14717 63 71 136 255 
10.1571 -2.398 3.13501 61 78 138 255 
10.1638 -2.39039 3.0196 54 93 141 255 
10.1179 -2.37577 2.89593 52 96 141 255 
10.1722 -2.38872 2.80563 53 95 141 255 
10.179 -2.39755 2.71423 57 85 140 255 
10.4828 -2.46734 2.68109 72 29 111 255 
10.1832 -2.3986 2.49816 71 19 101 255 
14.7455 -3.47624 3.46975 72 40 120 255 
14.6927 -3.458 3.3297 72 37 118 255 
13.5833 -3.19961 2.93317 72 33 115 255 
13.6538 -3.22363 2.81094 72 28 110 255 
9.40244 -2.22353 1.84308 36 135 142 255 
9.4486 -2.22378 1.77102 31 150 139 255 
9.45047 -2.22784 1.67538 31 149 139 255 
9.46223 -2.2375 1.58178 31 152 139 255 
9.45747 -2.24525 1.49089 31 153 138 255 
9.46698 -2.22985 1.41194 31 159 136 255 
9.46639 -2.23334 1.31677 31 150 139 255 
9.45062 -2.23998 1.2218 31 151 139 255 
9.45362 -2.24782 1.13291 31 149 139 255 
9.47271 -2.2312 1.05551 31 149 139 255 
9.47514 -2.24064 0.963248 31 152 139 255 
9.45197 -2.24204 0.868682 31 150 139 255 
9.48026 -2.25939 0.780703 31 150 139 255 
9.48759 -2.23645 0.703848 31 153 138 255 
9.48193 -2.24399 0.611323 31 161 135 255 
9.47603 -2.25299 0.518985 44 113 142 255 
9.4842 -2.26382 0.427427 31 148 140 255 
9.49078 -2.24069 0.350761 31 150 139 255 
9.49547 -2.2507 0.258946 32 146 140 255 
9.50131 -2.26075 0.167066 33 145 140 255 
9.49709 -2.2704 0.0766933 32 146 140 255 
9.50625 -2.2461 -0.00170484 31 153 138 255 
9.49564 -2.25424 -0.0936878 33 143 141 255 
9.49342 -2.26237 -0.18398 33 144 141 255 
9.49668 -2.2738 -0.276175 33 142 141 255 
9.51437 -2.25327 -0.355109 31 152 139 255 
9.51266 -2.26178 -0.445719 34 141 141 255 
9.52698 -2.27213 -0.539006 36 134 142 255 
9.52988 -2.2835 -0.631997 35 136 142 255 
9.53314 -2.25947 -0.710869 33 142 141 255 
9.54429 -2.27282 -0.803178 33 143 141 255 
9.61493 -2.29842 -0.903161 37 133 142 255 
9.86913 -2.36479 -1.02369 68 58 131 255 
9.19512 -2.18443 -1.03005 68 57 131 255 
8.54326 -2.03602 -1.04103 70 48 126 255 
7.99811 -1.9134 -1.05349 68 57 131 255 
7.56577 -1.81566 -1.07134 66 63 133 255 
7.15491 -1.7037 -1.07428 65 66 135 255 
6.78168 -1.6187 -1.08434 63 72 137 255 
6.45195 -1.5447 -1.09473 62 76 138 255 
6.08811 -1.46105 -1.09497 62 74 137 255 
5.84998 -1.39729 -1.10387 58 84 140 255 
5.58356 -1.33582 -1.10765 57 86 140 255 
5.35257 -1.28149 -1.11677 59 82 139 255 
5.16814 -1.23932 -1.13258 58 83 139 255 
4.95032 -1.18514 -1.1294 57 86 140 255 
4.76445 -1.14161 -1.1347 55 91 141 255 
4.56252 -1.09403 -1.13421 62 73 137 255 
4.42533 -1.05956 -1.14805 62 76 138 255 
4.23787 -1.01848 -1.13938 61 77 138 255 
4.10919 -0.987636 -1.14665 62 76 138 255 
3.9618 -0.950712 -1.1483 62 73 137 255 
3.8081 -0.910373 -1.14717 65 66 135 255 
10.2054 -2.47563 3.15457 62 74 137 255 
10.1714 -2.45812 3.02627 50 102 142 255 
10.1181 -2.44142 2.90023 54 93 141 255 
10.6061 -2.55939 2.92959 68 58 131 255 
10.5921 -2.56356 2.82854 67 62 133 255 
10.2666 -2.48303 2.62963 60 80 139 255 
12.0552 -2.91774 2.96174 71 44 122 255 
14.831 -3.59258 3.49498 72 26 108 255 
13.6964 -3.31235 3.10847 71 44 122 255 
13.2477 -3.20646 2.86488 69 55 129 255 
15.045 -3.64968 3.1019 71 42 122 255 
9.41916 -2.2886 1.84908 33 143 141 255 
9.44816 -2.28495 1.77353 31 156 137 255 
9.45099 -2.28927 1.67793 30 155 138 255 
9.45983 -2.29831 1.5837 30 157 137 255 
9.44735 -2.30417 1.4915 32 146 140 255 
9.45793 -2.28906 1.41266 31 154 138 255 
9.45347 -2.29161 1.31691 31 149 139 255 
9.43381 -2.29722 1.22143 31 148 140 255 
9.4493 -2.30814 1.13407 32 146 140 255 
9.47333 -2.29279 1.05712 32 147 140 255 
9.45541 -2.29733 0.962657 31 156 137 255 
9.44868 -2.30259 0.869661 32 146 140 255 
9.46041 -2.31609 0.780224 33 143 141 255 
9.47757 -2.29556 0.704137 30 155 138 255 
9.46604 -2.30166 0.611198 30 157 137 255 
9.4533 -2.30896 0.518506 44 114 142 255 
9.47789 -2.32387 0.427777 32 146 140 255 
9.48656 -2.30124 0.351121 31 154 138 255 
9.48148 -2.30892 0.258946 33 144 141 255 
9.49503 -2.3209 0.167203 34 139 141 255 
9.49657 -2.33196 0.0768033 33 144 141 255 
9.50007 -2.30627 -0.00170623 32 146 140 255 
9.49912 -2.31672 -0.0938606 33 144 141 255 
9.49878 -2.32533 -0.184357 34 140 141 255 
9.48934 -2.3337 -0.276373 37 133 142 255 
9.50911 -2.31373 -0.355436 32 147 140 255 
9.50248 -2.32106 -0.445902 33 144 141 255 
9.52547 -2.33363 -0.539721 37 133 142 255 
9.53507 -2.3467 -0.633284 37 133 142 255 
9.53267 -2.32122 -0.711883 35 138 141 255 
9.54662 -2.33537 -0.804565 37 133 142 255 
9.62192 -2.3626 -0.905162 37 132 142 255 
9.86024 -2.42673 -1.02429 68 58 131 255 
9.13905 -2.23044 -1.02528 66 64 134 255 
8.57594 -2.0995 -1.04657 70 48 126 255 
7.99681 -1.96504 -1.05489 67 61 132 255 
7.56315 -1.86418 -1.07257 66 64 134 255 
7.14913 -1.74875 -1.07501 68 59 132 255 
6.78985 -1.66475 -1.08726 62 73 137 255 
6.44043 -1.58379 -1.0944 60 80 139 255 
6.06182 -1.49413 -1.09187 62 74 137 255 
5.82983 -1.43034 -1.10171 53 94 141 255 
5.57526 -1.37005 -1.10765 56 88 140 255 
5.34651 -1.31478 -1.11717 57 86 140 255 
5.14335 -1.2668 -1.12882 58 83 139 255 
4.96381 -1.22062 -1.13417 53 94 141 255 
4.7479 -1.1685 -1.13244 57 86 140 255 
4.56894 -1.12525 -1.1375 60 80 139 255 
4.4018 -1.08253 -1.14365 62 76 138 255 
4.24563 -1.04794 -1.14317 61 77 138 255 
4.10867 -1.01422 -1.14822 61 77 138 255 
3.95683 -0.975234 -1.14857 64 70 136 255 
3.81083 -0.935781 -1.1497 64 70 136 255 
10.7988 -2.68982 3.34301 65 66 135 255 
10.1486 -2.51864 3.02405 53 94 141 255 
10.1394 -2.51249 2.9107 54 92 141 255 
10.2087 -2.52987 2.82405 51 99 141 255 
10.548 -2.6215 2.821 58 83 139 255 
10.2521 -2.54621 2.62987 64 70 136 255 
11.9351 -2.96631 2.93666 72 41 121 255 
15.4784 -3.8501 3.65304 72 22 104 255 
13.0569 -3.24263 2.9678 69 55 129 255 
15.1937 -3.77631 3.29066 72 26 108 255 
15.0575 -3.75069 3.10917 70 50 126 255 
9.41543 -2.34897 1.85114 31 149 139 255 
9.43683 -2.34359 1.77407 31 149 139 255 
9.45111 -2.35078 1.68048 31 156 137 255 
9.45226 -2.35798 1.58483 31 151 139 255 
9.43495 -2.36258 1.4918 33 144 141 255 
9.45235 -2.3492 1.41395 31 154 138 255 
9.45269 -2.35293 1.31878 32 146 140 255 
9.43108 -2.35795 1.22293 33 145 140 255 
9.4523 -2.37042 1.13615 34 139 141 255 
9.48224 -2.35663 1.05971 32 146 140 255 
9.44404 -2.35602 0.962953 33 143 141 255 
9.46432 -2.36801 0.872422 33 144 141 255 
9.47116 -2.38041 0.7823 37 131 142 255 
9.48073 -2.35801 0.705433 33 142 141 255 
9.47595 -2.36574 0.612763 34 141 141 255 
9.44767 -2.3691 0.518985 50 102 142 255 
9.50027 -2.39125 0.429442 39 128 142 255 
9.50329 -2.36714 0.352271 34 140 141 255 
9.49332 -2.3736 0.259662 38 130 142 255 
9.51358 -2.3874 0.167784 40 125 142 255 
9.49857 -2.39435 0.0769368 40 124 142 255 
9.5197 -2.37298 -0.00171234 39 128 142 255 
9.49055 -2.37642 -0.0939182 40 125 142 255 
9.5173 -2.39186 -0.184997 43 117 142 255 
9.51652 -2.4024 -0.277589 42 119 142 255 
9.52673 -2.38003 -0.356633 38 130 142 255 
9.53845 -2.39195 -0.44827 38 129 142 255 
9.54777 -2.40129 -0.541809 39 126 142 255 
9.55435 -2.41372 -0.635537 41 123 142 255 
9.56759 -2.39201 -0.715573 38 129 142 255 
9.54468 -2.39706 -0.805626 42 118 142 255 
9.61787 -2.42427 -0.906163 35 137 142 255 
9.83262 -2.48402 -1.02299 66 64 134 255 
9.12616 -2.28672 -1.02539 68 58 131 255 
8.55904 -2.15111 -1.0461 70 52 128 255 
8.00673 -2.01965 -1.05781 69 56 130 255 
7.56309 -1.91347 -1.07421 66 63 133 255 
7.13827 -1.79258 -1.07501 68 58 131 255 
6.79963 -1.71145 -1.09048 61 77 138 255 
6.42677 -1.62231 -1.09375 61 77 138 255 
6.06782 -1.53517 -1.09462 63 71 136 255 
5.81236 -1.46392 -1.10008 57 86 140 255 
5.58484 -1.4088 -1.11124 55 90 140 255 
5.3507 -1.35068 -1.11975 58 83 139 255 
5.12505 -1.29569 -1.12653 57 86 140 255 
4.96664 -1.25368 -1.13655 58 84 140 255 
4.73592 -1.19641 -1.13131 55 91 141 255 
4.5855 -1.15922 -1.14338 57 86 140 255 
4.39131 -1.10857 -1.14267 63 72 137 255 
4.25038 -1.07682 -1.14621 60 80 139 255 
4.1136 -1.04225 -1.15136 61 77 138 255 
3.93304 -0.995009 -1.14341 63 71 136 255 
3.8106 -0.960554 -1.15139 66 65 134 255 
12.0069 -3.06911 3.72277 71 44 122 255 
10.1721 -2.59082 3.03571 64 69 136 255 
10.1135 -2.57205 2.90774 51 98 141 255 
10.2631 -2.61031 2.8435 57 86 140 255 
10.2982 -2.62661 2.75845 55 90 140 255 
12.6886 -3.23413 3.25992 72 29 111 255 
12.813 -3.2681 3.15754 71 44 122 255 
12.6125 -3.21955 2.98128 71 46 124 255 
12.8825 -3.28337 2.93269 71 19 101 255 
14.9739 -3.8194 3.24808 71 14 97 255 
15.076 -3.8537 3.11781 71 45 123 255 
9.41606 -2.4106 1.85414 36 135 142 255 
9.44133 -2.40631 1.77766 39 128 142 255 
9.44988 -2.41214 1.68286 36 135 142 255 
9.46056 -2.42181 1.58868 37 131 142 255 
9.4557 -2.42953 1.49741 35 138 141 255 
9.47708 -2.41718 1.41984 36 135 142 255 
9.49473 -2.42535 1.3267 35 138 141 255 
9.45872 -2.42662 1.22842 35 136 142 255 
9.48375 -2.44026 1.14171 35 138 141 255 
9.50132 -2.42337 1.06349 37 132 142 255 
9.48243 -2.4275 0.968368 35 136 142 255 
9.49592 -2.43793 0.876698 35 136 142 255 
9.51525 -2.45367 0.787171 35 137 142 255 
9.51537 -2.42871 0.709106 36 135 142 255 
9.50863 -2.43597 0.615832 33 144 141 255 
9.51613 -2.44843 0.523561 39 126 142 255 
9.52798 -2.46049 0.431368 34 141 141 255 
9.537 -2.43778 0.354068 33 143 141 255 
9.52312 -2.44323 0.260882 34 140 141 255 
9.53652 -2.45545 0.168451 33 143 141 255 
9.54953 -2.46961 0.0774709 31 150 139 255 
9.54856 -2.4425 -0.0017202 34 141 141 255 
9.52808 -2.44805 -0.0944366 34 139 141 255 
9.54408 -2.46095 -0.185808 35 138 141 255 
9.53741 -2.47002 -0.278635 35 137 142 255 
9.55357 -2.44911 -0.358194 32 146 140 255 
9.56616 -2.46139 -0.450273 33 145 140 255 
9.56089 -2.46706 -0.543402 37 131 142 255 
9.57028 -2.48031 -0.637596 35 137 142 255 
9.57592 -2.45662 -0.71731 34 141 141 255 
9.56454 -2.46453 -0.808563 41 123 142 255 
9.62884 -2.48997 -0.908619 35 138 141 255 
9.81527 -2.5438 -1.02279 66 64 134 255 
9.03301 -2.32237 -1.01651 66 64 134 255 
8.56107 -2.20756 -1.04798 70 52 128 255 
8.01819 -2.07496 -1.06099 69 56 130 255 
7.55408 -1.96059 -1.07462 66 63 133 255 
7.12713 -1.83635 -1.07501 69 55 129 255 
6.79283 -1.75413 -1.0911 63 71 136 255 
6.43006 -1.66518 -1.09603 63 72 137 255 
6.06591 -1.57435 -1.096 65 68 135 255 
5.8347 -1.50768 -1.10604 54 92 141 255 
5.59415 -1.44771 -1.11484 56 88 140 255 
5.34705 -1.38471 -1.12075 59 82 139 255 
5.12174 -1.32834 -1.12757 58 84 140 255 
4.96547 -1.28584 -1.13807 54 92 141 255 
4.73415 -1.22692 -1.13267 55 91 141 255 
4.57642 -1.18685 -1.14291 57 86 140 255 
4.39569 -1.13841 -1.1456 62 73 137 255 
4.22683 -1.0985 -1.14165 60 79 138 255 
4.09872 -1.06529 -1.14901 61 77 138 255 
3.93524 -1.0213 -1.14585 63 72 137 255 
3.79627 -0.981755 -1.14886 65 68 135 255 
10.1368 -2.65747 3.14796 53 94 141 255 
10.2081 -2.66678 3.05127 70 52 128 255 
10.0976 -2.63406 2.90774 66 65 134 255 
10.1899 -2.65837 2.82768 48 105 142 255 
10.2444 -2.67995 2.7484 57 86 140 255 
12.5409 -3.27855 3.22707 72 35 116 255 
12.5979 -3.2957 3.10946 72 38 119 255 
13.0197 -3.40872 3.08241 72 33 115 255 
16.6611 -4.35545 3.79888 72 22 104 255 
12.3816 -3.23923 2.69004 71 19 101 255 
13.9879 -3.66714 2.89739 72 37 118 255 
9.4163 -2.47232 1.85714 33 143 141 255 
9.49111 -2.48112 1.78986 31 153 138 255 
9.47303 -2.48006 1.68966 32 147 140 255 
9.48371 -2.48984 1.59511 31 153 138 255 
9.48841 -2.50009 1.50499 32 146 140 255 
9.4994 -2.48505 1.42545 31 156 137 255 
9.50555 -2.49035 1.33032 31 150 139 255 
9.48876 -2.49648 1.23428 31 150 139 255 
9.49645 -2.50575 1.14507 33 144 141 255 
9.51032 -2.48791 1.06618 31 148 140 255 
9.5097 -2.49676 0.972699 31 151 139 255 
9.51353 -2.50477 0.879726 31 149 139 255 
9.52026 -2.51736 0.788848 32 147 140 255 
9.53213 -2.49539 0.711483 31 149 139 255 
9.53018 -2.50391 0.618211 31 159 136 255 
9.52313 -2.51263 0.524785 34 140 141 255 
9.52043 -2.52095 0.431719 32 146 140 255 
9.53733 -2.5003 0.354644 31 152 139 255 
9.53888 -2.50976 0.261731 31 153 138 255 
9.53674 -2.518 0.168725 31 149 139 255 
9.5371 -2.52892 0.0774944 31 151 139 255 
9.54596 -2.50435 -0.00172247 31 148 140 255 
9.5535 -2.51717 -0.0948397 31 153 138 255 
9.55199 -2.52559 -0.18626 32 146 140 255 
9.54526 -2.53465 -0.279313 35 138 141 255 
9.55673 -2.51251 -0.358884 31 156 137 255 
9.5673 -2.52437 -0.451047 31 151 139 255 
9.56391 -2.53053 -0.544446 33 145 140 255 
9.56741 -2.54232 -0.638433 33 142 141 255 
9.56742 -2.5171 -0.717817 33 144 141 255 
9.5714 -2.52903 -0.81044 32 147 140 255 
9.62879 -2.55309 -0.910075 35 137 142 255 
9.80236 -2.60475 -1.02309 64 70 136 255 
9.00801 -2.37497 -1.01531 64 69 136 255 
8.55312 -2.26157 -1.04868 70 48 126 255 
8.00722 -2.12463 -1.06124 69 55 129 255 
7.53904 -2.00614 -1.07421 67 61 132 255 
7.11956 -1.88106 -1.07558 70 48 126 255 
6.76379 -1.79097 -1.08818 63 71 136 255 
6.42545 -1.70612 -1.09701 63 72 137 255 
6.07137 -1.61559 -1.09876 65 66 135 255 
5.82534 -1.54345 -1.10604 57 85 140 255 
5.5918 -1.48377 -1.11617 55 91 141 255 
5.34698 -1.41976 -1.12254 59 81 139 255 
5.11349 -1.35975 -1.12757 59 81 139 255 
4.92446 -1.30752 -1.13049 57 86 140 255 
4.75195 -1.2627 -1.13876 52 96 141 255 
4.56436 -1.21366 -1.14173 61 78 138 255 
4.39987 -1.16834 -1.14854 61 77 138 255 
4.22656 -1.12616 -1.14342 59 81 139 255 
4.0949 -1.09116 -1.14979 60 80 139 255 
3.93076 -1.04592 -1.1464 62 74 137 255 
3.79389 -1.00601 -1.14998 66 65 134 255 
10.1268 -2.72136 3.14997 50 100 142 255 
11.6474 -3.11927 3.48717 72 33 115 255 
12.0541 -3.22356 3.47679 66 64 134 255 
10.1137 -2.70487 2.81108 72 37 118 255 
10.1735 -2.72821 2.73383 67 61 132 255 
13.1691 -3.52926 3.39424 71 42 122 255 
13.1665 -3.5309 3.25508 70 51 127 255 
13.7555 -3.69169 3.26191 72 32 113 255 
17.9923 -4.82159 4.10908 72 28 110 255 
14.3465 -3.84747 3.12199 72 29 111 255 
13.9377 -3.74552 2.89169 72 40 120 255 
9.44363 -2.54154 1.86557 33 144 141 255 
9.47666 -2.53956 1.79004 30 155 138 255 
9.47762 -2.5435 1.69323 31 153 138 255 
9.49113 -2.55414 1.59896 31 152 139 255 
9.48816 -2.56239 1.50742 31 154 138 255 
9.49354 -2.54586 1.42688 31 160 136 255 
9.48339 -2.54683 1.32938 31 148 140 255 
9.48188 -2.55698 1.23541 31 152 139 255 
9.4972 -2.56838 1.14704 31 151 139 255 
9.50735 -2.54956 1.06758 31 154 138 255 
9.51439 -2.56049 0.974767 31 160 136 255 
9.49318 -2.5618 0.879281 31 152 139 255 
9.49982 -2.57442 0.788449 32 147 140 255 
9.52723 -2.55667 0.712275 30 155 138 255 
9.5262 -2.56545 0.618962 31 160 136 255 
9.50946 -2.57154 0.524891 31 148 140 255 
9.50575 -2.57958 0.431763 32 146 140 255 
9.5247 -2.55956 0.354751 31 152 139 255 
9.52524 -2.56876 0.261784 31 150 139 255 
9.51918 -2.57595 0.168691 32 147 140 255 
9.51754 -2.58635 0.077463 33 144 141 255 
9.53042 -2.56287 -0.00172247 31 148 140 255 
9.55235 -2.57965 -0.0949837 32 146 140 255 
9.545 -2.58651 -0.18643 35 137 142 255 
9.54303 -2.59684 -0.279709 36 135 142 255 
9.53824 -2.57032 -0.358775 31 153 138 255 
9.54488 -2.5812 -0.450729 33 145 140 255 
9.55688 -2.59152 -0.544941 35 137 142 255 
9.56126 -2.6036 -0.639076 33 142 141 255 
9.57202 -2.58121 -0.719336 33 144 141 255 
9.57013 -2.59162 -0.811663 34 139 141 255 
9.62928 -2.61656 -0.911622 34 139 141 255 
9.77371 -2.66145 -1.02178 66 65 134 255 
9.15738 -2.47454 -1.03384 70 48 126 255 
8.53141 -2.31193 -1.04774 69 53 129 255 
7.98925 -2.17242 -1.06061 68 57 131 255 
7.53137 -2.05366 -1.07489 65 66 135 255 
7.11743 -1.92729 -1.07703 67 61 132 255 
6.76889 -1.83684 -1.09079 64 70 136 255 
6.40724 -1.74344 -1.09571 62 73 137 255 
6.10886 -1.66577 -1.10737 59 82 139 255 
5.83094 -1.58329 -1.10893 54 93 141 255 
5.58922 -1.51986 -1.1175 53 95 141 255 
5.37316 -1.46206 -1.12989 56 88 140 255 
5.09467 -1.38827 -1.12528 61 77 138 255 
4.92671 -1.34053 -1.13287 59 82 139 255 
4.75351 -1.29439 -1.14102 54 92 141 255 
4.54932 -1.2396 -1.13985 59 82 139 255 
4.37765 -1.19124 -1.14463 62 73 137 255 
4.24104 -1.15793 -1.14924 59 82 139 255 
4.08906 -1.11652 -1.15006 60 79 138 255 
3.94284 -1.07508 -1.15182 62 73 137 255 
3.79227 -1.03053 -1.15139 62 73 137 255 
10.3029 -2.83658 3.2101 59 82 139 255 
11.1834 -3.06867 3.35382 72 40 120 255 
12.7141 -3.48381 3.67327 71 47 125 255 
12.7516 -3.49433 3.55016 69 55 129 255 
10.5141 -2.8888 2.83005 69 56 130 255 
13.2099 -3.62722 3.41043 72 41 121 255 
13.1099 -3.60209 3.24649 67 61 132 255 
16.165 -4.44485 3.83968 71 19 101 255 
17.6008 -4.83262 4.02636 72 23 105 255 
13.9433 -3.8312 3.0393 72 29 111 255 
13.8747 -3.82004 2.88344 72 40 120 255 
9.44775 -2.60492 1.8695 34 140 141 255 
9.4628 -2.59818 1.7904 33 143 141 255 
9.46754 -2.60318 1.69425 31 152 139 255 
9.48289 -2.61443 1.60024 31 153 138 255 
9.47988 -2.62267 1.50863 31 151 139 255 
9.48728 -2.60668 1.42832 30 157 137 255 
9.48096 -2.60865 1.33126 31 152 139 255 
9.47366 -2.61722 1.23641 31 149 139 255 
9.48796 -2.62846 1.14785 34 141 141 255 
9.49824 -2.6097 1.06834 30 155 138 255 
9.49466 -2.61776 0.974373 31 151 139 255 
9.47728 -2.62 0.879281 33 143 141 255 
9.49441 -2.63559 0.789327 34 141 141 255 
9.51618 -2.61641 0.712635 31 153 138 255 
9.52471 -2.62784 0.619902 31 156 137 255 
9.49351 -2.62984 0.524891 35 137 142 255 
9.51092 -2.64375 0.432726 36 134 142 255 
9.51556 -2.61981 0.355003 31 149 139 255 
9.517 -2.62929 0.261996 33 143 141 255 
9.52728 -2.64098 0.169118 37 133 142 255 
9.51498 -2.64845 0.077573 37 132 142 255 
9.52705 -2.62475 -0.00172473 32 146 140 255 
9.53827 -2.63874 -0.0950029 35 137 142 255 
9.5357 -2.6469 -0.186562 40 124 142 255 
9.53943 -2.65884 -0.280077 40 124 142 255 
9.52999 -2.63093 -0.359065 37 133 142 255 
9.52789 -2.63945 -0.450683 38 130 142 255 
9.55908 -2.65519 -0.545985 41 123 142 255 
9.56433 -2.66758 -0.640363 46 111 142 255 
9.5685 -2.64335 -0.720277 38 129 142 255 
9.56269 -2.65269 -0.812398 43 116 142 255 
9.64758 -2.68521 -0.914897 39 126 142 255 
9.72461 -2.71228 -1.01837 71 42 122 255 
9.15927 -2.53545 -1.03579 69 53 129 255 
8.49028 -2.3568 -1.04445 70 48 126 255 
7.90984 -2.20303 -1.05184 70 51 127 255 
7.36501 -2.05693 -1.05293 70 50 126 255 
7.09689 -1.96855 -1.07573 68 59 132 255 
6.74797 -1.87569 -1.08925 67 61 132 255 
6.39167 -1.7814 -1.09489 62 74 137 255 
6.1156 -1.70799 -1.11047 61 77 138 255 
5.82301 -1.61957 -1.10929 56 89 140 255 
5.57601 -1.55307 -1.11674 55 90 140 255 
5.35465 -1.49237 -1.1279 55 90 140 255 
5.07946 -1.41766 -1.12382 62 74 137 255 
4.93908 -1.3765 -1.13764 60 79 138 255 
4.7558 -1.32641 -1.1435 54 92 141 255 
4.54069 -1.26723 -1.13962 56 88 140 255 
4.38333 -1.22173 -1.14805 65 66 135 255 
4.22919 -1.18263 -1.14798 59 81 139 255 
4.08771 -1.14315 -1.15163 61 78 138 255 
3.92876 -1.09719 -1.14965 62 74 137 255 
3.78403 -1.05327 -1.15083 63 71 136 255 
10.6964 -3.01565 3.33841 72 22 104 255 
10.2839 -2.88983 3.08933 68 59 132 255 
13.3269 -3.73978 3.85686 72 24 106 255 
10.5484 -2.9603 2.94178 66 65 134 255 
10.512 -2.95772 2.83432 60 79 138 255 
12.9856 -3.65146 3.35825 68 59 132 255 
15.9751 -4.49494 3.96277 72 36 117 255 
13.6622 -3.847 3.25075 71 42 122 255 
12.7877 -3.59563 2.93032 72 29 111 255 
14.9086 -4.195 3.25528 72 29 111 255 
17.7637 -5.00823 3.69796 72 32 113 255 
9.44482 -2.66657 1.87213 38 130 142 255 
9.46183 -2.66046 1.79328 34 139 141 255 
9.46562 -2.66523 1.6968 35 136 142 255 
9.46952 -2.67337 1.60073 37 133 142 255 
9.48453 -2.68671 1.51197 37 131 142 255 
9.49016 -2.67021 1.43119 33 143 141 255 
9.49625 -2.67564 1.33569 35 136 142 255 
9.48607 -2.6834 1.24015 39 126 142 255 
9.51179 -2.69801 1.15271 38 130 142 255 
9.50502 -2.67439 1.07093 37 132 142 255 
9.51577 -2.68652 0.978213 36 135 142 255 
9.51278 -2.69275 0.88409 40 125 142 255 
9.52312 -2.70661 0.79308 42 120 142 255 
9.52778 -2.68259 0.714723 38 130 142 255 
9.52282 -2.6903 0.620841 37 132 142 255 
9.53195 -2.70357 0.527924 41 122 142 255 
9.53103 -2.71245 0.43439 35 137 142 255 
9.52432 -2.68519 0.355938 39 128 142 255 
9.54686 -2.70069 0.263269 38 130 142 255 
9.56765 -2.7155 0.170127 34 139 141 255 
9.56106 -2.7246 0.0780835 35 137 142 255 
9.55311 -2.69511 -0.00173241 36 134 142 255 
9.56135 -2.70839 -0.0953965 36 135 142 255 
6.86584 -1.95126 -0.134559 66 64 134 255 
6.83533 -1.95043 -0.201032 64 70 136 255 
6.87969 -1.94477 -0.259654 68 58 131 255 
6.8965 -1.95614 -0.326776 60 79 138 255 
6.8746 -1.95504 -0.393333 55 91 141 255 
6.78229 -1.93657 -0.454883 60 80 139 255 
6.87544 -1.94486 -0.518443 60 80 139 255 
6.86366 -1.94941 -0.584107 58 84 140 255 
6.84297 -1.94992 -0.650054 63 72 137 255 
6.79363 -1.93981 -0.712669 61 78 138 255 
6.84905 -1.94127 -0.775868 59 82 139 255 
6.84605 -1.9457 -0.843633 55 90 140 255 
6.82593 -1.94635 -0.909274 61 78 138 255 
6.71503 -1.9199 -0.961671 69 53 129 255 
6.80674 -1.93312 -1.03353 64 70 136 255 
6.71542 -1.91111 -1.08587 70 52 128 255 
6.36829 -1.81706 -1.09278 63 71 136 255 
6.09458 -1.74251 -1.10858 59 82 139 255 
5.82148 -1.65769 -1.11091 56 89 140 255 
5.55127 -1.58295 -1.11371 57 86 140 255 
5.33031 -1.5209 -1.12472 58 84 140 255 
5.08195 -1.45203 -1.12632 63 72 137 255 
4.93805 -1.40892 -1.13937 59 81 139 255 
4.7354 -1.35209 -1.14057 53 94 141 255 
4.53844 -1.29667 -1.14103 57 85 140 255 
4.38974 -1.25259 -1.15172 61 77 138 255 
4.23209 -1.21148 -1.15076 56 88 140 255 
4.09639 -1.17273 -1.15608 61 78 138 255 
3.90344 -1.11598 -1.14423 66 65 134 255 
3.81441 -1.08699 -1.16207 64 70 136 255 
10.6888 -3.08441 3.34186 70 52 128 255 
10.2503 -2.94836 3.08461 72 26 108 255 
10.416 -2.99197 3.01967 72 33 115 255 
10.5031 -3.01723 2.93426 72 28 110 255 
10.4806 -3.01841 2.8308 68 57 131 255 
12.6907 -3.6527 3.28771 71 45 123 255 
16.5398 -4.76354 4.11002 72 36 117 255 
13.6309 -3.9286 3.24896 72 38 119 255 
16.9884 -4.88943 3.8997 72 27 109 255 
17.7649 -5.11654 3.88572 72 27 109 255 
17.7364 -5.11821 3.69874 71 13 96 255 
9.46508 -2.73511 1.87943 41 122 142 255 
9.50772 -2.73642 1.80512 44 115 142 255 
9.49738 -2.73717 1.70548 44 115 142 255 
9.50414 -2.74622 1.6094 43 116 142 255 
9.51343 -2.75807 1.51924 43 117 142 255 
9.51924 -2.74153 1.43809 41 121 142 255 
9.51298 -2.74347 1.34038 42 119 142 255 
9.50373 -2.75149 1.24464 41 122 142 255 
9.52749 -2.76574 1.15665 40 124 142 255 
9.52187 -2.74229 1.0747 42 118 142 255 
9.523 -2.75176 0.980674 45 112 142 255 
9.52478 -2.75939 0.886762 44 115 142 255 
9.53027 -2.77195 0.795076 42 119 142 255 
9.52552 -2.74514 0.715804 45 112 142 255 
9.53873 -2.75811 0.62297 39 126 142 255 
9.54587 -2.77091 0.529626 42 119 142 255 
9.55833 -2.78373 0.436405 33 144 141 255 
9.56431 -2.75993 0.358058 31 152 139 255 
9.55892 -2.76756 0.264065 32 147 140 255 
9.56137 -2.77722 0.170316 31 150 139 255 
9.5624 -2.78853 0.0782327 32 146 140 255 
9.57194 -2.76394 -0.00173887 32 147 140 255 
9.57144 -2.77481 -0.0956653 33 145 140 255 
6.72606 -1.95622 -0.132052 60 79 138 255 
6.56992 -1.91836 -0.193569 63 72 137 255 
6.67564 -1.9314 -0.252395 57 85 140 255 
6.6522 -1.93102 -0.315756 58 84 140 255 
6.66018 -1.93832 -0.381739 53 95 141 255 
6.56529 -1.91826 -0.441111 56 88 140 255 
6.64782 -1.92461 -0.50216 57 85 140 255 
6.57786 -1.91193 -0.560772 61 78 138 255 
6.56319 -1.91382 -0.624579 64 70 136 255 
6.52279 -1.90584 -0.685471 63 71 136 255 
6.56777 -1.90515 -0.745315 62 73 137 255 
6.53267 -1.90003 -0.806436 63 72 137 255 
6.54629 -1.91013 -0.873569 64 70 136 255 
6.54625 -1.91517 -0.939164 62 76 138 255 
6.561 -1.90691 -0.997972 66 64 134 255 
6.53944 -1.90448 -1.05929 67 61 132 255 
6.36649 -1.85887 -1.0944 62 73 137 255 
6.08094 -1.77904 -1.10806 59 81 139 255 
5.82064 -1.69613 -1.11272 53 94 141 255 
5.55747 -1.62166 -1.11693 60 79 138 255 
5.32464 -1.55467 -1.12552 54 92 141 255 
5.09923 -1.49086 -1.13216 60 80 139 255 
4.91901 -1.43619 -1.13699 57 85 140 255 
4.7214 -1.37948 -1.13921 53 94 141 255 
4.53133 -1.32476 -1.14126 57 86 140 255 
4.37639 -1.27787 -1.15025 61 77 138 255 
4.23014 -1.23906 -1.15228 59 81 139 255 
4.09375 -1.1992 -1.15739 63 72 137 255 
3.91869 -1.1464 -1.15074 63 71 136 255 
3.78464 -1.10365 -1.15504 62 73 137 255 
10.5493 -3.11441 3.30418 68 59 132 255 
10.2071 -3.00388 3.07711 60 80 139 255 
12.2985 -3.61457 3.5718 72 24 106 255 
10.5641 -3.10505 2.95656 52 96 141 255 
12.9372 -3.81202 3.50057 72 29 111 255 
13.1344 -3.86783 3.40874 72 40 120 255 
13.5116 -3.98135 3.36355 72 38 119 255 
12.4322 -3.66589 2.96856 72 24 106 255 
15.0396 -4.42865 3.45852 72 29 111 255 
13.0565 -3.84738 2.86097 72 23 105 255 
13.4315 -3.96539 2.80603 72 20 103 255 
9.4679 -2.79898 1.88337 54 93 141 255 
9.51151 -2.80082 1.80907 34 140 141 255 
9.50309 -2.80208 1.70956 33 144 141 255 
9.49563 -2.807 1.61084 32 147 140 255 
9.51055 -2.8206 1.52152 31 154 138 255 
9.52313 -2.80605 1.44125 31 150 139 255 
9.50072 -2.80319 1.34105 31 148 140 255 
9.50665 -2.81567 1.24726 31 151 139 255 
9.52748 -2.82924 1.15873 31 152 139 255 
9.53633 -2.80994 1.07826 31 150 139 255 
9.51453 -2.81268 0.98156 31 149 139 255 
9.51626 -2.82032 0.887564 31 148 140 255 
9.52837 -2.83492 0.796354 31 153 138 255 
9.5305 -2.81002 0.71746 31 151 139 255 
9.54172 -2.82253 0.624285 31 159 136 255 
9.55166 -2.83626 0.530903 31 156 137 255 
9.55256 -2.84575 0.43693 31 149 139 255 
9.56733 -2.82451 0.358813 31 154 138 255 
9.54751 -2.82786 0.264224 31 152 139 255 
9.5499 -2.83755 0.170418 31 148 140 255 
9.55278 -2.84944 0.0782955 31 148 140 255 
9.56631 -2.82602 -0.00174097 31 148 140 255 
9.56957 -2.83803 -0.0958188 34 140 141 255 
6.61234 -1.96723 -0.130054 59 82 139 255 
6.35114 -1.89685 -0.187462 54 93 141 255 
6.4308 -1.9034 -0.243575 53 95 141 255 
6.38933 -1.8973 -0.303825 54 92 141 255 
6.37829 -1.89881 -0.366243 48 106 142 255 
6.38129 -1.90707 -0.429526 48 105 142 255 
6.40063 -1.89569 -0.484358 58 83 139 255 
6.3692 -1.89374 -0.543965 57 86 140 255 
