ply
format ascii 1.0
comment VTK generated PLY File
obj_info vtkPolyData points and polygons: vtk4.0
element vertex 1259
property float x
property float y
property float z
property uchar red
property uchar green
property uchar blue
property uchar alpha
element face 0
property list uchar int vertex_indices
end_header
4.57244 2.84576 -1.03907 64 70 136 255 
4.38616 2.72881 -1.04816 65 68 135 255 
4.23371 2.63184 -1.06234 65 66 135 255 
4.05095 2.52032 -1.05857 65 68 135 255 
3.94285 2.45201 -1.07536 64 70 136 255 
3.78406 2.35239 -1.07711 65 68 135 255 
3.66367 2.27925 -1.08861 64 70 136 255 
3.53509 2.1951 -1.08778 63 72 137 255 
3.42066 2.12396 -1.09245 64 70 136 255 
3.29131 2.04527 -1.09214 67 62 133 255 
3.17067 1.97408 -1.09431 68 59 132 255 
7.68016 4.74636 2.7121 54 93 141 255 
7.70514 4.77094 2.62093 63 71 136 255 
14.4777 8.97162 4.74585 71 46 124 255 
14.4726 8.96805 4.57164 72 28 110 255 
14.0185 8.67358 4.27861 70 50 126 255 
14.0872 8.71926 4.12455 71 13 96 255 
0 0 0 69 4 87 255 
0 0 0 68 2 86 255 
45.3686 28.0816 11.7702 69 5 89 255 
0 0 0 69 4 87 255 
0 0 0 69 4 87 255 
34.2205 21.1308 7.67214 70 8 92 255 
31.175 19.2963 6.68938 70 10 93 255 
31.309 19.3635 6.35209 70 10 93 255 
32.8231 20.2687 6.27573 70 10 93 255 
26.7497 16.4854 4.8194 71 17 100 255 
26.5969 16.4562 4.5404 70 11 94 255 
27.1444 16.7813 4.32046 70 10 93 255 
26.8212 16.543 3.96421 71 13 96 255 
26.3483 16.2254 3.60764 71 17 100 255 
26.3394 16.2968 3.35931 72 22 104 255 
25.6615 15.846 2.98377 70 11 94 255 
26.2116 16.1607 2.75363 71 14 97 255 
28.7141 17.6616 2.70048 70 11 94 255 
25.5016 15.7723 2.16513 71 19 101 255 
26.37 16.2771 1.94424 71 17 100 255 
29.822 18.3652 1.86614 70 10 93 255 
0 0 0 68 2 86 255 
60.846 37.603 2.5728 69 4 87 255 
60.8709 37.5438 1.89774 69 5 89 255 
46.7237 28.7625 0.938549 70 8 92 255 
42.211 25.9228 0.389059 70 7 90 255 
34.7431 21.463 -0.00712758 70 7 90 255 
24.5456 15.1274 -0.276782 70 11 94 255 
20.2386 12.4489 -0.447933 72 24 106 255 
16.0223 9.832 -0.531656 72 29 111 255 
14.8568 9.16726 -0.634035 72 38 119 255 
13.2508 8.16005 -0.709381 72 36 117 255 
11.7889 7.24857 -0.761609 72 35 116 255 
10.844 6.65176 -0.820438 69 55 129 255 
10.0322 6.18783 -0.855243 68 59 132 255 
9.19377 5.65723 -0.883708 71 47 125 255 
8.49275 5.21577 -0.91053 70 48 126 255 
7.87213 4.8288 -0.931557 71 44 122 255 
7.33391 4.51826 -0.938821 68 57 131 255 
6.88012 4.23192 -0.957459 56 88 140 255 
6.53935 4.01452 -0.982972 61 78 138 255 
6.15393 3.77189 -0.993863 57 85 140 255 
5.84347 3.59582 -1.00216 52 96 141 255 
5.5704 3.42364 -1.01687 56 88 140 255 
5.28363 3.24237 -1.02293 55 91 141 255 
5.0332 3.08497 -1.03243 65 66 135 255 
4.81117 2.95596 -1.03636 63 72 137 255 
4.61659 2.83409 -1.04513 62 73 137 255 
4.3953 2.69723 -1.04637 64 69 136 255 
4.24728 2.60428 -1.06171 65 66 135 255 
4.06634 2.49542 -1.05857 65 68 135 255 
3.95533 2.42624 -1.07468 62 73 137 255 
3.79843 2.32913 -1.07711 63 71 136 255 
3.65692 2.24405 -1.08249 64 70 136 255 
3.51879 2.15518 -1.07868 66 64 134 255 
3.43363 2.10293 -1.09245 65 68 135 255 
3.31857 2.03409 -1.09703 65 66 135 255 
3.19908 1.96463 -1.09993 66 63 133 255 
7.74758 4.72258 2.72562 57 85 140 255 
7.74001 4.72708 2.62288 51 99 141 255 
14.6837 8.97506 4.79524 72 40 120 255 
14.5504 8.89318 4.5789 71 42 122 255 
14.1764 8.65144 4.31051 72 22 104 255 
14.1719 8.65187 4.13373 66 63 133 255 
0 0 0 68 1 84 255 
15.0321 9.16959 4.03279 70 7 90 255 
0 0 0 69 4 87 255 
0 0 0 69 4 87 255 
34.4045 20.9712 8.07311 70 8 92 255 
34.4644 20.9904 7.69781 69 5 89 255 
31.2895 19.1026 6.68866 69 5 89 255 
31.5508 19.2465 6.37709 70 7 90 255 
32.86 20.014 6.25919 70 7 90 255 
32.8802 19.9863 5.90171 70 7 90 255 
31.6839 19.3358 5.38846 70 11 94 255 
27.2502 16.6165 4.321 70 10 93 255 
26.6738 16.2271 3.92764 71 17 100 255 
26.4337 16.0552 3.60579 70 10 93 255 
26.4796 16.1598 3.36449 71 19 101 255 
26.7442 16.2887 3.09797 70 8 92 255 
25.9409 15.775 2.71497 71 19 101 255 
28.8356 17.4934 2.70176 70 10 93 255 
28.8309 17.5878 2.43859 70 8 92 255 
28.7932 17.5298 2.11493 71 19 101 255 
28.9876 17.607 1.80714 71 16 99 255 
47.7546 28.948 2.44794 69 5 89 255 
61.2744 37.3501 2.58118 69 4 87 255 
0 0 0 68 2 86 255 
46.9027 28.4773 0.938617 70 7 90 255 
42.1632 25.5385 0.387166 70 7 90 255 
35.1226 21.4008 -0.00717836 70 7 90 255 
23.0384 14.0041 -0.258813 70 7 90 255 
20.3924 12.3716 -0.449648 72 28 110 255 
16.2765 9.85099 -0.538074 71 19 101 255 
14.8769 9.0541 -0.632511 67 62 133 255 
13.3211 8.09104 -0.710474 72 33 115 255 
11.8741 7.20095 -0.764247 72 36 117 255 
10.9085 6.59956 -0.82224 71 47 125 255 
10.0665 6.12409 -0.854954 62 74 137 255 
9.22745 5.6002 -0.883626 71 46 124 255 
8.53226 5.1682 -0.911349 71 45 123 255 
7.92715 4.79585 -0.934568 70 50 126 255 
7.35809 4.47111 -0.938388 60 80 139 255 
6.92634 4.20198 -0.960284 55 91 141 255 
6.57149 3.97895 -0.984115 59 81 139 255 
6.18798 3.74073 -0.995636 55 91 141 255 
5.86373 3.55887 -1.00187 54 92 141 255 
5.58285 3.38427 -1.01534 54 93 141 255 
5.29752 3.20631 -1.02179 54 93 141 255 
5.03517 3.04384 -1.02899 62 73 137 255 
4.81828 2.91976 -1.03401 63 71 136 255 
4.62886 2.80265 -1.04399 63 72 137 255 
4.41428 2.67174 -1.04697 63 71 136 255 
4.24393 2.56653 -1.05692 65 66 135 255 
4.12166 2.49468 -1.06897 64 70 136 255 
3.9568 2.39385 -1.07107 66 64 134 255 
3.77355 2.28214 -1.06607 68 58 131 255 
3.66648 2.21906 -1.08127 62 73 137 255 
3.5394 2.13805 -1.08095 64 69 136 255 
3.43656 2.07583 -1.08931 66 64 134 255 
3.32605 2.01071 -1.0954 66 63 133 255 
3.20943 1.94397 -1.09937 68 58 131 255 
7.78379 4.67939 2.72821 47 108 142 255 
7.7738 4.68247 2.62454 67 61 132 255 
14.3392 8.64408 4.66533 70 48 126 255 
14.7867 8.91342 4.63595 72 32 113 255 
14.4473 8.69557 4.37659 72 28 110 255 
14.2206 8.56225 4.13252 71 46 124 255 
0 0 0 68 2 86 255 
0 0 0 68 1 84 255 
46.026 27.7132 11.8516 69 5 89 255 
46.1375 27.7685 11.3184 69 5 89 255 
46.4252 27.9091 10.8534 69 5 89 255 
45.4298 27.2881 10.1094 69 4 87 255 
32.7385 19.7125 6.97243 70 10 93 255 
32.6698 19.655 6.57875 70 7 90 255 
33.1463 19.9106 6.29034 70 11 94 255 
33.0582 19.8177 5.91172 69 5 89 255 
32.2038 19.3829 5.45655 70 8 92 255 
26.7394 16.0808 4.22427 70 11 94 255 
26.6572 15.9937 3.91066 71 17 100 255 
33.1977 19.8856 4.51172 70 11 94 255 
32.7273 19.698 4.14288 70 11 94 255 
32.4722 19.5053 3.74755 70 7 90 255 
25.9415 15.5582 2.705 70 11 94 255 
28.8397 17.2547 2.69218 70 8 92 255 
32.6825 19.6633 2.75411 70 10 93 255 
29.0166 17.4227 2.12345 71 17 100 255 
29.1431 17.4575 1.81012 71 13 96 255 
0 0 0 69 4 87 255 
47.8182 28.7469 2.00687 70 10 93 255 
47.9529 28.77 1.48388 70 10 93 255 
47.2945 28.3195 0.942961 69 5 89 255 
41.962 25.0659 0.383899 70 7 90 255 
34.4373 20.6945 -0.00701221 70 7 90 255 
25.5733 15.3309 -0.286228 70 11 94 255 
20.552 12.2966 -0.451496 72 26 108 255 
16.2001 9.66948 -0.533579 71 19 101 255 
14.9279 8.96008 -0.632329 72 29 111 255 
13.3602 8.00299 -0.709927 72 35 116 255 
11.8924 7.11258 -0.762599 72 38 119 255 
10.9385 6.52637 -0.821467 71 42 122 255 
10.1202 6.07196 -0.856329 59 81 139 255 
9.24881 5.5358 -0.882402 72 37 118 255 
8.56039 5.11371 -0.910985 72 40 120 255 
7.97181 4.7563 -0.936375 71 47 125 255 
7.38539 4.42588 -0.938388 61 77 138 255 
6.95966 4.16399 -0.961343 55 91 141 255 
6.59578 3.93855 -0.984115 59 82 139 255 
6.19124 3.69102 -0.992499 57 85 140 255 
5.88885 3.52486 -1.00245 51 98 141 255 
5.58994 3.34184 -1.01288 51 99 141 255 
5.30777 3.16818 -1.02 55 90 140 255 
5.05122 3.01137 -1.02847 58 84 140 255 
4.84117 2.89317 -1.0351 60 80 139 255 
4.63838 2.76967 -1.04229 63 72 137 255 
4.43396 2.64661 -1.04777 62 76 138 255 
4.26043 2.54094 -1.05713 66 64 134 255 
4.1436 2.47335 -1.0707 64 69 136 255 
3.96891 2.36803 -1.07039 63 71 136 255 
3.79917 2.26591 -1.06936 66 64 134 255 
3.68252 2.19801 -1.082 65 66 135 255 
3.55411 2.11728 -1.08146 62 74 137 255 
3.42684 2.04137 -1.08224 68 59 132 255 
3.33088 1.98582 -1.09296 66 64 134 255 
3.23448 1.93212 -1.10387 66 64 134 255 
7.71597 4.5744 2.69455 72 41 121 255 
7.86516 4.67197 2.64566 67 61 132 255 
14.084 8.37282 4.56548 70 51 127 255 
14.8212 8.81068 4.62972 72 38 119 255 
14.1641 8.40716 4.27509 72 36 117 255 
14.7985 8.78695 4.28472 72 24 106 255 
15.15 8.99225 4.20687 69 5 89 255 
0 0 0 68 2 86 255 
46.4638 27.5898 11.9205 69 5 89 255 
0 0 0 69 4 87 255 
44.8302 26.5772 10.4422 69 4 87 255 
0 0 0 69 4 87 255 
32.7379 19.4395 6.94676 70 11 94 255 
32.7873 19.4527 6.57824 70 10 93 255 
33.2951 19.723 6.29548 69 5 89 255 
33.1519 19.5984 5.90687 70 8 92 255 
33.2965 19.7633 5.62105 70 8 92 255 
32.5883 19.327 5.12944 69 5 89 255 
36.1555 21.3918 5.28474 70 7 90 255 
33.3516 19.7007 4.51612 70 10 93 255 
32.8296 19.4862 4.14062 70 10 93 255 
32.1443 19.0409 3.69616 71 16 99 255 
32.6755 19.3252 3.39474 70 8 92 255 
32.6779 19.2798 3.03937 70 7 90 255 
32.9629 19.5575 2.76757 70 8 92 255 
29.2776 17.3359 2.13472 70 10 93 255 
29.2918 17.3032 1.81272 71 13 96 255 
0 0 0 68 2 86 255 
61.7152 36.5877 2.58064 69 5 89 255 
61.58 36.4338 1.89862 69 4 87 255 
47.5999 28.107 0.945595 69 4 87 255 
42.1296 24.8166 0.384032 69 4 87 255 
35.7586 21.191 -0.00725464 70 7 90 255 
26.4829 15.6561 -0.295328 70 7 90 255 
20.5935 12.1504 -0.45076 72 23 105 255 
15.974 9.40206 -0.524221 71 19 101 255 
15.0299 8.89631 -0.634326 72 35 116 255 
13.4125 7.9229 -0.710109 72 38 119 255 
11.9539 7.05013 -0.763753 72 41 121 255 
10.956 6.44597 -0.819794 71 44 122 255 
10.1598 6.01127 -0.856546 61 78 138 255 
9.27832 5.47641 -0.881994 70 50 126 255 
8.58131 5.05502 -0.909893 71 44 122 255 
8.0017 4.7078 -0.936475 71 44 122 255 
7.42182 4.38604 -0.93958 62 74 137 255 
6.98764 4.12273 -0.961697 57 85 140 255 
6.61726 3.8965 -0.983734 58 83 139 255 
6.21292 3.65246 -0.992362 58 84 140 255 
5.90696 3.48664 -1.00187 51 99 141 255 
5.60949 3.30697 -1.01272 52 97 141 255 
5.33391 3.13956 -1.0213 52 96 141 255 
5.0662 2.97832 -1.02778 62 73 137 255 
4.8512 2.85891 -1.03347 60 79 138 255 
4.64429 2.73468 -1.03983 64 70 136 255 
4.44589 2.61687 -1.04677 62 73 137 255 
4.30882 2.53409 -1.06525 64 70 136 255 
4.15617 2.44639 -1.07005 64 69 136 255 
3.97077 2.33623 -1.06701 62 74 137 255 
3.84065 2.25882 -1.07711 64 69 136 255 
3.67923 2.16554 -1.07711 66 63 133 255 
3.56037 2.09152 -1.07944 65 66 135 255 
3.48923 2.04964 -1.09795 69 56 130 255 
3.34052 1.96389 -1.09214 66 64 134 255 
3.24132 1.90931 -1.10218 68 59 132 255 
15.1339 8.84707 5.26597 72 33 115 255 
13.6297 7.98343 4.56816 71 45 123 255 
13.6124 7.97981 4.39665 71 45 123 255 
14.3984 8.4402 4.48139 72 36 117 255 
14.1645 8.29027 4.25977 72 36 117 255 
14.7986 8.66461 4.26926 69 55 129 255 
15.1931 8.89225 4.20362 72 26 108 255 
15.1832 8.88248 4.02877 69 5 89 255 
0 0 0 68 2 86 255 
0 0 0 69 4 87 255 
0 0 0 68 2 86 255 
34.7253 20.2826 7.67139 70 8 92 255 
33.0272 19.3381 6.98284 70 8 92 255 
32.6576 19.1058 6.52859 71 14 97 255 
33.2262 19.4078 6.25983 70 7 90 255 
33.2835 19.4016 5.90899 70 8 92 255 
32.7236 19.1527 5.50439 70 7 90 255 
34.1297 19.9591 5.35268 69 5 89 255 
36.4258 21.2511 5.30508 70 7 90 255 
35.1215 20.4566 4.7387 70 8 92 255 
33.4856 19.5987 4.20812 69 5 89 255 
33.3716 19.4923 3.82346 70 7 90 255 
32.7875 19.1208 3.39412 70 10 93 255 
32.6034 18.9671 3.02156 70 8 92 255 
33.0117 19.3136 2.76167 70 10 93 255 
36.2785 21.1817 2.63565 70 7 90 255 
0 0 0 68 2 86 255 
0 0 0 68 2 86 255 
61.8928 36.1816 2.57873 70 7 90 255 
61.7964 36.0517 1.89843 69 5 89 255 
48.4792 28.2265 0.959603 69 5 89 255 
43.0325 24.9941 0.390857 69 5 89 255 
36.2065 21.1573 -0.00731904 69 4 87 255 
26.5984 15.5049 -0.295549 71 14 97 255 
20.4447 11.8941 -0.445898 72 23 105 255 
17.1813 9.97119 -0.561821 72 26 108 255 
15.1188 8.82407 -0.635777 72 32 113 255 
13.517 7.87313 -0.713069 72 36 117 255 
12.0383 7.00074 -0.76639 72 38 119 255 
10.9954 6.37862 -0.819794 70 51 127 255 
10.1827 5.94077 -0.855388 62 76 138 255 
9.3195 5.42389 -0.882729 71 47 125 255 
8.61216 5.00227 -0.909893 72 40 120 255 
8.0356 4.66161 -0.937077 71 45 123 255 
7.45117 4.34192 -0.939905 61 77 138 255 
7.00508 4.07528 -0.960637 54 92 141 255 
6.64362 3.85731 -0.984115 58 83 139 255 
6.25407 3.6252 -0.995363 53 95 141 255 
5.93423 3.45382 -1.00289 53 95 141 255 
5.6237 3.26902 -1.01165 52 96 141 255 
5.35393 3.10727 -1.02147 55 90 140 255 
5.1091 2.96151 -1.03278 56 89 140 255 
4.8661 2.82761 -1.03293 59 81 139 255 
4.66523 2.7086 -1.04077 63 71 136 255 
4.46271 2.59003 -1.04697 62 74 137 255 
4.31329 2.50122 -1.06254 65 68 135 255 
4.15928 2.41398 -1.06702 67 62 133 255 
3.97913 2.3084 -1.06543 61 77 138 255 
3.83931 2.22643 -1.07288 62 76 138 255 
3.67567 2.13319 -1.07222 68 58 131 255 
3.57062 2.06818 -1.07868 66 65 134 255 
3.50425 2.02964 -1.09873 66 64 134 255 
3.35417 1.94432 -1.09269 65 66 135 255 
3.23471 1.87878 -1.096 68 58 131 255 
15.2717 8.80234 5.29502 71 19 101 255 
13.6909 7.90686 4.57232 66 64 134 255 
14.0155 8.10102 4.51072 71 45 123 255 
14.3194 8.2763 4.44094 71 47 125 255 
14.3014 8.25304 4.28564 71 42 122 255 
14.9817 8.64884 4.3067 69 56 130 255 
15.1901 8.7658 4.18783 72 27 109 255 
15.223 8.78087 4.02498 72 29 111 255 
0 0 0 69 4 87 255 
45.3888 26.1921 11.0146 69 5 89 255 
0 0 0 68 2 86 255 
34.8832 20.0888 7.67889 70 10 93 255 
34.4888 19.9108 7.2659 70 8 92 255 
33.0124 19.0425 6.57603 70 7 90 255 
34.5404 19.8922 6.48431 69 5 89 255 
33.8458 19.4521 5.98752 69 5 89 255 
33.3926 19.2701 5.59691 70 7 90 255 
33.9081 19.5513 5.29902 70 10 93 255 
35.237 20.2688 5.11374 69 5 89 255 
34.1481 19.61 4.59105 69 4 87 255 
34.9503 20.1691 4.37654 70 7 90 255 
33.7329 19.4267 3.85112 70 7 90 255 
32.9413 18.9406 3.39795 70 10 93 255 
32.8446 18.8386 3.03314 70 11 94 255 
33.705 19.4426 2.80963 69 4 87 255 
0 0 0 68 2 86 255 
0 0 0 68 2 86 255 
0 0 0 68 2 86 255 
0 0 0 69 4 87 255 
0 0 0 68 2 86 255 
48.7009 27.9568 0.960578 69 5 89 255 
0 0 0 68 2 86 255 
36.3599 20.9488 -0.00732392 69 5 89 255 
26.8092 15.4082 -0.296835 71 13 96 255 
20.7306 11.8908 -0.450534 72 22 104 255 
17.1823 9.83133 -0.55987 72 29 111 255 
15.2038 8.74908 -0.637084 72 28 110 255 
13.5789 7.798 -0.713798 72 35 116 255 
12.094 6.93419 -0.767214 72 40 120 255 
11.0551 6.32293 -0.821339 72 40 120 255 
10.174 5.85232 -0.851625 63 72 137 255 
9.39237 5.38942 -0.886482 72 41 121 255 
8.64097 4.94834 -0.909711 71 42 122 255 
8.06578 4.6132 -0.937278 70 48 126 255 
7.47595 4.29513 -0.939688 62 73 137 255 
7.02737 4.03074 -0.960284 57 86 140 255 
6.6465 3.80465 -0.981066 60 79 138 255 
6.28222 3.5902 -0.996318 55 91 141 255 
5.9596 3.4198 -1.00361 51 98 141 255 
5.64194 3.23347 -1.01134 53 95 141 255 
5.36604 3.07044 -1.02016 55 90 140 255 
5.11862 2.92522 -1.03105 54 93 141 255 
4.89104 2.8021 -1.03456 63 71 136 255 
4.68857 2.68382 -1.04229 62 73 137 255 
4.48363 2.56552 -1.04816 61 78 138 255 
4.3328 2.47714 -1.06359 65 68 135 255 
4.15368 2.37678 -1.06182 61 77 138 255 
4.0059 2.29119 -1.06882 61 78 138 255 
3.8453 2.19849 -1.07077 63 72 137 255 
3.71646 2.12648 -1.08029 66 63 133 255 
3.61601 2.06494 -1.08854 66 64 134 255 
3.49569 1.99614 -1.09219 68 59 132 255 
3.37356 1.928 -1.09513 68 57 131 255 
3.22703 1.84793 -1.08953 69 55 129 255 
13.7908 7.83644 4.7648 69 56 130 255 
15.271 8.6949 5.08212 71 19 101 255 
14.7161 8.38592 4.71955 72 29 111 255 
14.4178 8.21554 4.45572 68 58 131 255 
14.6513 8.33552 4.37508 69 55 129 255 
14.5428 8.27692 4.16586 72 26 108 255 
15.2064 8.65126 4.17761 70 11 94 255 
15.1563 8.61888 3.99327 72 28 110 255 
0 0 0 68 1 84 255 
45.7146 26.0075 11.0547 69 5 89 255 
45.4798 25.8429 10.4809 69 5 89 255 
34.8008 19.7579 7.63391 70 10 93 255 
34.9164 19.873 7.33015 70 10 93 255 
34.9018 19.8479 6.92801 70 8 92 255 
34.0499 19.3324 6.36982 70 8 92 255 
33.5681 19.0194 5.91763 70 8 92 255 
34.0667 19.3815 5.68987 69 5 89 255 
33.856 19.2454 5.27232 70 8 92 255 
33.9039 19.2261 4.90306 70 10 93 255 
25.2568 14.2987 3.38379 71 14 97 255 
33.3676 18.9838 4.16369 69 5 89 255 
33.2301 18.8666 3.78043 71 13 96 255 
32.9053 18.6522 3.38236 70 10 93 255 
33.2346 18.7923 3.05845 70 10 93 255 
34.2346 19.4691 2.84377 69 4 87 255 
39.3401 22.3265 2.83796 70 10 93 255 
33.7869 19.1285 2.06876 71 14 97 255 
33.7758 19.0827 1.70056 70 7 90 255 
33.7419 19.1734 1.39593 71 13 96 255 
33.7688 19.1491 1.03011 71 14 97 255 
33.7723 19.1125 0.6638 71 13 96 255 
33.8077 19.0852 0.30492 70 8 92 255 
33.7566 19.1739 -0.00677572 70 7 90 255 
12.4272 7.04126 -0.137114 72 36 117 255 
12.3846 7.00303 -0.268213 69 53 129 255 
12.4389 7.01633 -0.403902 69 56 130 255 
12.3845 7.02589 -0.517129 72 38 119 255 
12.479 7.06489 -0.653689 69 56 130 255 
12.1503 6.86772 -0.768094 72 35 116 255 
11.0989 6.25792 -0.821725 71 47 125 255 
10.2497 5.81242 -0.854954 64 69 136 255 
9.41572 5.32629 -0.885584 71 44 122 255 
8.68157 4.90111 -0.910803 70 48 126 255 
8.07833 4.55483 -0.935472 72 38 119 255 
7.50735 4.25211 -0.940338 62 76 138 255 
7.03987 3.9807 -0.958636 55 90 140 255 
6.69823 3.77988 -0.985259 58 83 139 255 
6.31017 3.55499 -0.997273 55 90 140 255 
6.00114 3.39487 -1.00708 51 99 141 255 
5.67199 3.20462 -1.01318 53 95 141 255 
5.39939 3.04569 -1.02293 55 91 141 255 
5.13733 2.89424 -1.03123 52 96 141 255 
4.90986 2.773 -1.03492 64 70 136 255 
4.7041 2.65452 -1.0421 65 66 135 255 
4.49758 2.537 -1.04777 62 76 138 255 
4.35644 2.45531 -1.06567 63 71 136 255 
4.16989 2.35221 -1.06226 65 68 135 255 
4.02837 2.27135 -1.07107 60 79 138 255 
3.87142 2.18201 -1.07429 64 70 136 255 
3.72775 2.10269 -1.0798 65 68 135 255 
3.63198 2.04461 -1.08955 62 74 137 255 
3.5003 1.97039 -1.08983 68 58 131 255 
3.38532 1.90726 -1.09513 68 59 132 255 
3.24415 1.8314 -1.0915 69 56 130 255 
15.0636 8.43782 5.18656 72 38 119 255 
14.8902 8.35748 4.93821 70 50 126 255 
14.564 8.18129 4.65459 70 50 126 255 
14.51 8.15057 4.46868 71 44 122 255 
14.5181 8.14225 4.32031 71 47 125 255 
14.6873 8.24023 4.19268 71 16 99 255 
15.2406 8.54733 4.1725 72 33 115 255 
15.3126 8.58387 4.02051 72 22 104 255 
0 0 0 68 1 84 255 
45.7154 25.6379 11.0166 69 5 89 255 
45.8171 25.664 10.5222 70 8 92 255 
35.0054 19.5911 7.65228 71 13 96 255 
35.2462 19.7753 7.37377 70 8 92 255 
35.5103 19.9066 7.02442 70 8 92 255 
34.9732 19.5738 6.51996 70 7 90 255 
33.8084 18.8825 5.93946 70 11 94 255 
35.0567 19.661 5.83497 69 4 87 255 
34.4947 19.3294 5.35322 70 8 92 255 
33.7224 18.8506 4.86 70 8 92 255 
25.3363 14.1391 3.38275 70 10 93 255 
33.4869 18.7806 4.16413 70 10 93 255 
33.4347 18.7124 3.79057 71 16 99 255 
33.3017 18.6078 3.41131 71 13 96 255 
33.4625 18.6511 3.06883 69 5 89 255 
33.4399 18.7466 2.76815 70 7 90 255 
0 0 0 68 2 86 255 
0 0 0 68 2 86 255 
0 0 0 68 2 86 255 
0 0 0 69 4 87 255 
66.5279 37.1879 2.02241 70 8 92 255 
49.4053 27.5607 0.967727 69 4 87 255 
41.9754 23.3576 0.377286 69 4 87 255 
12.3281 6.90271 -0.00246598 69 5 89 255 
27.6894 15.4652 -0.304457 70 10 93 255 
21.2147 11.8249 -0.457866 72 26 108 255 
17.0544 9.48227 -0.55187 72 32 113 255 
15.5822 8.71403 -0.648408 72 31 112 255 
13.5951 7.58697 -0.709699 72 33 115 255 
12.1887 6.79109 -0.767874 72 38 119 255 
11.1205 6.18049 -0.820502 71 46 124 255 
10.3078 5.76207 -0.856835 63 71 136 255 
9.42472 5.25531 -0.883382 71 46 124 255 
8.73237 4.85937 -0.912986 71 44 122 255 
8.12961 4.51823 -0.938181 71 44 122 255 
7.52028 4.1987 -0.938713 62 74 137 255 
7.06069 3.93549 -0.958165 57 86 140 255 
6.71349 3.73437 -0.984115 58 84 140 255 
6.34399 3.52293 -0.999183 55 91 141 255 
6.03137 3.36328 -1.00867 52 96 141 255 
5.68119 3.16399 -1.01134 54 93 141 255 
5.42574 3.01682 -1.0244 50 100 142 255 
5.15671 2.86362 -1.03157 51 98 141 255 
4.90615 2.73134 -1.03058 63 72 137 255 
4.72802 2.6299 -1.0438 64 70 136 255 
4.50449 2.50459 -1.04578 66 65 134 255 
4.36801 2.42663 -1.06484 64 70 136 255 
4.1868 2.328 -1.06291 67 61 132 255 
4.06011 2.25653 -1.07581 62 74 137 255 
3.87199 2.15114 -1.07077 62 73 137 255 
3.7533 2.08684 -1.08347 63 71 136 255 
3.64615 2.02323 -1.09006 64 69 136 255 
3.50557 1.94513 -1.08773 65 68 135 255 
3.39276 1.88412 -1.09377 66 63 133 255 
3.26036 1.81426 -1.09319 66 63 133 255 
14.9943 8.27858 5.14513 70 50 126 255 
15.0269 8.31339 4.96655 67 62 133 255 
14.6713 8.1235 4.67284 69 53 129 255 
14.5961 8.0815 4.47984 70 52 128 255 
14.7321 8.14386 4.36905 72 31 112 255 
15.1859 8.39791 4.32023 66 63 133 255 
15.3974 8.51153 4.20107 72 36 117 255 
15.4162 8.51803 4.03391 72 22 104 255 
0 0 0 68 1 84 255 
0 0 0 68 2 86 255 
0 0 0 69 4 87 255 
35.0054 19.3099 7.62623 71 13 96 255 
35.7672 19.7801 7.45723 70 7 90 255 
35.2005 19.4501 6.9394 69 5 89 255 
33.6191 18.546 6.24618 71 13 96 255 
23.6055 12.9947 4.13293 72 22 104 255 
23.5744 13.0318 3.91043 71 19 101 255 
34.0176 18.7887 5.26119 70 7 90 255 
25.3611 13.9732 3.64256 72 28 110 255 
33.6173 18.4908 4.47316 70 11 94 255 
35.8681 19.8277 4.44501 70 7 90 255 
35.1705 19.4014 3.97379 70 8 92 255 
33.6072 18.5088 3.4309 70 7 90 255 
25.2355 13.8633 2.3065 71 14 97 255 
36.2754 20.0447 2.99263 69 5 89 255 
39.8131 21.9534 2.85242 70 7 90 255 
0 0 0 68 1 84 255 
0 0 0 68 2 86 255 
67.888 37.4819 2.78934 69 5 89 255 
0 0 0 68 2 86 255 
49.6891 27.3206 0.969985 69 4 87 255 
0 0 0 68 2 86 255 
12.4814 6.8883 -0.00248814 70 7 90 255 
27.7969 15.3023 -0.304601 70 8 92 255 
21.2614 11.6805 -0.45732 72 27 109 255 
17.2753 9.4668 -0.557128 72 29 111 255 
15.7307 8.67084 -0.652364 72 38 119 255 
13.6834 7.52652 -0.711885 72 38 119 255 
12.2931 6.75078 -0.77183 72 41 121 255 
11.1573 6.11166 -0.820438 64 69 136 255 
10.3438 5.6992 -0.856908 65 68 135 255 
9.47163 5.20554 -0.884769 71 44 122 255 
8.7463 4.79707 -0.911349 71 46 124 255 
8.15631 4.46778 -0.938081 71 47 125 255 
7.52935 4.14337 -0.936654 62 73 137 255 
7.10386 3.90262 -0.960755 56 89 140 255 
6.73628 3.69311 -0.984115 58 84 140 255 
6.34811 3.47443 -0.996455 57 85 140 255 
6.02934 3.31382 -1.00491 55 90 140 255 
5.7031 3.13049 -1.0118 54 93 141 255 
5.44588 2.98442 -1.02472 50 101 142 255 
5.16987 2.82956 -1.03071 49 103 142 255 
4.93489 2.70781 -1.03311 63 71 136 255 
4.74062 2.59895 -1.04305 63 72 137 255 
4.53439 2.48491 -1.04916 65 68 135 255 
4.36308 2.38898 -1.06004 65 68 135 255 
4.18645 2.29429 -1.05922 65 66 135 255 
4.0679 2.2283 -1.07423 58 83 139 255 
3.89705 2.13387 -1.07406 62 73 137 255 
3.75157 2.05585 -1.07931 63 71 136 255 
3.64661 1.99432 -1.08652 61 78 138 255 
3.51998 1.92497 -1.08852 65 66 135 255 
3.40341 1.8628 -1.0935 66 64 134 255 
3.27648 1.79699 -1.09487 66 63 133 255 
15.0449 8.18642 5.14513 68 58 131 255 
15.0743 8.2192 4.96544 67 61 132 255 
14.709 8.02687 4.66909 68 57 131 255 
15.0574 8.21662 4.60587 68 57 131 255 
15.8094 8.61317 4.67278 70 50 126 255 
15.0029 8.17687 4.2538 71 19 101 255 
0 0 0 68 2 86 255 
10.0656 5.48126 2.62497 59 82 139 255 
0 0 0 68 1 84 255 
0 0 0 69 4 87 255 
0 0 0 68 2 86 255 
0 0 0 69 4 87 255 
35.5873 19.3964 7.39477 70 10 93 255 
25.1694 13.7065 4.9452 70 8 92 255 
23.7201 12.896 4.39224 72 23 105 255 
23.6726 12.843 4.13081 72 28 110 255 
34.5098 18.8013 5.70509 69 5 89 255 
25.379 13.8149 3.91195 70 10 93 255 
25.4464 13.8173 3.64256 72 28 110 255 
33.5704 18.1976 4.45197 71 16 99 255 
35.4426 19.3095 4.37751 71 13 96 255 
0 0 0 69 4 87 255 
35.4473 19.2397 3.60664 70 8 92 255 
25.2956 13.6949 2.30426 71 14 97 255 
34.3253 18.6931 2.82224 69 5 89 255 
24.5896 13.3629 1.75582 72 29 111 255 
0 0 0 68 2 86 255 
52.3274 28.3063 2.60792 69 4 87 255 
65.1523 35.4516 2.66795 69 5 89 255 
65.0483 35.3203 1.96411 69 5 89 255 
49.8373 27.0052 0.969626 70 8 92 255 
0 0 0 68 2 86 255 
12.4162 6.75329 -0.00246685 70 7 90 255 
27.9729 15.1762 -0.305503 70 11 94 255 
21.2931 11.5284 -0.456472 72 22 104 255 
17.1703 9.27275 -0.551898 72 32 113 255 
15.8662 8.619 -0.655776 71 47 125 255 
13.7399 7.44813 -0.712432 72 35 116 255 
12.3457 6.6814 -0.772545 71 44 122 255 
11.2043 6.0483 -0.821145 72 40 120 255 
10.3917 5.64276 -0.857993 63 71 136 255 
9.49901 5.14495 -0.884361 71 45 123 255 
8.78083 4.74616 -0.911895 71 44 122 255 
8.18444 4.41813 -0.938181 70 50 126 255 
7.57124 4.1061 -0.938713 62 73 137 255 
7.13815 3.86463 -0.962167 54 92 141 255 
6.76318 3.65407 -0.984751 59 82 139 255 
6.35623 3.42836 -0.994409 57 86 140 255 
6.06 3.28241 -1.00664 52 97 141 255 
5.73176 3.10061 -1.01349 55 91 141 255 
5.44933 2.94298 -1.02195 52 96 141 255 
5.17673 2.79217 -1.02864 52 97 141 255 
4.95574 2.67982 -1.03401 62 76 138 255 
4.76944 2.57682 -1.04589 61 77 138 255 
4.56766 2.46682 -1.05333 61 77 138 255 
4.37508 2.36077 -1.05942 66 65 134 255 
4.20904 2.2732 -1.06139 65 66 135 255 
4.08321 2.20422 -1.07468 59 81 139 255 
3.92547 2.11823 -1.07829 64 70 136 255 
3.76156 2.03141 -1.07858 62 74 137 255 
3.66049 1.97282 -1.08702 59 81 139 255 
3.54362 1.90975 -1.09219 64 69 136 255 
3.40037 1.83412 -1.08889 62 73 137 255 
3.29082 1.77867 -1.096 68 59 132 255 
15.0821 8.08716 5.14082 72 33 115 255 
14.7005 7.89875 4.82625 71 42 122 255 
14.7487 7.93145 4.66613 71 47 125 255 
14.9749 8.05272 4.56541 68 57 131 255 
15.1397 8.12821 4.45999 72 38 119 255 
0 0 0 68 1 84 255 
10.0693 5.40595 2.72902 72 33 115 255 
10.1609 5.45259 2.64105 55 91 141 255 
0 0 0 68 2 86 255 
0 0 0 68 2 86 255 
0 0 0 69 4 87 255 
24.3515 13.0458 5.26991 71 14 97 255 
25.6601 13.7822 5.31431 70 10 93 255 
25.6203 13.7489 5.01713 71 17 100 255 
23.8092 12.7558 4.39417 72 27 109 255 
25.8326 13.8103 4.49284 70 10 93 255 
34.3115 18.4212 5.65352 71 13 96 255 
25.1585 13.4954 3.86512 72 22 104 255 
25.5202 13.6553 3.64107 71 17 100 255 
33.7331 18.0189 4.4588 70 8 92 255 
36.424 19.5554 4.48383 69 5 89 255 
26.5586 14.2285 2.98081 70 11 94 255 
26.2714 14.0514 2.66421 72 23 105 255 
25.9156 13.8257 2.35297 70 7 90 255 
24.9654 13.3978 2.04586 71 19 101 255 
24.7345 13.2457 1.76033 72 31 112 255 
25.4972 13.6201 1.54025 71 14 97 255 
0 0 0 68 2 86 255 
65.1599 34.9392 2.65943 69 5 89 255 
65.1986 34.8856 1.96215 69 5 89 255 
50.0885 26.7451 0.971302 69 4 87 255 
0 0 0 69 4 87 255 
37.3653 20.0272 -0.00739915 70 7 90 255 
28.0787 15.0114 -0.305647 70 11 94 255 
21.5134 11.4776 -0.459676 72 26 108 255 
17.1051 9.10242 -0.547997 72 32 113 255 
15.9628 8.54506 -0.657591 72 41 121 255 
13.7827 7.36227 -0.712295 72 29 111 255 
12.3275 6.57404 -0.768863 72 41 121 255 
11.2421 5.9799 -0.82121 72 38 119 255 
10.3962 5.56289 -0.855533 62 74 137 255 
9.53568 5.08939 -0.88485 71 47 125 255 
8.83352 4.70483 -0.914351 69 53 129 255 
8.19295 4.35801 -0.936074 69 56 130 255 
7.61207 4.068 -0.940663 59 81 139 255 
7.16698 3.82356 -0.962874 55 90 140 255 
6.78897 3.61436 -0.985259 59 81 139 255 
6.38502 3.39348 -0.995636 57 85 140 255 
6.0617 3.23538 -1.00361 54 93 141 255 
5.75329 3.06678 -1.01395 53 94 141 255 
5.44812 2.89929 -1.01837 52 96 141 255 
5.19289 2.75989 -1.02847 50 102 142 255 
4.99032 2.65908 -1.0378 59 82 139 255 
4.78256 2.54612 -1.04532 62 74 137 255 
4.56194 2.4277 -1.04856 62 74 137 255 
4.38343 2.33067 -1.05796 66 64 134 255 
4.22636 2.24917 -1.06226 62 74 137 255 
4.09236 2.17684 -1.07355 65 68 135 255 
3.95727 2.10414 -1.08346 60 79 138 255 
3.76796 2.0051 -1.07686 65 68 135 255 
3.68876 1.95895 -1.09183 61 77 138 255 
3.55357 1.88706 -1.09166 61 77 138 255 
3.42856 1.82225 -1.09431 66 65 134 255 
3.32793 1.77243 -1.10471 66 65 134 255 
9.78901 5.17186 3.32575 70 11 94 255 
14.7402 7.80391 4.82347 69 56 130 255 
14.7953 7.8399 4.6656 70 51 127 255 
15.0428 7.97063 4.57112 67 61 132 255 
14.9754 7.92201 4.39719 67 61 132 255 
10.0941 5.34186 2.84319 70 10 93 255 
0 0 0 68 1 84 255 
10.1812 5.3833 2.6377 70 11 94 255 
13.6733 7.23626 3.41264 70 7 90 255 
35.7288 18.9 8.49569 70 8 92 255 
24.0606 12.7118 5.45234 72 22 104 255 
25.4831 13.4514 5.49683 71 16 99 255 
25.3469 13.4142 5.23229 71 19 101 255 
23.6073 12.4827 4.60785 72 27 109 255 
23.6697 12.4948 4.35418 72 33 115 255 
23.9028 12.5907 4.14369 71 13 96 255 
34.7536 18.3848 5.70768 70 7 90 255 
25.5151 13.4857 3.90712 70 11 94 255 
25.1182 13.2426 3.57204 72 20 103 255 
23.8799 12.568 3.14616 70 10 93 255 
26.6764 14.1119 3.27316 71 17 100 255 
26.3823 13.9264 2.95138 72 26 108 255 
26.3695 13.8964 2.66545 71 16 99 255 
25.4776 13.3918 2.3057 70 11 94 255 
25.2323 13.3423 2.06099 71 17 100 255 
24.7711 13.0704 1.7572 72 28 110 255 
51.8357 27.2821 3.12115 69 5 89 255 
0 0 0 68 2 86 255 
65.4234 34.5654 2.66148 69 5 89 255 
65.8898 34.7371 1.9765 69 5 89 255 
50.6658 26.6551 0.979306 69 5 89 255 
12.2123 6.40832 0.108321 62 73 137 255 
12.2709 6.4804 -0.00242199 72 22 104 255 
12.0799 6.36315 -0.131067 71 16 99 255 
21.7091 11.4114 -0.462352 72 27 109 255 
17.166 9.00008 -0.548166 72 31 112 255 
15.992 8.43484 -0.656647 72 40 120 255 
13.7878 7.25663 -0.710246 72 37 118 255 
12.3004 6.46298 -0.764687 71 42 122 255 
11.2821 5.91266 -0.821467 72 36 117 255 
10.4408 5.50458 -0.856401 62 73 137 255 
9.62671 5.06233 -0.890398 69 53 129 255 
8.88074 4.66026 -0.916262 53 94 141 255 
8.22482 4.31043 -0.936676 68 57 131 255 
7.64217 4.024 -0.941313 59 82 139 255 
7.19822 3.78367 -0.963933 55 90 140 255 
6.81014 3.57218 -0.985132 61 78 138 255 
6.40747 3.35515 -0.995909 58 84 140 255 
6.07706 3.19583 -1.00289 54 92 141 255 
5.765 3.02775 -1.01272 57 86 140 255 
5.47892 2.87268 -1.02081 52 97 141 255 
5.20798 2.72706 -1.02813 54 92 141 255 
5.00741 2.62886 -1.03799 56 89 140 255 
4.78766 2.51125 -1.04305 59 81 139 255 
4.57849 2.40057 -1.04896 61 78 138 255 
4.41498 2.3128 -1.06213 63 72 137 255 
4.24267 2.22455 -1.06291 64 70 136 255 
4.08407 2.14038 -1.06791 64 69 136 255 
3.95117 2.0699 -1.07829 62 73 137 255 
3.79909 1.99185 -1.08225 62 73 137 255 
3.69214 1.93179 -1.0893 63 72 137 255 
3.57021 1.86791 -1.09323 62 76 138 255 
3.44565 1.80431 -1.09621 66 65 134 255 
3.31665 1.74039 -1.0974 68 59 132 255 
15.4784 8.05668 5.2418 72 22 104 255 
15.0756 7.86348 4.91737 70 52 128 255 
14.844 7.74942 4.66587 70 50 126 255 
15.4595 8.07037 4.68263 72 28 110 255 
16.0271 8.35292 4.69087 72 40 120 255 
10.1499 5.29194 2.84972 71 16 99 255 
0 0 0 68 1 84 255 
25.8398 13.4606 6.67295 69 5 89 255 
35.6505 18.588 8.86915 70 7 90 255 
35.0206 18.2512 8.30049 70 11 94 255 
24.0824 12.535 5.43977 71 14 97 255 
24.3076 12.6408 5.22644 71 17 100 255 
34.2085 17.8362 7.03884 70 10 93 255 
23.7831 12.3895 4.62723 72 41 121 255 
23.9631 12.4622 4.39401 72 28 110 255 
23.8059 12.3536 4.11367 71 14 97 255 
23.8161 12.4123 3.89879 71 19 101 255 
23.9599 12.4762 3.65718 72 32 113 255 
24.1467 12.5417 3.42289 72 28 110 255 
26.5834 13.7832 3.49114 70 11 94 255 
26.5403 13.8321 3.24599 72 27 109 255 
26.4708 13.7661 2.95177 72 24 106 255 
34.8186 18.0769 3.50822 70 7 90 255 
25.5797 13.2458 2.30753 72 26 108 255 
25.319 13.19 2.06142 72 26 108 255 
24.9323 12.9605 1.76296 72 20 103 255 
53.1617 27.5648 3.19074 69 5 89 255 
0 0 0 68 2 86 255 
0 0 0 69 4 87 255 
0 0 0 68 2 86 255 
50.5754 26.2126 0.974432 69 5 89 255 
12.2132 6.31352 0.107983 56 88 140 255 
12.1925 6.3436 -0.00239878 66 65 134 255 
12.1134 6.28615 -0.131009 71 47 125 255 
12.1181 6.27532 -0.257262 71 42 122 255 
12.1763 6.28905 -0.387589 72 41 121 255 
12.1035 6.28928 -0.495389 72 38 119 255 
12.1462 6.29776 -0.623679 71 42 122 255 
12.1678 6.29834 -0.754026 69 56 130 255 
11.3235 5.84607 -0.821853 71 47 125 255 
10.4788 5.44271 -0.856763 66 64 134 255 
9.66113 5.005 -0.890725 69 56 130 255 
8.93305 4.61803 -0.918718 65 68 135 255 
8.25112 4.25988 -0.936676 68 57 131 255 
7.68348 3.98573 -0.943372 60 80 139 255 
7.22924 3.74354 -0.964992 55 91 141 255 
6.8381 3.53351 -0.986021 59 81 139 255 
6.41825 3.31078 -0.994409 57 86 140 255 
6.08777 3.15393 -1.00144 57 86 140 255 
5.82033 3.01139 -1.01918 55 90 140 255 
5.52362 2.85304 -1.02586 52 97 141 255 
5.23162 2.69867 -1.0295 52 97 141 255 
5.00685 2.5895 -1.03456 55 91 141 255 
4.79862 2.47958 -1.0421 62 76 138 255 
4.60271 2.37738 -1.05115 62 76 138 255 
4.43343 2.28791 -1.06317 61 78 138 255 
4.25711 2.19892 -1.06312 63 71 136 255 
4.09539 2.11439 -1.06746 64 70 136 255 
3.94825 2.03759 -1.07406 64 70 136 255 
3.82243 1.97429 -1.08543 64 69 136 255 
3.70048 1.90733 -1.08829 62 76 138 255 
3.5816 1.84596 -1.09323 62 73 137 255 
3.43099 1.76989 -1.08807 66 65 134 255 
3.33664 1.72485 -1.1005 65 66 135 255 
15.1338 7.75968 5.10889 71 19 101 255 
14.9066 7.65931 4.84681 66 65 134 255 
14.8784 7.65158 4.66184 68 57 131 255 
15.4486 7.94444 4.66447 71 44 122 255 
10.1125 5.19173 2.95038 71 16 99 255 
10.3513 5.31645 2.89707 72 38 119 255 
0 0 0 68 1 84 255 
25.9419 13.312 6.67808 70 8 92 255 
23.4178 12.0278 5.80743 72 24 106 255 
26.0116 13.3538 6.14566 71 14 97 255 
10.4544 5.36028 2.35398 62 74 137 255 
10.443 5.34958 2.23827 70 48 126 255 
25.6968 13.1983 5.2707 71 14 97 255 
24.0209 12.3265 4.65869 72 35 116 255 
23.8775 12.2322 4.36446 71 14 97 255 
23.8707 12.2019 4.11185 72 27 109 255 
23.7324 12.1842 3.87279 72 29 111 255 
23.9822 12.3014 3.64899 72 33 115 255 
23.8152 12.1845 3.36523 72 26 108 255 
23.9111 12.2121 3.1303 71 16 99 255 
26.4814 13.5955 3.22852 72 22 104 255 
26.5663 13.6093 2.95305 70 7 90 255 
26.0849 13.34 2.61994 71 14 97 255 
25.727 13.1226 2.31352 72 22 104 255 
25.2255 12.9451 2.0473 72 23 105 255 
0 0 0 69 4 87 255 
0 0 0 68 2 86 255 
0 0 0 68 2 86 255 
66.2561 33.972 2.6782 70 7 90 255 
66.7054 34.1276 1.98825 69 4 87 255 
12.4414 6.35167 0.238952 68 59 132 255 
12.2464 6.23574 0.107936 62 73 137 255 
12.2125 6.25909 -0.00239512 62 74 137 255 
12.1981 6.23537 -0.131509 72 33 115 255 
13.1495 6.70739 -0.278278 71 44 122 255 
13.2045 6.71779 -0.418998 72 32 113 255 
13.1791 6.74582 -0.537709 69 55 129 255 
13.2379 6.7611 -0.677596 69 55 129 255 
12.4242 6.33468 -0.767489 71 42 122 255 
11.3689 5.78146 -0.822561 66 64 134 255 
10.5138 5.37922 -0.856908 66 63 133 255 
9.70232 4.95106 -0.891704 69 55 129 255 
8.95501 4.55996 -0.918081 71 47 125 255 
8.26734 4.20421 -0.935572 68 59 132 255 
7.68743 3.9281 -0.94088 56 88 140 255 
7.2503 3.69821 -0.964757 57 86 140 255 
6.86496 3.49419 -0.986784 60 80 139 255 
6.42785 3.26595 -0.992772 56 89 140 255 
6.11141 3.11876 -1.00216 53 94 141 255 
5.80877 2.96036 -1.01395 58 84 140 255 
5.54278 2.81999 -1.02619 54 93 141 255 
5.25335 2.6692 -1.03054 53 94 141 255 
5.0279 2.56141 -1.03564 60 79 138 255 
4.82512 2.45588 -1.04456 61 78 138 255 
4.62245 2.35176 -1.05234 57 85 140 255 
4.44652 2.26022 -1.06296 64 70 136 255 
4.2566 2.16568 -1.05966 62 76 138 255 
4.11871 2.09452 -1.07017 65 66 135 255 
3.94941 2.0076 -1.071 66 64 134 255 
3.83275 1.94992 -1.08494 64 69 136 255 
3.71211 1.88458 -1.08829 63 71 136 255 
3.592 1.82352 -1.09297 64 70 136 255 
3.44608 1.75099 -1.08943 66 65 134 255 
3.33947 1.70043 -1.09797 66 64 134 255 
15.0615 7.60623 5.06861 71 45 123 255 
14.955 7.56857 4.84736 70 51 127 255 
15.0239 7.6102 4.69271 69 53 129 255 
15.2472 7.72294 4.58927 68 58 131 255 
16.3357 8.26044 4.75116 72 27 109 255 
10.1612 5.14027 2.83498 64 70 136 255 
10.1286 5.12166 2.71021 52 97 141 255 
10.2342 5.17256 2.62631 58 83 139 255 
10.3832 5.25273 2.56691 71 13 96 255 
10.3951 5.2563 2.44835 49 104 142 255 
10.5335 5.31946 2.36439 59 82 139 255 
10.5449 5.32035 2.25307 72 36 117 255 
24.2657 12.2757 4.96162 71 14 97 255 
24.1181 12.19 4.66294 71 14 97 255 
27.2539 13.7514 4.96612 72 24 106 255 
23.8197 11.9921 4.09033 72 26 108 255 
23.5559 11.9115 3.83199 72 37 118 255 
24.4738 12.3645 3.71218 72 23 105 255 
24.0339 12.1109 3.38557 72 32 113 255 
24.0974 12.1214 3.14489 71 14 97 255 
25.8794 13.0864 3.14528 72 20 103 255 
26.2121 13.2255 2.90461 72 26 108 255 
26.3006 13.2474 2.63339 69 5 89 255 
25.6102 12.8656 2.29588 72 24 106 255 
25.3356 12.8059 2.04982 71 19 101 255 
53.8896 27.1785 3.78666 69 4 87 255 
54.0187 27.1733 3.22192 69 5 89 255 
0 0 0 68 2 86 255 
0 0 0 69 4 87 255 
66.1297 33.3227 1.96496 70 7 90 255 
12.4596 6.26488 0.238558 62 74 137 255 
12.3899 6.21338 0.108863 64 70 136 255 
12.3292 6.2237 -0.00241047 65 66 135 255 
13.131 6.61097 -0.141127 72 28 110 255 
13.2708 6.66698 -0.279975 72 41 121 255 
13.2856 6.65679 -0.42027 72 33 115 255 
13.2336 6.67157 -0.538253 71 42 122 255 
13.3042 6.69231 -0.678871 71 44 122 255 
12.5333 6.29373 -0.77183 70 48 126 255 
11.4211 5.72008 -0.823784 72 40 120 255 
10.5519 5.3173 -0.857342 65 68 135 255 
9.73073 4.89054 -0.891541 66 63 133 255 
8.99706 4.51207 -0.919537 71 45 123 255 
8.29921 4.15652 -0.936274 69 56 130 255 
7.72649 3.88846 -0.942722 62 76 138 255 
7.26399 3.6492 -0.96358 57 85 140 255 
6.8907 3.45422 -0.987419 61 78 138 255 
6.4584 3.23177 -0.994409 58 83 139 255 
6.13485 3.08343 -1.00289 54 92 141 255 
5.82947 2.92599 -1.01441 57 86 140 255 
5.57409 2.793 -1.02879 52 97 141 255 
5.26699 2.63559 -1.03002 52 97 141 255 
5.04001 2.52875 -1.03492 55 91 141 255 
4.83922 2.42578 -1.04437 59 82 139 255 
4.62541 2.31765 -1.04975 62 74 137 255 
4.44981 2.22764 -1.06046 66 64 134 255 
4.28115 2.14521 -1.06247 60 79 138 255 
4.14542 2.07619 -1.07378 60 79 138 255 
3.97643 1.99073 -1.075 64 70 136 255 
3.84984 1.92897 -1.0864 66 63 133 255 
3.72534 1.86264 -1.08879 64 69 136 255 
3.6178 1.80878 -1.09742 65 66 135 255 
3.46881 1.73584 -1.09323 66 64 134 255 
3.35241 1.68119 -1.09881 68 59 132 255 
15.0916 7.50557 5.06314 71 45 123 255 
14.8671 7.40982 4.80402 71 46 124 255 
15.2134 7.58926 4.73726 71 46 124 255 
10.1271 5.05167 3.03877 70 52 128 255 
10.2768 5.11772 2.97978 69 55 129 255 
10.2821 5.12239 2.85986 61 78 138 255 
10.2217 5.0902 2.7267 53 94 141 255 
10.3783 5.1657 2.65511 72 36 117 255 
10.4467 5.20459 2.57467 69 56 130 255 
10.4245 5.19111 2.44773 63 72 137 255 
10.5607 5.25211 2.36321 72 28 110 255 
26.2401 13.0379 5.5894 71 19 101 255 
25.8982 12.9026 5.27913 71 14 97 255 
23.9392 11.9158 4.61414 72 40 120 255 
23.6439 11.7485 4.29509 71 13 96 255 
23.4598 11.631 4.01619 72 32 113 255 
23.0536 11.4804 3.73875 72 40 120 255 
25.2306 12.5531 3.81522 72 20 103 255 
24.1531 11.9857 3.39194 72 32 113 255 
26.1606 12.9587 3.40371 71 16 99 255 
26.066 12.9805 3.15822 72 26 108 255 
26.406 13.1206 2.91711 72 20 103 255 
25.9094 12.8516 2.58627 70 11 94 255 
25.6136 12.6711 2.28917 72 22 104 255 
34.649 17.2472 2.79472 70 10 93 255 
26.3081 13.0663 1.84292 71 16 99 255 
37.2814 18.4681 2.21683 70 7 90 255 
37.3372 18.4545 1.82572 70 10 93 255 
37.34 18.5705 1.50003 70 8 92 255 
37.3595 18.5388 1.10669 70 8 92 255 
12.4736 6.17633 0.238096 67 61 132 255 
12.4565 6.15141 0.109114 67 61 132 255 
12.4316 6.17998 -0.00242304 61 78 138 255 
14.0386 6.96024 -0.150419 72 32 113 255 
22.4979 11.1301 -0.47319 71 14 97 255 
12.0955 5.96788 -0.381455 72 36 117 255 
16.5047 8.19403 -0.669241 71 46 124 255 
13.9949 6.93248 -0.711931 72 40 120 255 
12.5923 6.22689 -0.773094 71 42 122 255 
11.4667 5.65519 -0.824556 71 46 124 255 
10.6031 5.26177 -0.858862 66 63 133 255 
9.76949 4.83516 -0.892357 68 58 131 255 
9.03797 4.4634 -0.920902 70 52 128 255 
8.33884 4.11256 -0.93788 68 59 132 255 
7.75109 3.84142 -0.94283 59 81 139 255 
7.29158 3.6072 -0.964286 58 84 140 255 
6.93223 3.42197 -0.990342 58 84 140 255 
6.48788 3.1969 -0.995909 59 82 139 255 
6.15277 3.04529 -1.00274 54 92 141 255 
5.84643 2.88973 -1.01426 60 79 138 255 
5.56989 2.74827 -1.02488 52 97 141 255 
5.28306 2.60322 -1.03002 51 98 141 255 
5.05366 2.49691 -1.03456 50 102 142 255 
4.84168 2.38996 -1.04172 62 73 137 255 
4.63427 2.28662 -1.04856 60 79 138 255 
4.45374 2.19554 -1.05817 63 72 137 255 
4.28898 2.1163 -1.06117 61 77 138 255 
4.15459 2.04899 -1.07288 61 78 138 255 
3.98683 1.96543 -1.07453 66 63 133 255 
3.83552 1.89244 -1.07907 66 64 134 255 
3.74104 1.84188 -1.09006 64 69 136 255 
3.6245 1.78441 -1.09611 66 64 134 255 
3.47421 1.71197 -1.0916 65 68 135 255 
3.39192 1.67504 -1.10837 63 72 137 255 
14.7744 7.23508 4.94173 71 46 124 255 
15.0907 7.40607 4.86153 67 61 132 255 
15.2009 7.46689 4.71901 69 53 129 255 
10.17 4.9954 3.0424 55 90 140 255 
10.2507 5.02644 2.9632 70 52 128 255 
10.3063 5.05579 2.85793 53 95 141 255 
10.3182 5.0595 2.74412 57 85 140 255 
10.4168 5.10536 2.6569 71 42 122 255 
10.5144 5.15803 2.5835 71 46 124 255 
10.5063 5.1516 2.45946 50 100 142 255 
10.6138 5.19756 2.36793 68 57 131 255 
26.579 13.0036 5.64449 70 11 94 255 
26.1889 12.8475 5.32221 71 13 96 255 
24.0729 11.7986 4.62587 72 28 110 255 
23.7324 11.6114 4.29815 72 35 116 255 
23.298 11.3732 3.97647 72 41 121 255 
23.775 11.6581 3.84405 72 20 103 255 
24.1974 11.8544 3.64792 72 35 116 255 
24.6559 12.0472 3.4521 71 14 97 255 
26.4476 12.8994 3.43069 70 10 93 255 
26.2121 12.8532 3.16631 70 11 94 255 
36.4877 17.8518 4.01869 69 5 89 255 
24.792 12.1084 2.46728 72 20 103 255 
25.0134 12.1837 2.2288 71 19 101 255 
25.0896 12.2973 2.01756 70 11 94 255 
26.0857 12.7569 1.82182 72 23 105 255 
37.4048 18.2443 2.21747 69 5 89 255 
51.9252 25.2696 2.53141 69 4 87 255 
0 0 0 69 4 87 255 
0 0 0 69 4 87 255 
12.5319 6.10976 0.23849 68 58 131 255 
12.5677 6.11072 0.109758 71 46 124 255 
12.5259 6.13128 -0.00243404 61 78 138 255 
12.4887 6.09664 -0.133409 71 14 97 255 
19.7182 9.60482 -0.413478 69 5 89 255 
12.1795 5.9167 -0.382953 68 57 131 255 
14.0543 6.87031 -0.56816 72 22 104 255 
14.0344 6.84516 -0.711794 71 46 124 255 
12.3465 6.01138 -0.75573 68 58 131 255 
11.5039 5.58603 -0.82475 71 45 123 255 
10.6029 5.18084 -0.856256 66 63 133 255 
9.80883 4.77993 -0.893254 67 62 133 255 
9.10459 4.42702 -0.924905 70 48 126 255 
8.3675 4.06306 -0.938282 68 58 131 255 
7.79238 3.8025 -0.944997 59 81 139 255 
7.33054 3.57065 -0.966523 58 84 140 255 
6.94952 3.37764 -0.989833 60 80 139 255 
6.50559 3.15616 -0.995636 57 85 140 255 
6.20425 3.02352 -1.00809 56 88 140 255 
5.86405 2.8538 -1.01426 57 85 140 255 
5.59375 2.71749 -1.02619 51 98 141 255 
5.30248 2.57248 -1.03071 52 97 141 255 
5.06889 2.46585 -1.03456 51 99 141 255 
4.85714 2.36064 -1.04191 60 79 138 255 
4.64116 2.25472 -1.04697 62 74 137 255 
4.48561 2.17714 -1.06254 65 66 135 255 
4.30891 2.09336 -1.06291 60 79 138 255 
4.16182 2.02091 -1.07152 61 77 138 255 
3.99619 1.93966 -1.07382 63 72 137 255 
3.8427 1.86675 -1.07784 66 65 134 255 
3.74791 1.81678 -1.08879 66 65 134 255 
3.63712 1.76298 -1.09664 66 65 134 255 
3.47859 1.68768 -1.0897 67 61 132 255 
3.40904 1.65755 -1.11062 67 62 133 255 
14.3802 6.933 4.79559 66 63 133 255 
10.0058 4.8346 3.21379 72 36 117 255 
14.4486 6.98763 4.47207 69 53 129 255 
10.2361 4.95014 3.05303 47 107 142 255 
15.3867 7.42814 4.43462 72 38 119 255 
10.3537 5.00047 2.86252 57 86 140 255 
10.5453 5.09081 2.79614 63 72 137 255 
10.6358 5.13199 2.70468 66 64 134 255 
10.4649 5.05435 2.56368 52 96 141 255 
10.5395 5.08789 2.45987 54 93 141 255 
10.7639 5.18939 2.39425 60 79 138 255 
10.7277 5.16713 2.27144 72 29 111 255 
26.8324 12.9595 5.43672 70 10 93 255 
24.1955 11.6751 4.63556 72 38 119 255 
23.7161 11.4236 4.28241 72 36 117 255 
23.8039 11.4399 4.05076 72 24 106 255 
24.2605 11.7121 3.91086 72 22 104 255 
23.4468 11.3088 3.52423 72 33 115 255 
23.6135 11.359 3.29633 71 14 97 255 
23.7237 11.3911 3.06823 71 16 99 255 
25.9064 12.5067 3.12005 70 10 93 255 
35.3055 17.0057 3.87692 69 5 89 255 
24.4036 11.7338 2.42141 72 24 106 255 
25.3753 12.1679 2.25435 71 17 100 255 
35.1922 16.982 2.82152 70 8 92 255 
25.4414 12.2489 1.77154 71 19 101 255 
25.9226 12.4475 1.53221 69 5 89 255 
0 0 0 68 2 86 255 
51.9709 25.0562 2.07527 70 7 90 255 
51.9868 25.0071 1.53078 70 8 92 255 
12.5908 6.04313 0.2389 71 19 101 255 
49.4296 23.6599 0.430409 69 5 89 255 
12.421 5.98572 -0.00240646 72 35 116 255 
12.4754 5.99564 -0.132872 70 7 90 255 
12.222 5.86087 -0.255528 70 50 126 255 
12.2111 5.8397 -0.382812 63 71 136 255 
16.4762 7.92934 -0.664087 72 23 105 255 
13.9924 6.71871 -0.707559 72 36 117 255 
12.457 5.9709 -0.760236 71 45 123 255 
11.538 5.51534 -0.82475 71 45 123 255 
10.6183 5.10791 -0.854954 68 59 132 255 
9.86583 4.73302 -0.895783 66 64 134 255 
9.13608 4.37322 -0.92536 68 58 131 255 
8.38598 4.00864 -0.937579 70 50 126 255 
7.8075 3.75074 -0.944022 64 69 136 255 
7.36485 3.53162 -0.968171 57 86 140 255 
6.96833 3.33408 -0.989579 58 83 139 255 
6.51679 3.11234 -0.994409 59 81 139 255 
6.21287 2.98068 -1.0065 56 89 140 255 
5.87432 2.81435 -1.01303 60 79 138 255 
5.60586 2.68099 -1.02537 52 96 141 255 
5.31728 2.53947 -1.03054 53 94 141 255 
5.08392 2.4347 -1.03456 52 97 141 255 
4.88393 2.33672 -1.04456 61 78 138 255 
4.65844 2.22789 -1.04777 63 72 137 255 
4.47241 2.13693 -1.05629 62 74 137 255 
4.33401 2.07278 -1.06594 62 73 137 255 
4.16448 1.99071 -1.06904 62 74 137 255 
4.02556 1.92348 -1.07852 64 69 136 255 
3.85845 1.84523 -1.07907 62 73 137 255 
3.75463 1.79167 -1.08753 64 69 136 255 
3.59212 1.71403 -1.07988 67 62 133 255 
3.49322 1.66838 -1.09106 67 62 133 255 
3.39664 1.62583 -1.10331 69 56 130 255 
14.5523 6.90622 4.83874 71 44 122 255 
10.0657 4.78755 3.22352 52 97 141 255 
10.4103 4.95602 3.21266 62 73 137 255 
10.4582 4.97857 3.11008 70 51 127 255 
10.2556 4.87369 2.94712 62 74 137 255 
10.315 4.90393 2.84343 58 83 139 255 
10.6088 5.04146 2.80474 53 95 141 255 
10.4558 4.96627 2.6511 72 33 115 255 
10.5266 5.00471 2.57122 49 103 142 255 
10.5722 5.02397 2.46028 67 61 132 255 
10.7494 5.10139 2.38404 58 84 140 255 
25.604 12.1395 5.40539 71 14 97 255 
23.3709 11.1113 4.72146 71 17 100 255 
24.0361 11.4169 4.59152 72 38 119 255 
23.8472 11.3071 4.29349 72 36 117 255 
23.5118 11.1224 3.98936 72 29 111 255 
23.8724 11.3447 3.83701 72 26 108 255 
23.1478 10.99 3.46909 72 40 120 255 
23.455 11.106 3.26463 71 17 100 255 
23.5201 11.1163 3.03302 72 29 111 255 
23.7486 11.2858 2.85178 70 11 94 255 
24.4787 11.6062 2.68014 71 13 96 255 
24.8325 11.753 2.45677 72 23 105 255 
25.042 11.8196 2.21826 72 23 105 255 
25.163 11.9526 2.01151 72 20 103 255 
26.0951 12.367 1.81174 71 16 99 255 
0 0 0 69 4 87 255 
0 0 0 68 1 84 255 
32.3334 15.3448 1.28734 69 5 89 255 
0 0 0 69 4 87 255 
32.1161 15.1728 0.607598 69 4 87 255 
49.7964 23.461 0.432342 69 4 87 255 
12.3219 5.8451 -0.00238028 66 63 133 255 
12.2742 5.80652 -0.130347 64 70 136 255 
12.2433 5.77894 -0.255227 71 16 99 255 
12.262 5.7719 -0.383292 64 70 136 255 
12.2744 5.8147 -0.493284 57 86 140 255 
12.256 5.79264 -0.617942 62 73 137 255 
12.768 6.02387 -0.776941 72 40 120 255 
11.5689 5.44317 -0.824556 72 35 116 255 
10.6639 5.04949 -0.856112 66 64 134 255 
9.92623 4.68729 -0.898639 61 78 138 255 
9.11589 4.29501 -0.920629 70 51 127 255 
8.38612 3.94567 -0.934869 68 59 132 255 
7.83397 3.70447 -0.944455 61 77 138 255 
7.38997 3.48806 -0.968642 56 88 140 255 
6.9743 3.2845 -0.987546 60 79 138 255 
6.54204 3.07525 -0.995363 59 81 139 255 
6.22389 2.93912 -1.00534 54 93 141 255 
5.89684 2.78079 -1.01395 61 78 138 255 
5.62399 2.64738 -1.0257 53 94 141 255 
5.34078 2.51057 -1.03209 56 89 140 255 
5.09877 2.40346 -1.03456 52 97 141 255 
4.90617 2.31048 -1.04627 62 73 137 255 
4.6933 2.20928 -1.05254 62 76 138 255 
4.49871 2.11569 -1.05942 64 69 136 255 
4.34046 2.04324 -1.06442 64 69 136 255 
4.19072 1.97176 -1.07265 62 74 137 255 
4.03552 1.89792 -1.07805 64 69 136 255 
3.86795 1.82069 -1.07858 66 63 133 255 
3.74803 1.76037 -1.08247 64 69 136 255 
3.6017 1.69155 -1.07962 67 62 133 255 
3.50601 1.64814 -1.09187 67 62 133 255 
3.37964 1.59228 -1.09459 69 55 129 255 
15.6548 7.31208 5.1903 70 52 128 255 
10.2114 4.78028 3.26075 58 84 140 255 
15.6969 7.35503 4.83014 71 45 123 255 
10.3967 4.87128 3.08285 70 48 126 255 
10.1933 4.76761 2.92074 53 94 141 255 
10.5875 4.95406 2.91011 60 79 138 255 
10.4968 4.90951 2.76711 60 80 139 255 
10.7775 5.03824 2.72477 72 36 117 255 
10.5925 4.95658 2.57984 69 56 130 255 
10.664 4.98761 2.47447 61 77 138 255 
23.7909 11.1122 5.26119 72 27 109 255 
23.6191 11.0214 4.97198 71 17 100 255 
27.3939 12.8185 5.51821 72 23 105 255 
24.0718 11.2533 4.58506 72 32 113 255 
23.6147 11.0199 4.23938 72 35 116 255 
23.2158 10.8086 3.9278 72 27 109 255 
23.6485 11.0609 3.79004 72 28 110 255 
22.932 10.7156 3.42683 72 38 119 255 
23.8806 11.1287 3.3143 72 23 105 255 
24.0346 11.1796 3.09046 70 11 94 255 
25.6148 11.9806 3.067 71 13 96 255 
24.5648 11.4629 2.68182 72 20 103 255 
24.5611 11.4406 2.42292 72 26 108 255 
26.0887 12.1184 2.30434 71 14 97 255 
36.175 16.9121 2.88345 70 7 90 255 
55.058 25.6806 3.81158 69 5 89 255 
0 0 0 68 2 86 255 
0 0 0 68 2 86 255 
0 0 0 68 1 84 255 
0 0 0 69 4 87 255 
51.4394 23.9169 0.970378 69 5 89 255 
49.9584 23.1639 0.432506 70 7 90 255 
