ply
format ascii 1.0
comment VTK generated PLY File
obj_info vtkPolyData points and polygons: vtk4.0
element vertex 1170
property float x
property float y
property float z
property uchar red
property uchar green
property uchar blue
property uchar alpha
element face 0
property list uchar int vertex_indices
end_header
-6.97041 2.17932 -1.27723 59 81 139 255 
-6.81296 2.1221 -1.30967 63 72 137 255 
-6.46123 2.01515 -1.3058 62 73 137 255 
-6.14272 1.91692 -1.30568 64 70 136 255 
-5.86629 1.83299 -1.30974 65 68 135 255 
-5.57112 1.73849 -1.29489 66 63 133 255 
-5.3443 1.66884 -1.2967 66 63 133 255 
-5.125 1.6013 -1.29799 67 62 133 255 
-4.89545 1.52777 -1.29385 68 57 131 255 
-4.73845 1.48318 -1.29795 69 55 129 255 
-4.52137 1.41533 -1.28543 69 56 130 255 
-4.35901 1.3628 -1.28719 66 65 134 255 
-4.20528 1.31077 -1.29057 68 58 131 255 
-17.4255 5.4951 5.48864 60 80 139 255 
-17.4356 5.48183 5.28576 57 85 140 255 
-17.4161 5.46887 5.08647 58 83 139 255 
-17.3882 5.46047 4.89372 60 80 139 255 
-17.4045 5.47849 4.73584 62 73 137 255 
-17.418 5.47965 4.54587 62 74 137 255 
-17.4264 5.48546 4.36249 62 76 138 255 
-17.3803 5.47465 4.17344 64 70 136 255 
-17.397 5.47278 4.02313 59 81 139 255 
-17.3997 5.47722 3.8341 59 81 139 255 
-17.3651 5.47616 3.64825 54 93 141 255 
-17.3852 5.48949 3.4778 59 82 139 255 
-17.3824 5.46818 3.32468 55 91 141 255 
-17.3781 5.47375 3.14382 54 93 141 255 
-17.3853 5.48921 2.96589 51 98 141 255 
-17.3347 5.49018 2.78894 58 84 140 255 
-17.3709 5.46788 2.64373 51 99 141 255 
-17.363 5.47232 2.46464 53 95 141 255 
-17.372 5.49501 2.29208 54 93 141 255 
-17.3389 5.49816 2.12072 60 80 139 255 
-17.333 5.45597 1.97084 60 79 138 255 
-17.3242 5.47009 1.79733 58 84 140 255 
-17.3121 5.47938 1.6238 61 78 138 255 
-17.2952 5.49423 1.45369 62 74 137 255 
-17.3608 5.46806 1.31429 56 89 140 255 
-17.3518 5.48212 1.14168 61 77 138 255 
-17.3128 5.48956 0.967736 65 68 135 255 
-17.2996 5.50229 0.795776 69 53 129 255 
-17.3205 5.46197 0.653247 67 61 132 255 
-17.3197 5.47864 0.482029 68 59 132 255 
-17.309 5.4917 0.310632 68 59 132 255 
-11.27 3.58885 0.0928959 61 77 138 255 
-11.2483 3.54929 -0.00205862 53 94 141 255 
-11.3079 3.58129 -0.113865 54 93 141 255 
-11.3395 3.60209 -0.224296 66 64 134 255 
-11.3084 3.60542 -0.335685 71 47 125 255 
-9.25613 2.926 -0.352568 70 52 128 255 
-8.80152 2.79089 -0.420902 68 59 132 255 
-8.74595 2.7799 -0.505047 68 58 131 255 
-8.72096 2.78214 -0.590357 67 61 132 255 
-8.82949 2.79282 -0.671935 68 58 131 255 
-8.83066 2.80352 -0.758466 66 63 133 255 
-8.2052 2.61275 -0.786706 67 61 132 255 
-7.29398 2.32691 -0.772283 64 70 136 255 
-6.9815 2.21231 -0.798188 57 85 140 255 
-6.98852 2.22003 -0.869176 58 83 139 255 
-6.98699 2.22619 -0.939389 59 82 139 255 
-6.98138 2.22987 -1.00914 62 76 138 255 
-6.99133 2.21945 -1.07139 58 84 140 255 
-6.9851 2.22162 -1.13997 56 89 140 255 
-6.97134 2.22254 -1.20739 57 85 140 255 
-6.94752 2.21905 -1.27551 63 71 136 255 
-6.79981 2.16387 -1.30967 62 73 137 255 
-6.45062 2.05535 -1.30618 62 73 137 255 
-6.12617 1.95309 -1.30469 61 78 138 255 
-5.84096 1.86449 -1.30661 65 66 135 255 
-5.55291 1.77027 -1.29316 68 58 131 255 
-5.34974 1.70664 -1.30054 65 68 135 255 
-5.10119 1.62828 -1.29446 67 61 132 255 
-4.87582 1.55454 -1.29116 69 53 129 255 
-4.70069 1.50309 -1.29011 68 58 131 255 
-4.48778 1.43511 -1.27836 69 55 129 255 
-4.3689 1.39537 -1.29261 66 64 134 255 
-4.19167 1.33481 -1.28888 69 53 129 255 
-17.4061 5.60662 5.49325 61 78 138 255 
-17.4336 5.59899 5.29548 59 81 139 255 
-17.4318 5.59152 5.10097 58 83 139 255 
-17.3911 5.57886 4.90409 59 81 139 255 
-17.4019 5.59525 4.74438 62 73 137 255 
-17.4136 5.59593 4.5536 63 71 136 255 
-17.4156 5.59973 4.36829 61 78 138 255 
-17.3733 5.58985 4.17991 65 66 135 255 
-17.3919 5.58869 4.02981 60 80 139 255 
-17.3863 5.59047 3.83862 59 81 139 255 
-17.376 5.59703 3.65768 57 85 140 255 
-17.3708 5.60239 3.48173 58 83 139 255 
-17.3616 5.57895 3.32719 55 90 140 255 
-17.3545 5.5836 3.14569 53 94 141 255 
-17.3607 5.59881 2.9675 54 92 141 255 
-17.3703 5.61895 2.80016 54 92 141 255 
-17.3586 5.58133 2.64703 54 92 141 255 
-17.3498 5.58544 2.46759 52 96 141 255 
-17.3427 5.60303 2.2927 55 90 140 255 
-17.3379 5.61516 2.12477 60 79 138 255 
-17.3437 5.57652 1.97591 61 78 138 255 
-17.3027 5.58025 1.79861 57 86 140 255 
-17.3265 5.60113 1.62834 58 83 139 255 
-17.3 5.61286 1.45696 60 79 138 255 
-17.3251 5.57387 1.31414 59 82 139 255 
-17.3264 5.59125 1.14225 61 77 138 255 
-14.0715 4.55703 0.788108 58 84 140 255 
-17.2798 5.61296 0.796433 68 58 131 255 
-17.2885 5.56876 0.653319 66 63 133 255 
-17.2925 5.58696 0.482214 67 61 132 255 
-17.2874 5.60181 0.310854 70 50 126 255 
-17.2606 5.61338 0.142556 72 35 116 255 
-11.253 3.62683 -0.0020635 69 55 129 255 
-15.7992 5.11061 -0.159404 71 45 123 255 
-14.1522 4.59135 -0.280484 71 44 122 255 
-12.6396 4.11543 -0.375942 72 37 118 255 
-9.14956 2.95418 -0.349193 69 55 129 255 
-8.51243 2.75681 -0.407878 66 65 134 255 
-8.50175 2.75983 -0.491914 68 59 132 255 
-8.46461 2.7577 -0.574139 68 59 132 255 
-8.54644 2.76109 -0.651672 66 65 134 255 
-8.54025 2.76912 -0.734968 64 69 136 255 
-8.16628 2.65566 -0.784522 65 66 135 255 
-7.27105 2.36885 -0.77138 61 77 138 255 
-6.96401 2.25388 -0.797754 56 88 140 255 
-6.96816 2.26072 -0.868352 55 90 140 255 
-6.96943 2.26779 -0.93888 56 89 140 255 
-6.95815 2.26959 -1.00778 55 91 141 255 
-6.96817 2.25925 -1.06995 53 95 141 255 
-6.97227 2.26475 -1.14012 51 99 141 255 
-6.95288 2.26375 -1.20658 51 98 141 255 
-6.95063 2.26714 -1.27861 58 83 139 255 
-6.77706 2.20251 -1.30786 60 79 138 255 
-6.42948 2.09216 -1.30447 57 86 140 255 
-6.115 1.99095 -1.30489 59 82 139 255 
-5.81546 1.89575 -1.30348 66 64 134 255 
-5.56422 1.81156 -1.29836 63 71 136 255 
-5.32805 1.73581 -1.29783 66 63 133 255 
-5.07632 1.65473 -1.2907 68 59 132 255 
-4.84959 1.57902 -1.28676 69 55 129 255 
-4.67851 1.5277 -1.28657 66 63 133 255 
-4.48898 1.46592 -1.28124 69 53 129 255 
-4.35111 1.41917 -1.2899 66 63 133 255 
-4.16698 1.35516 -1.28382 72 41 121 255 
-17.3886 5.719 5.49871 61 77 138 255 
-17.4117 5.71004 5.29937 57 85 140 255 
-17.4072 5.70167 5.10392 58 84 140 255 
-17.3906 5.69659 4.91369 56 88 140 255 
-17.3875 5.70856 4.74991 61 78 138 255 
-17.3771 5.70206 4.55312 64 70 136 255 
-17.392 5.71012 4.37108 63 71 136 255 
-17.3832 5.71095 4.19063 64 70 136 255 
-17.3731 5.70047 4.03347 59 82 139 255 
-17.3591 5.69949 3.84027 57 86 140 255 
-17.346 5.70508 3.65867 56 88 140 255 
-17.3491 5.71317 3.48436 58 83 139 255 
-17.3336 5.68752 3.32844 54 93 141 255 
-17.3442 5.69797 3.15012 52 96 141 255 
-17.3439 5.71109 2.97055 54 93 141 255 
-17.3599 5.73348 2.8041 55 91 141 255 
-17.3382 5.69237 2.64919 50 100 142 255 
-17.3369 5.69891 2.47067 50 100 142 255 
-17.3052 5.7084 2.29233 55 91 141 255 
-17.3267 5.72923 2.12767 60 80 139 255 
-17.3195 5.68625 1.97709 61 77 138 255 
-17.305 5.69846 1.80245 58 84 140 255 
-17.3202 5.7167 1.63102 59 82 139 255 
-17.3078 5.73301 1.46055 62 73 137 255 
-17.3067 5.68536 1.31537 56 88 140 255 
-17.3098 5.70339 1.14344 61 77 138 255 
-14.0774 4.65457 0.790024 51 99 141 255 
-17.264 5.72517 0.797309 68 58 131 255 
-17.255 5.67504 0.653355 66 65 134 255 
-17.2541 5.69171 0.482108 71 45 123 255 
-8.13795 2.69231 0.146627 57 85 140 255 
-8.1142 2.69401 0.0671509 55 91 141 255 
-16.7199 5.50229 -0.00307213 72 40 120 255 
-15.1067 4.9892 -0.152723 72 26 108 255 
-13.8049 4.57247 -0.274151 72 35 116 255 
-12.3314 4.09895 -0.367517 72 38 119 255 
-9.02117 2.97397 -0.344983 68 57 131 255 
-8.2535 2.72902 -0.396266 63 71 136 255 
-8.20979 2.72085 -0.475978 67 61 132 255 
-8.20512 2.72896 -0.557663 68 58 131 255 
-8.28592 2.73319 -0.633074 67 61 132 255 
-8.25344 2.7322 -0.711715 70 50 126 255 
-8.1073 2.6916 -0.780428 65 68 135 255 
-7.23844 2.40745 -0.769473 66 65 134 255 
-6.95005 2.29657 -0.797754 53 94 141 255 
-6.95321 2.30312 -0.868234 53 95 141 255 
-6.93468 2.30363 -0.936085 59 82 139 255 
-6.92342 2.30536 -1.00478 57 86 140 255 
-6.94478 2.29886 -1.0685 51 99 141 255 
-6.962 2.30873 -1.14073 50 102 142 255 
-6.92013 2.30014 -1.20332 50 100 142 255 
-6.92257 2.30508 -1.27603 58 84 140 255 
-6.75128 2.24002 -1.30551 60 80 139 255 
-6.40814 2.12878 -1.30277 59 82 139 255 
-6.10267 2.02843 -1.30489 58 84 140 255 
-5.79165 1.92738 -1.30077 66 65 134 255 
-5.54188 1.84197 -1.29576 64 69 136 255 
-5.25444 1.74756 -1.28249 68 59 132 255 
-5.04301 1.67817 -1.28483 68 57 131 255 
-4.83705 1.60783 -1.28602 69 55 129 255 
-4.66813 1.55608 -1.28632 67 62 133 255 
-4.48906 1.49649 -1.28386 69 56 130 255 
-4.31492 1.43672 -1.28176 68 59 132 255 
-4.16314 1.38221 -1.28522 72 40 120 255 
-17.4068 5.84357 5.51569 57 85 140 255 
-17.3873 5.82043 5.30271 59 81 139 255 
-17.3847 5.81265 5.10768 56 89 140 255 
-17.3855 5.8133 4.92224 60 79 138 255 
-17.365 5.81945 4.75342 59 81 139 255 
-17.375 5.81968 4.56182 62 76 138 255 
-17.3649 5.81951 4.37317 61 77 138 255 
-17.3653 5.82339 4.19487 64 70 136 255 
-17.3804 5.82123 4.04338 58 84 140 255 
-17.3637 5.81927 3.84911 59 82 139 255 
-17.3413 5.8217 3.66515 57 86 140 255 
-17.3519 5.83235 3.49204 58 83 139 255 
-17.3413 5.80814 3.3367 53 95 141 255 
-17.3398 5.81463 3.15573 51 98 141 255 
-17.3132 5.81898 2.97135 58 84 140 255 
-17.3216 5.83895 2.80365 51 99 141 255 
-17.3132 5.8021 2.65077 50 101 142 255 
-17.3288 5.81432 2.47457 50 100 142 255 
-17.2839 5.81923 2.2942 56 88 140 255 
-17.3044 5.83989 2.12929 61 78 138 255 
-17.3041 5.79905 1.97936 60 79 138 255 
-17.2999 5.81468 1.8056 54 93 141 255 
-17.3027 5.82891 1.63271 60 79 138 255 
-17.2874 5.84421 1.46183 60 80 139 255 
-17.2913 5.7981 1.31688 60 80 139 255 
-17.3028 5.81903 1.14532 63 72 137 255 
-17.2864 5.83348 0.972099 67 62 133 255 
-17.221 5.82843 0.796959 72 38 119 255 
-17.2397 5.78749 0.65411 69 56 130 255 
-8.05566 2.71229 0.22555 66 63 133 255 
-8.06918 2.72461 0.145687 56 88 140 255 
-8.0568 2.72995 0.0668131 46 110 142 255 
-8.16849 2.7438 -0.00150395 47 107 142 255 
-8.14246 2.74468 -0.0824856 50 102 142 255 
-8.14848 2.75455 -0.162153 63 72 137 255 
-11.9302 4.04705 -0.356294 71 42 122 255 
-8.83795 2.97382 -0.338667 65 68 135 255 
-8.02174 2.70711 -0.385929 62 74 137 255 
-7.98675 2.70143 -0.463999 66 65 134 255 
-7.97182 2.70581 -0.542925 65 66 135 255 
-8.0875 2.72287 -0.619179 68 59 132 255 
-8.08922 2.73302 -0.698987 68 58 131 255 
-8.01141 2.71445 -0.772786 66 64 134 255 
-7.19338 2.44159 -0.766262 66 64 134 255 
-6.93771 2.3398 -0.797971 48 106 142 255 
-6.93613 2.34479 -0.867881 47 107 142 255 
-6.91196 2.34327 -0.934941 50 100 142 255 
-6.90539 2.34652 -1.00423 53 94 141 255 
-6.92773 2.34047 -1.06807 52 97 141 255 
-6.93928 2.34855 -1.13935 49 103 142 255 
-6.91523 2.34573 -1.20495 50 102 142 255 
-6.89991 2.34466 -1.27448 57 86 140 255 
-6.74486 2.28393 -1.30696 62 73 137 255 
-6.39216 2.16712 -1.3022 56 88 140 255 
-6.06969 2.05891 -1.30051 57 85 140 255 
-5.76398 1.95754 -1.29723 67 62 133 255 
-5.52955 1.87563 -1.29554 63 71 136 255 
-5.27775 1.79135 -1.29084 64 70 136 255 
-5.02526 1.70658 -1.28295 68 59 132 255 
-4.83077 1.63873 -1.287 68 57 131 255 
-4.6649 1.58687 -1.28809 66 64 134 255 
-4.46883 1.52027 -1.28072 70 52 128 255 
-4.32243 1.46874 -1.28665 67 61 132 255 
-4.16185 1.4102 -1.28747 70 51 127 255 
-17.3751 5.95182 5.51712 58 83 139 255 
-17.3776 5.93601 5.31076 55 91 141 255 
-17.3761 5.92854 5.11573 57 85 140 255 
-17.3696 5.92673 4.92795 57 85 140 255 
-17.3619 5.93716 4.76247 61 78 138 255 
-17.361 5.93371 4.56761 62 73 137 255 
-17.3565 5.93539 4.38014 61 78 138 255 
-17.345 5.93519 4.19867 63 71 136 255 
-17.3452 5.92808 4.04359 59 82 139 255 
-17.3489 5.93298 3.85384 59 82 139 255 
-17.309 5.92927 3.66594 57 86 140 255 
-17.327 5.94253 3.49429 60 79 138 255 
-17.3174 5.91857 3.33903 56 88 140 255 
-17.3215 5.92697 3.15896 54 92 141 255 
-17.2958 5.9315 2.97456 53 94 141 255 
-17.2995 5.94994 2.80592 56 89 140 255 
-17.3082 5.91879 2.65551 53 94 141 255 
-17.3116 5.92696 2.47725 51 98 141 255 
-17.3005 5.94322 2.30119 54 92 141 255 
-17.2983 5.9563 2.13299 57 85 140 255 
-17.303 5.91702 1.98335 57 85 140 255 
-17.2874 5.92879 1.80806 55 90 140 255 
-17.2713 5.93659 1.63315 57 85 140 255 
-17.2729 5.95765 1.46367 61 78 138 255 
-17.2658 5.90764 1.31767 60 80 139 255 
-14.0374 4.81691 0.931105 47 108 142 255 
-17.2569 5.94172 0.972472 67 61 132 255 
-11.5208 3.97817 0.534284 62 74 137 255 
-11.5616 3.9604 0.439584 67 61 132 255 
-7.99821 2.7477 0.224409 58 83 139 255 
-8.01449 2.76104 0.145003 50 101 142 255 
-8.01532 2.77084 0.0666089 44 114 142 255 
-8.06353 2.76372 -0.00148772 43 116 142 255 
-8.0848 2.78061 -0.0820728 42 119 142 255 
-8.08889 2.78983 -0.161305 46 111 142 255 
-8.1172 2.80923 -0.242929 59 82 139 255 
-8.68343 2.98126 -0.333441 65 68 135 255 
-7.8019 2.68635 -0.376138 61 78 138 255 
-7.80579 2.69371 -0.454438 60 80 139 255 
-7.7759 2.69263 -0.530697 61 78 138 255 
-7.8037 2.68074 -0.598699 63 71 136 255 
-7.78774 2.68452 -0.674346 65 66 135 255 
-7.78942 2.69262 -0.752952 62 73 137 255 
-7.1745 2.48438 -0.76586 66 63 133 255 
-6.911 2.37812 -0.796563 51 99 141 255 
-6.91786 2.38601 -0.86741 50 101 142 255 
-6.89557 2.38499 -0.934687 51 99 141 255 
-6.88244 2.38593 -1.003 55 90 140 255 
-6.9095 2.38165 -1.06749 46 109 142 255 
-6.90792 2.38528 -1.13659 50 102 142 255 
-6.89884 2.38747 -1.20463 47 107 142 255 
-6.86677 2.3805 -1.27103 57 86 140 255 
-6.72886 2.32463 -1.3066 64 69 136 255 
-6.37596 2.20533 -1.30163 57 85 140 255 
-6.04305 2.09131 -1.29753 60 79 138 255 
-5.72136 1.9823 -1.29035 68 59 132 255 
-5.51886 1.90984 -1.29576 61 77 138 255 
-5.28691 1.83072 -1.2958 64 70 136 255 
-5.00918 1.73548 -1.28154 69 53 129 255 
-4.83803 1.67436 -1.29165 68 58 131 255 
-4.65508 1.61546 -1.28809 66 65 134 255 
-4.43571 1.53944 -1.27391 70 51 127 255 
-4.27423 1.48168 -1.27498 68 57 131 255 
-4.12228 1.42504 -1.27791 68 59 132 255 
-17.3744 6.07095 5.52863 62 76 138 255 
-17.3445 6.04379 5.31187 60 79 138 255 
-17.3639 6.0436 5.12298 59 82 139 255 
-17.3448 6.03732 4.93132 60 80 139 255 
-17.3489 6.05187 4.769 61 78 138 255 
-17.338 6.04491 4.57124 61 77 138 255 
-17.3454 6.05075 4.38664 62 76 138 255 
-17.3561 6.05821 4.21027 65 68 135 255 
-17.3196 6.03825 4.04618 60 79 138 255 
-17.3233 6.04319 3.85631 57 85 140 255 
-17.313 6.04959 3.67458 55 90 140 255 
-17.3041 6.0536 3.4971 58 83 139 255 
-17.3226 6.03929 3.34711 55 90 140 255 
-17.3146 6.04354 3.1644 53 94 141 255 
-17.2936 6.04958 2.98051 54 92 141 255 
-17.3111 6.07299 2.8138 54 92 141 255 
-17.2959 6.03336 2.65925 52 97 141 255 
-17.2973 6.04091 2.48047 51 99 141 255 
-17.2899 6.05845 2.30469 55 91 141 255 
-17.2868 6.07122 2.13612 59 82 139 255 
-17.2833 6.02897 1.98529 58 83 139 255 
-17.2723 6.04231 1.81032 55 90 140 255 
-17.2534 6.04904 1.63493 60 80 139 255 
-17.2501 6.06848 1.46487 70 48 126 255 
-11.5677 4.03747 0.88469 66 63 133 255 
-13.9962 4.899 0.930353 63 71 136 255 
-8.17522 2.87104 0.461681 50 100 142 255 
-8.12082 2.86003 0.377415 64 69 136 255 
-11.4918 4.01545 0.437859 55 91 141 255 
-7.96233 2.79012 0.223879 55 91 141 255 
-7.94458 2.7916 0.144045 50 100 142 255 
-7.97742 2.81266 0.0664361 41 123 142 255 
-8.02942 2.8072 -0.00148458 40 124 142 255 
-8.01758 2.81262 -0.0815641 41 122 142 255 
-8.02447 2.82282 -0.160363 41 121 142 255 
-8.06587 2.847 -0.241911 57 86 140 255 
-8.07926 2.82937 -0.310902 51 99 141 255 
-7.75888 2.7249 -0.374863 59 82 139 255 
-7.74014 2.72432 -0.451581 57 86 140 255 
-7.73665 2.73231 -0.529153 49 104 142 255 
-7.74286 2.71308 -0.595298 55 91 141 255 
-7.71753 2.71341 -0.669696 62 74 137 255 
-7.75209 2.73308 -0.750951 60 79 138 255 
-7.12254 2.51543 -0.761946 65 66 135 255 
-6.88784 2.41752 -0.795587 50 102 142 255 
-6.87404 2.4182 -0.863761 51 98 141 255 
-6.86865 2.42297 -0.933035 53 94 141 255 
-6.86954 2.42877 -1.00328 54 92 141 255 
-6.88449 2.42039 -1.0659 48 106 142 255 
-6.87545 2.42139 -1.13367 50 100 142 255 
-6.86732 2.42384 -1.2017 53 94 141 255 
-6.83068 2.41504 -1.26707 61 78 138 255 
-6.70797 2.36359 -1.30533 62 76 138 255 
-6.35398 2.24148 -1.29992 55 90 140 255 
-6.02271 2.12574 -1.29594 59 81 139 255 
-5.71093 2.01802 -1.29077 65 66 135 255 
-5.52085 1.94854 -1.29901 61 78 138 255 
-5.27833 1.8641 -1.29648 64 70 136 255 
-4.98927 1.76294 -1.27919 69 55 129 255 
-4.83681 1.70724 -1.2941 69 56 130 255 
-4.63869 1.64174 -1.28632 69 55 129 255 
-4.42072 1.56469 -1.27234 70 51 127 255 
-4.27686 1.51205 -1.27851 68 58 131 255 
-4.11346 1.45031 -1.27791 68 59 132 255 
-17.3549 6.18388 5.53439 59 82 139 255 
-17.3605 6.16908 5.32827 60 80 139 255 
-17.3565 6.16066 5.13184 59 81 139 255 
-17.3474 6.15785 4.94273 58 83 139 255 
-17.3315 6.16535 4.77453 59 81 139 255 
-17.3362 6.16386 4.58066 61 77 138 255 
-17.3511 6.17239 4.39756 61 77 138 255 
-17.3287 6.16819 4.21273 65 66 135 255 
-17.3246 6.15946 4.05609 60 80 139 255 
-17.3145 6.15954 3.86269 60 80 139 255 
-17.3236 6.17282 3.6848 55 91 141 255 
-17.2888 6.16759 3.50159 60 80 139 255 
-17.2963 6.14942 3.34927 56 89 140 255 
-17.2994 6.15759 3.16848 55 91 141 255 
-17.31 6.17481 2.98982 55 91 141 255 
-17.2661 6.17644 2.81259 54 92 141 255 
-17.2753 6.14534 2.66183 53 95 141 255 
-17.2833 6.15524 2.48382 52 96 141 255 
-17.2748 6.17244 2.30768 53 95 141 255 
-17.2585 6.18052 2.13728 62 76 138 255 
-17.2619 6.14057 1.98712 60 79 138 255 
-17.2489 6.15319 1.8118 57 85 140 255 
-17.2581 6.16988 1.63894 60 80 139 255 
-11.4741 4.1158 0.976498 58 84 140 255 
-11.5071 4.09566 0.881953 57 86 140 255 
-8.15884 2.9121 0.54351 44 115 142 255 
-8.12925 2.91105 0.460084 48 105 142 255 
-8.09371 2.90643 0.376977 54 93 141 255 
-11.4528 4.08085 0.437319 55 91 141 255 
-7.93188 2.83421 0.223507 48 105 142 255 
-7.92824 2.84063 0.144062 50 101 142 255 
-7.93178 2.8514 0.0662005 43 117 142 255 
-7.9772 2.84399 -0.00147812 39 126 142 255 
-7.99452 2.85974 -0.0815065 39 126 142 255 
-7.99758 2.86863 -0.160174 41 123 142 255 
-8.01157 2.88324 -0.240809 58 83 139 255 
-8.03445 2.86914 -0.309849 48 106 142 255 
-7.70439 2.75899 -0.373042 57 86 140 255 
-7.71388 2.76838 -0.451031 57 86 140 255 
-7.70847 2.77568 -0.52838 59 82 139 255 
-7.71574 2.75684 -0.594502 59 82 139 255 
-7.69041 2.75701 -0.668798 58 84 140 255 
-7.67988 2.76072 -0.745583 62 74 137 255 
-7.09012 2.55302 -0.76014 66 63 133 255 
-6.86164 2.45572 -0.794287 54 93 141 255 
-6.85814 2.45999 -0.863644 54 92 141 255 
-6.84805 2.46305 -0.932273 54 92 141 255 
-6.85357 2.47054 -1.00314 51 98 141 255 
-6.8574 2.45825 -1.06402 47 107 142 255 
-6.85488 2.46152 -1.13274 47 108 142 255 
-6.84675 2.46393 -1.20072 50 101 142 255 
-6.82222 2.45924 -1.26827 59 81 139 255 
-6.67668 2.39872 -1.30208 61 78 138 255 
-6.33086 2.2771 -1.29803 57 85 140 255 
-6.00863 2.16232 -1.29574 58 83 139 255 
-5.70212 2.05435 -1.2916 66 64 134 255 
-5.48674 1.97445 -1.29381 59 81 139 255 
-5.26038 1.89414 -1.2949 64 70 136 255 
-4.98568 1.79616 -1.28107 69 56 130 255 
-4.82077 1.73492 -1.29263 67 61 132 255 
-4.61852 1.66656 -1.28354 69 53 129 255 
-4.40831 1.5908 -1.27155 70 50 126 255 
-4.29013 1.54642 -1.28529 66 64 134 255 
-4.1081 1.47682 -1.27904 65 66 135 255 
-17.331 6.29548 5.53899 61 77 138 255 
-17.3377 6.28105 5.33299 59 82 139 255 
-17.3401 6.27491 5.13828 58 83 139 255 
-17.3311 6.27206 4.94895 56 88 140 255 
-17.307 6.27652 4.7783 58 83 139 255 
-17.3236 6.27938 4.58742 62 74 137 255 
-17.3293 6.2847 4.40174 62 74 137 255 
-17.3189 6.28471 4.21965 65 66 135 255 
-17.3057 6.27263 4.06061 62 73 137 255 
-17.3067 6.27667 3.86947 58 83 139 255 
-17.3047 6.28603 3.68892 55 90 140 255 
-17.2885 6.28732 3.50928 57 86 140 255 
-17.2684 6.25912 3.35124 54 92 141 255 
-17.2725 6.26766 3.17052 56 89 140 255 
-17.2941 6.289 2.99367 54 93 141 255 
-17.2483 6.28971 2.81593 57 86 140 255 
-17.2661 6.26168 2.66629 52 96 141 255 
-17.2545 6.26455 2.48516 51 99 141 255 
-17.2562 6.28545 2.3103 52 97 141 255 
-17.2688 6.30401 2.1433 59 82 139 255 
-17.2613 6.25993 1.99144 57 85 140 255 
-17.2249 6.26401 1.81328 57 86 140 255 
-17.2649 6.29203 1.64322 60 79 138 255 
-11.4074 4.17107 0.972984 58 83 139 255 
-11.447 4.1536 0.879288 55 90 140 255 
-8.10706 2.94982 0.541256 44 114 142 255 
-8.0906 2.95334 0.458914 47 108 142 255 
-8.12733 2.97493 0.379385 48 105 142 255 
-8.10618 2.94456 0.310214 62 74 137 255 
-7.89932 2.87735 0.223083 46 111 142 255 
-7.89751 2.88442 0.143822 48 105 142 255 
-7.91038 2.89864 0.0661691 41 122 142 255 
-7.95866 2.89254 -0.00147794 39 128 142 255 
-7.95521 2.90086 -0.0812857 40 125 142 255 
-7.97795 2.91696 -0.160136 42 118 142 255 
-7.98247 2.92821 -0.240469 59 82 139 255 
-7.9904 2.90881 -0.308833 50 102 142 255 
-7.71359 2.8158 -0.374317 58 84 140 255 
-7.69768 2.81601 -0.451086 59 81 139 255 
-7.68286 2.81983 -0.527801 60 80 139 255 
-7.67993 2.79731 -0.593055 63 72 137 255 
-7.67054 2.80312 -0.668553 59 81 139 255 
-7.65812 2.80608 -0.745128 66 63 133 255 
-7.06685 2.59373 -0.759337 65 66 135 255 
-6.84644 2.49777 -0.794287 54 92 141 255 
-6.85131 2.5051 -0.864703 53 95 141 255 
-6.82163 2.50093 -0.930748 57 85 140 255 
-6.81783 2.50503 -1.00014 53 94 141 255 
-6.84405 2.50095 -1.06431 54 93 141 255 
-6.8545 2.50897 -1.1352 47 107 142 255 
-6.83891 2.50861 -1.20202 48 105 142 255 
-6.80608 2.50071 -1.2681 56 89 140 255 
-6.64983 2.43524 -1.29974 57 85 140 255 
-6.30663 2.31218 -1.29595 55 91 141 255 
-5.98053 2.19375 -1.29256 58 83 139 255 
-5.67748 2.08492 -1.28889 64 70 136 255 
-5.44428 1.99698 -1.28666 61 77 138 255 
-5.2386 1.92269 -1.29242 66 65 134 255 
-4.97456 1.82671 -1.28107 66 63 133 255 
-4.80457 1.76246 -1.29116 68 57 131 255 
-4.57734 1.68351 -1.27494 70 51 127 255 
-4.39847 1.61782 -1.27155 70 48 126 255 
-4.27424 1.57039 -1.28339 68 58 131 255 
-4.09085 1.49903 -1.27651 68 59 132 255 
-17.3226 6.41301 5.54877 59 81 139 255 
-17.3348 6.40062 5.3441 58 83 139 255 
-17.3202 6.38819 5.14391 56 88 140 255 
-17.3249 6.39032 4.95829 60 79 138 255 
-17.3172 6.40072 4.79186 61 78 138 255 
-17.2948 6.38925 4.59008 63 72 137 255 
-17.2977 6.39361 4.4036 62 73 137 255 
-17.2892 6.39424 4.22188 65 68 135 255 
-17.2889 6.38682 4.06578 61 77 138 255 
-17.2908 6.39123 3.87462 58 83 139 255 
-17.2851 6.39924 3.69305 57 86 140 255 
-17.2745 6.4025 3.51434 59 81 139 255 
-17.2731 6.38098 3.35968 56 88 140 255 
-17.2595 6.38309 3.17528 55 90 140 255 
-17.2672 6.39945 2.99576 55 90 140 255 
-17.239 6.40645 2.82078 58 84 140 255 
-17.2729 6.38432 2.67332 50 101 142 255 
-17.2492 6.38269 2.48999 54 93 141 255 
-17.2303 6.39605 2.31205 54 93 141 255 
-17.2512 6.41782 2.14596 60 79 138 255 
-17.2542 6.37744 1.9951 58 83 139 255 
-17.2337 6.38722 1.8183 57 86 140 255 
-17.2409 6.40339 1.64464 61 77 138 255 
-11.3863 4.24273 0.973383 57 86 140 255 
-11.397 4.21477 0.877416 59 81 139 255 
-8.05418 2.98667 0.538939 46 111 142 255 
-8.05267 2.99562 0.457797 49 104 142 255 
-8.04808 3.00204 0.376539 50 100 142 255 
-8.08703 2.9939 0.310178 49 104 142 255 
-7.88245 2.92611 0.223109 50 101 142 255 
-7.88435 2.93457 0.143908 47 108 142 255 
-7.88964 2.94607 0.0661456 41 121 142 255 
-7.95107 2.94514 -0.00147986 38 130 142 255 
-7.9382 2.94996 -0.0812953 37 133 142 255 
-7.9674 2.96865 -0.160287 41 123 142 255 
-7.9606 2.97574 -0.240356 61 78 138 255 
-7.96303 2.95431 -0.30847 50 101 142 255 
-7.68494 2.8589 -0.373771 60 79 138 255 
-7.66248 2.85656 -0.450042 53 94 141 255 
-7.66168 2.86552 -0.527544 54 92 141 255 
-7.65982 2.84334 -0.592837 63 71 136 255 
-7.63545 2.84352 -0.667003 59 82 139 255 
-7.63423 2.85058 -0.744491 66 65 134 255 
-7.04893 2.63635 -0.759136 67 61 132 255 
-6.82353 2.53696 -0.79342 55 91 141 255 
-6.82744 2.54397 -0.863644 49 103 142 255 
-6.80523 2.54239 -0.930621 52 97 141 255 
-6.80047 2.54612 -0.999865 48 106 142 255 
-6.82579 2.54187 -1.06388 47 107 142 255 
-6.83897 2.55098 -1.1352 46 109 142 255 
-6.81507 2.54742 -1.20056 47 107 142 255 
-6.7906 2.54243 -1.2681 51 99 141 255 
-6.62739 2.47325 -1.29829 55 90 140 255 
-6.26197 2.33949 -1.2897 60 80 139 255 
-5.94768 2.2232 -1.28838 59 81 139 255 
-5.65633 2.11663 -1.28702 65 66 135 255 
-5.42095 2.02625 -1.28406 62 74 137 255 
-5.18199 1.93807 -1.28136 66 63 133 255 
-4.96235 1.85686 -1.28083 68 59 132 255 
-4.77823 1.78614 -1.287 69 53 129 255 
-4.56511 1.71089 -1.27443 69 55 129 255 
-4.41015 1.65291 -1.27784 70 48 126 255 
-4.26182 1.59558 -1.28258 68 57 131 255 
-4.07977 1.52343 -1.27595 66 63 133 255 
-17.3304 6.53709 5.56402 61 77 138 255 
-17.3078 6.5116 5.34799 59 81 139 255 
-17.3393 6.51637 5.16136 59 82 139 255 
-17.299 6.5016 4.96218 59 82 139 255 
-17.3021 6.51607 4.79864 60 79 138 255 
-17.2716 6.50141 4.59443 64 69 136 255 
-17.2791 6.50751 4.40894 60 79 138 255 
-17.266 6.50639 4.2259 63 71 136 255 
-17.2805 6.50448 4.07311 60 80 139 255 
-17.2732 6.50548 3.87955 59 81 139 255 
-17.2602 6.51072 3.69619 57 86 140 255 
-17.2505 6.51427 3.51752 58 84 140 255 
-17.2695 6.50036 3.36668 55 91 141 255 
-17.2274 6.49166 3.17664 54 92 141 255 
-17.2581 6.51679 3.00106 52 97 141 255 
-17.2438 6.5289 2.82806 55 90 140 255 
-17.2537 6.49786 2.67649 53 95 141 255 
-17.2375 6.4989 2.49402 52 96 141 255 
-17.2241 6.51428 2.31654 54 92 141 255 
-17.2236 6.52813 2.14747 61 77 138 255 
-17.2315 6.4895 1.99704 59 81 139 255 
-17.2165 6.50128 1.82066 60 80 139 255 
-17.2246 6.51787 1.64687 61 78 138 255 
-11.3731 4.31746 0.974501 56 89 140 255 
-11.3961 4.29411 0.87936 60 79 138 255 
-8.03384 3.03532 0.538814 44 113 142 255 
-8.00706 3.03471 0.456253 48 105 142 255 
-8.04351 3.05669 0.377196 47 107 142 255 
-8.10871 3.05863 0.311724 44 113 142 255 
-7.88211 2.98114 0.223613 47 108 142 255 
-7.88396 2.98963 0.144233 46 110 142 255 
-7.87889 2.99727 0.0662084 42 119 142 255 
-7.95063 3.00058 -0.00148318 38 130 142 255 
-7.94146 3.00676 -0.0815161 39 127 142 255 
-7.96025 3.02174 -0.160513 44 113 142 255 
-7.91697 3.01492 -0.239593 63 72 137 255 
-7.93167 2.99817 -0.307962 54 92 141 255 
-7.66165 2.90388 -0.373497 53 95 141 255 
-7.63734 2.90069 -0.449602 53 94 141 255 
-7.6253 2.90537 -0.526257 59 82 139 255 
-7.6273 2.88464 -0.59168 62 74 137 255 
-7.60668 2.88608 -0.666024 59 82 139 255 
-7.61659 2.89737 -0.744491 61 78 138 255 
-7.00566 2.66928 -0.756226 65 68 135 255 
-6.81621 2.58195 -0.794396 50 100 142 255 
-6.80892 2.58476 -0.86329 47 107 142 255 
-6.78765 2.58339 -0.930367 49 104 142 255 
-6.78194 2.58674 -0.999456 50 100 142 255 
-6.79064 2.57633 -1.06084 53 95 141 255 
-6.8038 2.58553 -1.13198 49 103 142 255 
-6.79193 2.58638 -1.19925 46 109 142 255 
-6.76199 2.57913 -1.26569 57 86 140 255 
-6.60934 2.51282 -1.29775 59 81 139 255 
-6.23649 2.37368 -1.28742 58 84 140 255 
-5.92752 2.25721 -1.28699 59 81 139 255 
-5.64689 2.15269 -1.28785 65 68 135 255 
-5.40111 2.05669 -1.28233 62 73 137 255 
-5.17182 1.97052 -1.28181 63 72 137 255 
-4.93361 1.8807 -1.27637 68 59 132 255 
-4.78349 1.82164 -1.2914 68 57 131 255 
-4.57531 1.7468 -1.28025 69 56 130 255 
-4.37919 1.67202 -1.27182 70 52 128 255 
-4.23396 1.61484 -1.27715 68 59 132 255 
-4.06138 1.54502 -1.27313 70 52 128 255 
-17.2945 6.64502 5.56546 61 78 138 255 
-17.3052 6.63212 5.35966 58 83 139 255 
-17.3134 6.62815 5.16566 58 83 139 255 
-17.2948 6.62143 4.97255 58 84 140 255 
-17.278 6.62835 4.80317 60 80 139 255 
-17.2748 6.62394 4.60603 65 66 135 255 
-17.2852 6.63118 4.42078 61 77 138 255 
-17.2777 6.63212 4.23863 63 72 137 255 
-17.2849 6.62752 4.08366 62 76 138 255 
-17.2586 6.62116 3.88531 59 81 139 255 
-17.2437 6.62565 3.7013 58 84 140 255 
-17.2331 6.62881 3.52221 59 82 139 255 
-17.2477 6.61325 3.37027 54 92 141 255 
-17.2397 6.61737 3.18633 53 94 141 255 
-17.2316 6.62788 3.00347 56 89 140 255 
-17.2025 6.63423 2.8279 57 86 140 255 
-17.2339 6.6114 2.67965 53 95 141 255 
-17.2066 6.60809 2.49536 55 91 141 255 
-17.2153 6.63197 2.32079 55 90 140 255 
-17.2045 6.64191 2.15013 62 76 138 255 
-17.2137 6.60365 1.99963 61 77 138 255 
-17.2061 6.61823 1.82381 60 80 139 255 
-17.2242 6.63884 1.6507 62 76 138 255 
-11.3548 4.3904 0.97522 56 88 140 255 
-11.377 4.36682 0.879937 58 83 139 255 
-8.04952 3.09783 0.54113 40 124 142 255 
-7.99108 3.08486 0.456413 47 108 142 255 
-8.03299 3.10923 0.37759 50 101 142 255 
-8.11684 3.11872 0.312766 50 102 142 255 
-7.8786 3.0352 0.224038 52 97 141 255 
-7.88505 3.04551 0.144592 48 105 142 255 
-7.89951 3.06073 0.0665383 43 117 142 255 
-7.93954 3.05218 -0.00148458 39 127 142 255 
-7.93686 3.06083 -0.0816601 42 119 142 255 
-7.95928 3.07737 -0.160871 44 113 142 255 
-7.9151 3.06995 -0.240102 55 91 141 255 
-7.91219 3.04642 -0.307926 53 95 141 255 
-7.62504 2.94364 -0.372587 58 83 139 255 
-7.63058 2.95182 -0.450262 62 76 138 255 
-7.59896 2.94885 -0.525677 66 63 133 255 
-7.6076 2.93067 -0.591535 62 74 137 255 
-7.59161 2.93377 -0.666269 61 78 138 255 
-7.60424 2.94621 -0.745037 66 65 134 255 
-6.95205 2.69781 -0.752211 65 66 135 255 
-6.80116 2.62409 -0.794504 49 104 142 255 
-6.79015 2.62541 -0.862937 49 104 142 255 
-6.76982 2.62427 -0.930113 50 102 142 255 
-6.75671 2.62472 -0.998092 51 99 141 255 
-6.74516 2.60653 -1.05622 54 93 141 255 
-6.78227 2.62509 -1.13105 46 111 142 255 
-6.76766 2.6248 -1.19779 49 103 142 255 
-6.73961 2.61808 -1.26448 56 88 140 255 
-6.56903 2.54373 -1.29288 59 81 139 255 
-6.22455 2.41297 -1.28799 58 84 140 255 
-5.92635 2.2985 -1.28977 58 83 139 255 
-5.63358 2.1873 -1.28785 62 73 137 255 
-5.37747 2.08556 -1.27973 63 71 136 255 
-5.15328 1.99975 -1.28023 66 64 134 255 
-4.92741 1.91305 -1.27778 66 64 134 255 
-4.746 1.84078 -1.28431 68 57 131 255 
-4.56541 1.77519 -1.2805 67 61 132 255 
-4.37334 1.70061 -1.27313 69 53 129 255 
-4.22936 1.64288 -1.27878 68 57 131 255 
-4.05093 1.56957 -1.27285 68 58 131 255 
-17.2801 6.76148 5.57409 62 76 138 255 
-17.2892 6.74795 5.36744 59 81 139 255 
-17.2912 6.74161 5.17129 60 79 138 255 
-17.2854 6.73971 4.98163 59 82 139 255 
-17.2641 6.74481 4.8107 60 79 138 255 
-17.261 6.7404 4.61327 62 76 138 255 
-17.2695 6.74703 4.42729 63 72 137 255 
-17.2548 6.74511 4.24309 63 71 136 255 
-17.2575 6.73878 4.08689 59 82 139 255 
-17.2532 6.74082 3.89333 58 84 140 255 
-17.2384 6.74526 3.70896 56 88 140 255 
-17.2305 6.74947 3.53008 60 80 139 255 
-17.2617 6.74042 3.38104 54 93 141 255 
-17.2236 6.73271 3.19092 55 90 140 255 
-17.1989 6.73672 3.00491 56 88 140 255 
-17.2001 6.75483 2.83427 57 86 140 255 
-17.2206 6.72782 2.68396 51 98 141 255 
-17.2119 6.73159 2.50207 50 100 142 255 
-17.2011 6.74799 2.32441 55 91 141 255 
-17.2023 6.76262 2.155 61 78 138 255 
-17.2062 6.72217 2.00351 60 80 139 255 
-17.1957 6.73566 1.82706 56 88 140 255 
-17.1989 6.75059 1.65221 61 78 138 255 
-17.1681 6.75955 1.47804 62 74 137 255 
-11.3602 4.44054 0.880729 55 91 141 255 
-8.0601 3.15881 0.543134 41 123 142 255 
-8.01661 3.15137 0.458967 42 119 142 255 
-8.06117 3.17715 0.379823 46 110 142 255 
-8.11338 3.17466 0.313378 62 74 137 255 
-7.8682 3.08677 0.224276 55 90 140 255 
-7.88017 3.09933 0.144849 48 105 142 255 
-7.89919 3.11649 0.0666953 45 112 142 255 
-7.93556 3.10667 -0.00148737 41 122 142 255 
-7.93468 3.11605 -0.0818329 43 116 142 255 
-7.95234 3.13092 -0.161116 49 104 142 255 
-7.92401 3.12947 -0.24095 56 88 140 255 
-7.87846 3.08907 -0.307345 60 80 139 255 
-7.61056 2.99183 -0.372769 55 90 140 255 
-7.61139 2.99821 -0.450207 57 85 140 255 
-7.58258 2.99616 -0.525806 60 79 138 255 
-7.5904 2.97765 -0.591607 63 72 137 255 
-7.58924 2.98651 -0.667656 57 86 140 255 
-7.56842 2.98587 -0.743308 68 57 131 255 
-6.93074 2.73859 -0.751709 63 71 136 255 
-6.77198 2.66068 -0.792987 50 100 142 255 
-6.76282 2.66266 -0.861525 48 106 142 255 
-6.74067 2.66067 -0.928334 55 90 140 255 
-6.73219 2.66285 -0.996864 53 94 141 255 
-6.75851 2.65947 -1.06084 49 104 142 255 
-6.76328 2.66557 -1.13059 46 109 142 255 
-6.74317 2.66301 -1.19632 50 101 142 255 
-6.72983 2.66192 -1.26569 60 80 139 255 
-6.55147 2.58327 -1.29252 61 77 138 255 
-6.20963 2.45112 -1.28799 62 76 138 255 
-5.9176 2.33698 -1.29097 58 83 139 255 
-5.61187 2.21859 -1.28597 64 70 136 255 
-5.36911 2.12031 -1.28082 63 72 137 255 
-5.13004 2.02704 -1.27752 62 73 137 255 
-4.93004 1.94896 -1.28154 67 62 133 255 
-4.71929 1.86382 -1.28015 66 63 133 255 
-4.55263 1.80246 -1.28 68 58 131 255 
-4.37898 1.73381 -1.27784 70 48 126 255 
-4.23262 1.67411 -1.28285 65 66 135 255 
-4.03587 1.59228 -1.27117 67 62 133 255 
-17.2588 6.87554 5.5807 61 77 138 255 
-17.2689 6.86243 5.3741 60 80 139 255 
-17.28 6.85966 5.18042 58 83 139 255 
-17.2473 6.84706 4.98267 60 80 139 255 
-17.244 6.8592 4.81673 60 80 139 255 
-17.2563 6.86088 4.62318 61 78 138 255 
-17.2486 6.86113 4.43263 61 78 138 255 
-17.2366 6.86023 4.2489 65 66 135 255 
-17.2377 6.8532 4.09206 59 81 139 255 
-17.2306 6.85415 3.89765 61 77 138 255 
-17.2167 6.85889 3.71328 57 85 140 255 
-17.2107 6.8638 3.53457 58 83 139 255 
-17.2329 6.8513 3.38355 55 90 140 255 
-17.1975 6.84446 3.19381 54 93 141 255 
-17.2223 6.86808 3.01631 56 89 140 255 
-17.2161 6.88336 2.84382 55 90 140 255 
-17.1974 6.84068 2.68683 53 94 141 255 
-17.1932 6.84624 2.50542 53 95 141 255 
-17.1907 6.86592 2.32865 55 90 140 255 
-17.1918 6.88059 2.15893 61 77 138 255 
-17.1997 6.84158 2.00761 61 77 138 255 
-17.1799 6.85136 1.82982 59 81 139 255 
-17.1886 6.86856 1.65524 59 82 139 255 
-17.1679 6.88146 1.48163 60 79 138 255 
-17.2007 6.84545 1.33676 59 82 139 255 
-8.0452 3.21006 0.543447 46 109 142 255 
-7.99991 3.20162 0.459127 45 112 142 255 
-8.02668 3.2206 0.379123 53 94 141 255 
-17.1177 6.81935 0.662773 71 45 123 255 
-7.91131 3.15984 0.226054 54 93 141 255 
-7.91577 3.16955 0.145858 51 99 141 255 
-7.9059 3.17533 0.0669152 53 95 141 255 
-7.95536 3.17086 -0.0014947 44 113 142 255 
-7.98969 3.19438 -0.0826008 47 107 142 255 
-8.31998 3.33476 -0.168976 71 46 124 255 
-7.93526 3.19034 -0.241883 63 72 137 255 
-7.81852 3.12106 -0.305748 63 71 136 255 
-7.58835 3.03699 -0.372587 52 97 141 255 
-7.58636 3.04226 -0.449822 55 91 141 255 
-7.55664 3.03965 -0.525291 61 78 138 255 
-7.58032 3.0275 -0.592258 59 82 139 255 
-7.57447 3.0345 -0.667982 58 83 139 255 
-7.55643 3.03485 -0.743945 66 63 133 255 
-6.9175 2.78255 -0.752111 68 59 132 255 
-6.75091 2.70034 -0.792445 52 97 141 255 
-6.73161 2.69819 -0.859641 51 99 141 255 
-6.7141 2.69791 -0.926936 58 84 140 255 
-6.71205 2.70263 -0.996318 57 85 140 255 
-6.73747 2.69905 -1.06012 50 101 142 255 
-6.71562 2.6945 -1.12537 52 96 141 255 
-6.71938 2.70139 -1.19502 53 95 141 255 
-6.70697 2.70059 -1.26448 59 82 139 255 
-6.53367 2.62269 -1.29216 62 74 137 255 
-6.18627 2.48588 -1.28629 57 86 140 255 
-5.89224 2.36886 -1.28858 58 83 139 255 
-5.58907 2.24933 -1.28389 63 71 136 255 
-5.36325 2.15613 -1.28255 62 76 138 255 
-5.13106 2.06393 -1.28091 60 80 139 255 
-4.91078 1.97627 -1.27966 67 62 133 255 
-4.70237 1.89057 -1.27868 66 65 134 255 
-4.51546 1.81987 -1.27266 68 59 132 255 
-4.33872 1.74874 -1.2692 69 55 129 255 
-4.21424 1.69681 -1.28041 66 65 134 255 
-4.02424 1.6163 -1.2706 68 58 131 255 
-17.2526 6.99606 5.5925 60 80 139 255 
-17.2497 6.97762 5.38133 60 80 139 255 
-17.2626 6.97567 5.18793 58 83 139 255 
-17.247 6.96977 4.99485 58 84 140 255 
-17.2599 6.98849 4.83306 58 84 140 255 
-17.2435 6.97865 4.63115 60 79 138 255 
-17.2242 6.97414 4.43727 61 78 138 255 
-17.2276 6.9794 4.25716 64 69 136 255 
-17.2641 6.98668 4.10844 59 82 139 255 
-17.2182 6.97187 3.90444 57 86 140 255 
-17.2088 6.9784 3.72075 58 84 140 255 
-17.1874 6.97704 3.53851 60 79 138 255 
-17.2051 6.96281 3.38642 55 91 141 255 
-17.1981 6.96724 3.20181 54 92 141 255 
-17.2009 6.98217 3.02001 56 89 140 255 
-17.1964 6.99818 2.84761 55 90 140 255 
-17.2129 6.96947 2.69588 50 100 142 255 
-17.1959 6.96985 2.512 52 96 141 255 
-17.1777 6.98322 2.33264 53 95 141 255 
-17.1695 6.99419 2.16148 60 79 138 255 
-17.174 6.95371 2.00955 61 78 138 255 
-17.168 6.969 1.83307 59 81 139 255 
-17.1683 6.9829 1.65738 61 78 138 255 
-17.1549 6.99872 1.48419 64 70 136 255 
-17.15 6.94749 1.33611 60 80 139 255 
-7.98836 3.24434 0.540942 70 50 126 255 
-8.02173 3.26759 0.461521 48 106 142 255 
-8.01417 3.27281 0.379473 68 58 131 255 
-17.1117 6.9389 0.664175 69 53 129 255 
-7.92141 3.22037 0.226902 65 68 135 255 
-7.95266 3.24108 0.146901 55 91 141 255 
-8.12785 3.32254 0.0689651 69 55 129 255 
-8.86054 3.59481 -0.00166888 70 50 126 255 
-9.11843 3.71071 -0.0945038 66 64 134 255 
-9.11495 3.71847 -0.185582 69 53 129 255 
-8.97298 3.67166 -0.274196 72 38 119 255 
-7.75942 3.15279 -0.304187 65 68 135 255 
-7.56402 3.08123 -0.372313 52 97 141 255 
-7.55184 3.08234 -0.448888 56 88 140 255 
-7.52769 3.0818 -0.524583 66 64 134 255 
-7.55606 3.0717 -0.591824 56 88 140 255 
-7.55202 3.07941 -0.667656 52 97 141 255 
-7.55518 3.08831 -0.745674 58 84 140 255 
-6.89201 2.82155 -0.751207 67 62 133 255 
-6.73606 2.74246 -0.792662 49 104 142 255 
-6.70849 2.73682 -0.858817 49 104 142 255 
-6.70109 2.74056 -0.927445 52 96 141 255 
-6.7045 2.74752 -0.997682 54 93 141 255 
-6.71162 2.7366 -1.05867 48 106 142 255 
-6.70353 2.73753 -1.12614 49 104 142 255 
-6.69354 2.73883 -1.19339 51 98 141 255 
-6.69119 2.74206 -1.26466 59 82 139 255 
-6.49924 2.65529 -1.28855 61 77 138 255 
-6.16 2.51933 -1.28401 59 81 139 255 
-5.86852 2.40125 -1.28659 60 80 139 255 
-5.57245 2.28247 -1.28327 61 77 138 255 
-5.34901 2.18862 -1.28233 60 79 138 255 
-5.11289 2.09316 -1.27955 56 89 140 255 
-4.88237 1.99973 -1.27543 67 61 132 255 
-4.69875 1.92269 -1.28089 68 58 131 255 
-4.50421 1.84754 -1.27266 69 53 129 255 
-4.33416 1.77789 -1.27103 66 64 134 255 
-4.17703 1.71169 -1.27227 65 68 135 255 
-4.0329 1.64859 -1.27651 68 59 132 255 
-17.2501 7.1186 5.60573 62 76 138 255 
-17.2385 7.0965 5.39133 63 72 137 255 
-17.2239 7.08329 5.18928 61 77 138 255 
-17.2147 7.07987 4.99797 61 78 138 255 
-17.2364 7.10237 4.83859 62 74 137 255 
-17.2148 7.09023 4.63502 64 70 136 255 
-17.209 7.09118 4.44447 63 72 137 255 
-17.2169 7.09835 4.26519 66 64 134 255 
-17.2326 7.09732 4.11124 58 83 139 255 
-17.2103 7.09193 3.91246 59 81 139 255 
-17.1883 7.09321 3.72566 57 86 140 255 
-17.196 7.10374 3.54919 56 89 140 255 
-17.1921 7.08061 3.39234 56 89 140 255 
-17.1988 7.09067 3.20997 53 95 141 255 
-17.1823 7.09775 3.02434 54 92 141 255 
-17.1605 7.10659 2.84883 54 92 141 255 
-17.1899 7.08325 2.69904 51 99 141 255 
-17.1803 7.08657 2.51602 54 93 141 255 
-17.1547 7.09684 2.33539 53 95 141 255 
-17.1657 7.11576 2.16646 59 81 139 255 
-17.1861 7.08168 2.01602 57 85 140 255 
-17.1617 7.08941 1.837 60 80 139 255 
-17.1619 7.10335 1.66094 59 81 139 255 
-17.1301 7.11149 1.48579 63 72 137 255 
-17.1209 7.0583 1.33719 61 78 138 255 
-16.5887 6.8561 1.12615 67 61 132 255 
-16.1608 6.69889 0.932141 72 36 117 255 
-16.2582 6.75617 0.771777 72 40 120 255 
-16.3963 6.76624 0.638006 71 45 123 255 
-17.1295 7.08659 0.491896 66 63 133 255 
-11.9123 4.94027 0.2206 72 32 113 255 
-8.83855 3.67652 0.0751854 61 77 138 255 
-8.94184 3.69185 -0.00168843 64 69 136 255 
-8.88669 3.68013 -0.0923344 67 61 132 255 
-8.88604 3.68885 -0.181379 66 65 134 255 
-8.87092 3.69361 -0.271765 68 57 131 255 
-7.70575 3.18622 -0.302844 65 68 135 255 
-7.53851 3.1249 -0.371995 53 94 141 255 
-7.53832 3.13091 -0.449218 61 77 138 255 
-7.51417 3.13023 -0.524969 64 69 136 255 
-7.53339 3.11648 -0.591535 54 93 141 255 
-7.52561 3.12264 -0.667003 50 101 142 255 
-7.51218 3.12467 -0.743308 57 85 140 255 
-6.85528 2.85575 -0.7491 66 63 133 255 
-6.71084 2.78031 -0.791687 52 97 141 255 
-6.69066 2.77755 -0.8587 50 102 142 255 
-6.70429 2.79001 -0.93024 49 103 142 255 
-6.69392 2.79127 -0.998637 51 98 141 255 
-6.69653 2.77849 -1.05896 50 102 142 255 
-6.68478 2.77785 -1.12583 50 101 142 255 
-6.67661 2.77985 -1.19339 50 101 142 255 
-6.64969 2.77283 -1.26 59 81 139 255 
-6.46557 2.68794 -1.28512 62 74 137 255 
-6.13989 2.55519 -1.28306 59 81 139 255 
-5.83739 2.43044 -1.28301 57 86 140 255 
-5.55563 2.31549 -1.28264 62 74 137 255 
-5.34089 2.22365 -1.28363 62 76 138 255 
-5.09635 2.123 -1.27865 57 86 140 255 
-4.86462 2.02741 -1.27402 64 69 136 255 
-4.67702 1.94738 -1.27819 69 53 129 255 
-4.49279 1.87515 -1.27266 70 50 126 255 
-4.3196 1.80296 -1.26998 66 64 134 255 
-4.15223 1.73136 -1.26793 69 56 130 255 
-4.00233 1.66482 -1.27004 69 56 130 255 
-17.2335 7.2358 5.61465 62 76 138 255 
-17.2434 7.22255 5.40661 59 81 139 255 
-17.2077 7.20036 5.1976 60 80 139 255 
-17.2119 7.20252 5.0099 59 82 139 255 
-17.2192 7.21923 4.84613 57 85 140 255 
-17.2139 7.21373 4.64661 62 73 137 255 
-17.1947 7.20905 4.45214 60 79 138 255 
-17.1892 7.21065 4.26921 66 64 134 255 
-17.1987 7.20707 4.11361 62 74 137 255 
-17.2062 7.21404 3.92151 61 77 138 255 
-17.1942 7.21942 3.73646 57 86 140 255 
-17.1801 7.22092 3.555 59 81 139 255 
-17.1737 7.19662 3.39737 56 89 140 255 
-17.1704 7.20254 3.21286 54 93 141 255 
-17.1803 7.22064 3.03173 56 89 140 255 
-17.1503 7.22595 2.85444 58 84 140 255 
-17.1754 7.20083 2.70364 51 98 141 255 
-17.1648 7.20374 2.52018 53 95 141 255 
-17.141 7.21467 2.33951 55 90 140 255 
-17.2023 7.25492 2.17665 71 42 122 255 
-17.2047 7.21314 2.02335 64 70 136 255 
-17.1995 7.22889 1.84577 60 79 138 255 
-17.1557 7.22437 1.66459 66 64 134 255 
-17.054 7.20289 1.48299 67 61 132 255 
-16.6947 7.00272 1.30723 72 40 120 255 
-9.00228 3.78547 0.612701 70 50 126 255 
-8.9499 3.77438 0.517548 72 37 118 255 
-16.221 6.85775 0.771996 72 38 119 255 
-17.122 7.18899 0.667949 68 59 132 255 
-17.1188 7.20552 0.492851 68 58 131 255 
-11.6275 4.906 0.215879 70 50 126 255 
-8.65835 3.66404 0.0738424 59 81 139 255 
-8.72541 3.66531 -0.00165178 62 76 138 255 
-8.7119 3.67052 -0.0907505 62 74 137 255 
-8.66245 3.6585 -0.17727 65 66 135 255 
-8.65019 3.66414 -0.265687 68 58 131 255 
-7.67777 3.22995 -0.302518 65 68 135 255 
-7.52656 3.17421 -0.372359 54 93 141 255 
-7.5162 3.17594 -0.449053 58 84 140 255 
-7.49022 3.17433 -0.524648 65 68 135 255 
-7.51412 3.16265 -0.591535 53 94 141 255 
-7.49713 3.16488 -0.666187 53 95 141 255 
-7.49011 3.16954 -0.743035 55 90 140 255 
-6.82114 2.89077 -0.747293 66 63 133 255 
-6.6964 2.8226 -0.792012 47 107 142 255 
-6.66525 2.81508 -0.85764 45 112 142 255 
-6.68157 2.82877 -0.929478 45 113 142 255 
-6.67575 2.83191 -0.998501 49 103 142 255 
-6.68118 2.82029 -1.05925 46 109 142 255 
-6.66579 2.81805 -1.12552 51 99 141 255 
-6.66306 2.82231 -1.19404 48 105 142 255 
-6.6253 2.8105 -1.25863 56 88 140 255 
-6.44443 2.72565 -1.28421 61 78 138 255 
-6.12591 2.59358 -1.28344 58 83 139 255 
-5.82327 2.46659 -1.28321 57 85 140 255 
-5.53592 2.34724 -1.28139 61 78 138 255 
-5.31007 2.24915 -1.27952 62 74 137 255 
-5.06619 2.14701 -1.27437 60 79 138 255 
-4.84583 2.05457 -1.27238 64 69 136 255 
-4.65874 1.9734 -1.27648 68 57 131 255 
-4.47408 1.89965 -1.27064 70 52 128 255 
-4.30846 1.82943 -1.26998 70 52 128 255 
-4.13621 1.75455 -1.2663 64 69 136 255 
-4.01237 1.69795 -1.27651 66 64 134 255 
-17.2337 7.36059 5.62932 61 78 138 255 
-17.2314 7.34215 5.41689 57 85 140 255 
-17.2039 7.32317 5.20994 60 79 138 255 
-17.2091 7.32577 5.02208 61 78 138 255 
-17.1951 7.33348 4.8519 60 79 138 255 
-17.2041 7.33406 4.65603 63 71 136 255 
-17.1734 7.32434 4.45818 62 73 137 255 
-17.2038 7.34123 4.28395 65 66 135 255 
-17.1936 7.32932 4.12308 61 78 138 255 
-17.1724 7.32409 3.92398 60 80 139 255 
-17.1667 7.33211 3.7402 62 76 138 255 
-17.1671 7.33971 3.56156 58 83 139 255 
-17.1681 7.31844 3.40509 54 93 141 255 
-17.1476 7.31705 3.21694 53 94 141 255 
-17.1502 7.33213 3.0343 55 91 141 255 
-17.1419 7.34662 2.8605 58 83 139 255 
-17.1636 7.32006 2.70881 52 97 141 255 
-17.1403 7.31748 2.52313 54 92 141 255 
-17.121 7.33025 2.34288 53 94 141 255 
-17.1319 7.34937 2.17341 68 58 131 255 
-17.1748 7.32481 2.02508 69 56 130 255 
-17.1631 7.33781 1.84665 68 57 131 255 
-16.5589 7.09301 1.61089 71 45 123 255 
-16.993 7.30031 1.48156 67 61 132 255 
-8.9252 3.80832 0.70068 67 62 133 255 
-8.95227 3.82925 0.610885 50 101 142 255 
-8.93758 3.83395 0.518187 46 111 142 255 
-8.98783 3.86495 0.428872 58 83 139 255 
-16.0685 6.86292 0.62848 70 48 126 255 
-16.1562 6.91736 0.466352 72 37 118 255 
-11.3813 4.88458 0.21186 69 56 130 255 
-8.452 3.63803 0.0722716 58 84 140 255 
-8.49585 3.63037 -0.00161251 59 81 139 255 
-8.49896 3.64237 -0.0887635 61 77 138 255 
-8.50112 3.65199 -0.174423 63 72 137 255 
-8.46322 3.64635 -0.260626 62 73 137 255 
-7.62657 3.26363 -0.301284 64 69 136 255 
-7.50419 3.21915 -0.372222 54 92 141 255 
-7.47364 3.21214 -0.447679 59 81 139 255 
-7.45961 3.21549 -0.523875 61 77 138 255 
-7.46707 3.19692 -0.589364 58 84 140 255 
-7.47849 3.21121 -0.666269 52 96 141 255 
-7.4687 3.21465 -0.742853 62 73 137 255 
-6.78134 2.92312 -0.744885 65 68 135 255 
-6.67804 2.86324 -0.791904 49 103 142 255 
-6.66245 2.86219 -0.859524 47 107 142 255 
-6.65406 2.8654 -0.92808 51 99 141 255 
-6.6246 2.85829 -0.993454 52 97 141 255 
-6.66648 2.86241 -1.05969 45 113 142 255 
-6.66018 2.86397 -1.12752 46 109 142 255 
-6.65196 2.86587 -1.19518 46 111 142 255 
-6.62059 2.85657 -1.26104 53 95 141 255 
-6.42126 2.76242 -1.28295 61 78 138 255 
-6.08282 2.61947 -1.27776 61 78 138 255 
-5.79723 2.49762 -1.28082 57 85 140 255 
-5.51513 2.37845 -1.27993 59 82 139 255 
-5.28541 2.27705 -1.27692 63 72 137 255 
-5.05024 2.17689 -1.27369 59 81 139 255 
-4.83313 2.08426 -1.27238 65 66 135 255 
-4.63763 1.99811 -1.27404 69 56 130 255 
-4.46145 1.92669 -1.27039 70 51 127 255 
-4.29627 1.85545 -1.26972 71 44 122 255 
-4.14216 1.78714 -1.27145 66 65 134 255 
-3.97984 1.71306 -1.26948 66 64 134 255 
-17.2172 7.47879 5.63882 60 80 139 255 
-17.2116 7.45882 5.42495 61 78 138 255 
-17.2091 7.45041 5.22524 59 81 139 255 
-17.1763 7.4366 5.02571 61 77 138 255 
-17.18 7.45194 4.86045 58 84 140 255 
-17.1944 7.45492 4.6657 62 76 138 255 
-17.1853 7.45435 4.47304 62 74 137 255 
-17.1933 7.46179 4.29265 63 71 136 255 
-17.1707 7.44439 4.12847 62 74 137 255 
-17.1613 7.44412 3.9318 61 78 138 255 
-17.1673 7.45723 3.75022 62 73 137 255 
-17.1533 7.45862 3.56811 58 83 139 255 
-17.1563 7.43813 3.41173 57 86 140 255 
-17.1566 7.44566 3.22714 53 94 141 255 
-17.1429 7.45375 3.04104 54 92 141 255 
-17.1129 7.45877 2.86323 59 81 139 255 
-17.1483 7.43823 2.71355 54 92 141 255 
-17.1306 7.43791 2.52836 52 96 141 255 
-17.1248 7.45655 2.34962 53 95 141 255 
-17.122 7.46984 2.17793 69 56 130 255 
-17.145 7.43678 2.02691 67 62 133 255 
-17.1241 7.44576 1.84734 65 66 135 255 
-16.8794 7.3532 1.64642 68 58 131 255 
-16.4975 7.2077 1.44219 72 41 121 255 
-8.8852 3.85586 0.699383 47 108 142 255 
-8.89658 3.87018 0.608693 45 112 142 255 
-8.87728 3.87275 0.516059 41 121 142 255 
-8.93191 3.90602 0.427339 47 107 142 255 
-8.96539 3.89438 0.351588 46 110 142 255 
-8.94349 3.8943 0.25884 72 36 117 255 
-8.36831 3.65245 0.156188 70 51 127 255 
-8.3086 3.63689 0.0712349 59 81 139 255 
-8.37712 3.64058 -0.00159418 55 91 141 255 
-8.31511 3.62414 -0.087074 57 86 140 255 
-8.29989 3.62603 -0.170748 62 74 137 255 
-8.29969 3.63644 -0.256273 67 62 133 255 
-7.58807 3.30239 -0.300558 62 73 137 255 
-7.46598 3.25714 -0.371311 56 89 140 255 
-7.45196 3.25714 -0.447569 63 71 136 255 
-7.43883 3.2608 -0.523811 64 70 136 255 
-7.44 3.23949 -0.588785 56 88 140 255 
-7.46412 3.25943 -0.666758 52 97 141 255 
-7.43332 3.25363 -0.741307 60 80 139 255 
-6.76054 2.96348 -0.744584 65 66 135 255 
-6.64303 2.89661 -0.789845 50 101 142 255 
-6.6384 2.90023 -0.8587 44 115 142 255 
-6.6091 2.89424 -0.924268 49 103 142 255 
-6.61873 2.90406 -0.995227 46 110 142 255 
-6.65332 2.90524 -1.06041 45 113 142 255 
-6.63614 2.90201 -1.12644 46 109 142 255 
-6.61256 2.89713 -1.19128 50 100 142 255 
-6.60384 2.89753 -1.26121 55 90 140 255 
-6.38346 2.7927 -1.2788 61 78 138 255 
-6.05045 2.64966 -1.27435 62 76 138 255 
-5.78987 2.53669 -1.28261 59 82 139 255 
-5.4852 2.40557 -1.27639 61 77 138 255 
-5.24809 2.29926 -1.27128 62 74 137 255 
-5.03054 2.2051 -1.27211 63 72 137 255 
-4.83093 2.11856 -1.2752 68 59 132 255 
-4.63772 2.03198 -1.27746 67 61 132 255 
-4.45131 1.9548 -1.27089 68 58 131 255 
-4.24504 1.86432 -1.25794 69 53 129 255 
-4.14698 1.81948 -1.27634 62 73 137 255 
-3.98068 1.74245 -1.27313 65 66 135 255 
-17.2139 7.60325 5.65292 60 80 139 255 
-17.2007 7.57978 5.43606 62 74 137 255 
-17.1957 7.57022 5.23518 61 78 138 255 
-17.1904 7.56831 5.04335 58 84 140 255 
-17.1738 7.5748 4.87175 60 80 139 255 
