ply
format ascii 1.0
comment VTK generated PLY File
obj_info vtkPolyData points and polygons: vtk4.0
element vertex 1171
property float x
property float y
property float z
property uchar red
property uchar green
property uchar blue
property uchar alpha
element face 0
property list uchar int vertex_indices
end_header
5.38872 -2.47906 -1.1444 51 98 141 255 
5.12703 -2.3597 -1.1452 54 93 141 255 
4.95498 -2.28269 -1.16259 57 85 140 255 
4.73042 -2.1771 -1.1554 55 91 141 255 
4.55549 -2.09766 -1.16155 50 101 142 255 
4.39384 -2.02411 -1.16946 58 84 140 255 
4.19525 -1.93092 -1.16518 63 72 137 255 
4.07635 -1.88038 -1.17352 61 78 138 255 
3.91379 -1.80549 -1.16943 60 79 138 255 
3.79985 -1.75128 -1.17922 63 71 136 255 
3.65585 -1.68111 -1.17894 64 69 136 255 
8.68538 -4.02893 2.87609 62 74 137 255 
8.6891 -4.02159 2.76901 47 107 142 255 
15.4385 -7.13871 4.73941 72 36 117 255 
12.389 -5.72896 3.66504 72 26 108 255 
13.0291 -6.03561 3.72692 72 40 120 255 
13.0614 -6.04798 3.5834 69 55 129 255 
14.5339 -6.73278 3.82481 72 20 103 255 
10.036 -4.6515 2.53344 68 57 131 255 
9.59335 -4.44198 2.33211 69 55 129 255 
9.65216 -4.47142 2.23587 63 71 136 255 
16.7292 -7.76034 3.69501 66 64 134 255 
16.8421 -7.82025 3.54226 72 33 115 255 
9.65731 -4.4716 1.94171 48 105 142 255 
9.67663 -4.4848 1.84032 32 146 140 255 
9.6909 -4.49954 1.73817 31 159 136 255 
9.69005 -4.50961 1.63931 31 152 139 255 
9.70514 -4.4958 1.55274 30 157 137 255 
9.70309 -4.49913 1.44798 31 160 136 255 
9.68427 -4.50262 1.3435 31 153 138 255 
9.70251 -4.51953 1.2479 31 153 138 255 
9.71181 -4.49889 1.16085 50 100 142 255 
9.70016 -4.50394 1.05806 31 161 135 255 
9.69753 -4.51085 0.956414 30 157 137 255 
9.71028 -4.52933 0.858318 32 146 140 255 
9.7236 -4.50641 0.773852 31 156 137 255 
9.68958 -4.50108 0.670308 31 160 136 255 
9.69835 -4.5174 0.570064 33 143 141 255 
9.7042 -4.53061 0.469469 46 109 142 255 
9.7347 -4.51568 0.385989 31 152 139 255 
9.7263 -4.52227 0.284623 33 145 140 255 
9.72439 -4.5316 0.183519 35 136 142 255 
9.69715 -4.53144 0.0840682 71 45 123 255 
9.73295 -4.51693 -0.00187274 51 98 141 255 
9.74311 -4.53422 -0.103162 34 140 141 255 
9.73882 -4.54246 -0.202583 37 133 142 255 
9.74813 -4.5594 -0.304361 38 130 142 255 
9.74955 -4.53083 -0.39046 33 143 141 255 
9.75632 -4.54451 -0.490619 37 133 142 255 
9.76666 -4.55752 -0.593132 40 124 142 255 
9.7509 -4.56277 -0.694296 56 89 140 255 
9.78659 -4.55011 -0.783092 35 137 142 255 
9.8407 -4.588 -0.888848 42 118 142 255 
9.85758 -4.60624 -0.99405 42 120 142 255 
9.70019 -4.53904 -1.08029 71 47 125 255 
9.07896 -4.22689 -1.09148 62 73 137 255 
8.28235 -3.86321 -1.08329 70 52 128 255 
7.76261 -3.62895 -1.09771 68 58 131 255 
7.32507 -3.43075 -1.11376 64 70 136 255 
6.93785 -3.23447 -1.11808 61 78 138 255 
6.52353 -3.0456 -1.11968 62 76 138 255 
6.17036 -2.8859 -1.12404 55 90 140 255 
5.8733 -2.7508 -1.13425 54 93 141 255 
5.59383 -2.61263 -1.13312 54 92 141 255 
5.37252 -2.51166 -1.14421 51 98 141 255 
5.11068 -2.39028 -1.14481 54 93 141 255 
4.92759 -2.30683 -1.15946 55 91 141 255 
4.72227 -2.20857 -1.1567 54 92 141 255 
4.5443 -2.1264 -1.162 51 99 141 255 
4.39543 -2.05763 -1.17322 55 91 141 255 
4.19474 -1.96196 -1.16836 65 68 135 255 
4.05072 -1.89879 -1.16947 60 80 139 255 
3.90526 -1.8307 -1.17022 62 73 137 255 
3.7777 -1.76926 -1.17569 63 72 137 255 
3.64546 -1.70351 -1.17894 65 68 135 255 
8.60765 -4.05724 2.85854 50 100 142 255 
8.65905 -4.07238 2.76734 52 96 141 255 
8.65231 -4.06543 2.66376 62 76 138 255 
13.0678 -6.14044 3.87691 72 32 113 255 
12.568 -5.91592 3.60533 72 41 121 255 
10.0685 -4.7374 2.77023 70 51 127 255 
10.1608 -4.7829 2.68164 53 95 141 255 
31.5731 -14.8695 7.99302 70 10 93 255 
15.9022 -7.48201 3.87686 70 52 128 255 
9.6759 -4.55473 2.2478 51 99 141 255 
9.74195 -4.59196 2.15791 54 92 141 255 
9.72948 -4.59043 2.0522 66 63 133 255 
9.69734 -4.5626 1.95535 50 100 142 255 
9.6828 -4.56005 1.84678 32 146 140 255 
9.689 -4.57113 1.74283 32 146 140 255 
9.68632 -4.58039 1.64341 33 142 141 255 
9.70692 -4.56917 1.55748 31 152 139 255 
9.71116 -4.57548 1.45335 31 150 139 255 
9.68337 -4.57467 1.34724 32 146 140 255 
9.70782 -4.5947 1.25219 34 141 141 255 
9.7209 -4.57575 1.16527 44 114 142 255 
9.68944 -4.57144 1.05993 33 145 140 255 
9.67328 -4.57197 0.95677 33 142 141 255 
9.73094 -4.61188 0.86263 36 135 142 255 
9.71562 -4.57534 0.775436 33 145 140 255 
9.69337 -4.57536 0.672499 43 117 142 255 
9.69301 -4.5875 0.571394 42 118 142 255 
9.71052 -4.60634 0.471133 53 95 141 255 
9.72398 -4.58342 0.386672 34 141 141 255 
9.73272 -4.59809 0.285631 36 134 142 255 
9.70906 -4.59717 0.183759 41 121 142 255 
9.72878 -4.61916 0.0845865 68 57 131 255 
9.74575 -4.59576 -0.00188059 49 104 142 255 
9.74223 -4.60674 -0.10345 40 124 142 255 
9.74148 -4.61669 -0.203224 46 111 142 255 
9.77143 -4.64358 -0.305972 44 113 142 255 
9.76855 -4.61275 -0.392348 41 123 142 255 
9.75353 -4.61626 -0.491894 46 111 142 255 
9.77821 -4.63618 -0.59555 45 113 142 255 
9.79212 -4.65551 -0.699251 43 116 142 255 
9.7657 -4.61349 -0.783671 54 93 141 255 
9.83669 -4.65981 -0.891051 41 122 142 255 
9.86242 -4.68244 -0.997416 45 113 142 255 
9.67216 -4.59847 -1.08029 69 53 129 255 
9.06633 -4.28889 -1.09311 67 62 133 255 
8.27285 -3.92076 -1.08518 69 53 129 255 
7.75901 -3.68545 -1.10038 68 57 131 255 
7.33609 -3.49096 -1.11868 66 64 134 255 
6.91072 -3.27359 -1.11692 61 77 138 255 
6.50561 -3.08599 -1.11983 61 78 138 255 
6.15521 -2.92498 -1.12452 54 93 141 255 
5.86787 -2.79229 -1.13648 57 86 140 255 
5.58569 -2.65069 -1.13474 57 85 140 255 
5.36055 -2.54626 -1.14496 51 99 141 255 
5.10919 -2.42791 -1.14779 54 92 141 255 
4.93101 -2.34542 -1.16363 53 95 141 255 
4.72451 -2.24504 -1.1606 55 91 141 255 
4.54261 -2.15968 -1.16493 52 97 141 255 
4.38799 -2.08706 -1.17463 56 89 140 255 
4.19663 -1.99432 -1.17227 63 72 137 255 
4.04772 -1.92777 -1.172 61 78 138 255 
3.90703 -1.86085 -1.17415 62 74 137 255 
3.76938 -1.79364 -1.17651 63 71 136 255 
3.64101 -1.72873 -1.18091 68 59 132 255 
8.59383 -4.11535 2.86228 55 90 140 255 
8.6469 -4.13165 2.77151 50 100 142 255 
13.1581 -6.28142 4.06274 69 53 129 255 
12.1252 -5.7886 3.60773 66 64 134 255 
12.0984 -5.7858 3.48072 69 53 129 255 
9.91844 -4.74134 2.7369 71 46 124 255 
9.81103 -4.69199 2.59687 62 73 137 255 
9.50867 -4.54965 2.41423 69 55 129 255 
15.8913 -7.59629 3.88548 71 47 125 255 
9.6769 -4.62795 2.25459 49 103 142 255 
9.70563 -4.64783 2.15614 49 103 142 255 
9.70113 -4.65005 2.0522 56 89 140 255 
9.70112 -4.63729 1.96182 51 99 141 255 
9.68309 -4.63299 1.85222 33 144 141 255 
9.70171 -4.65012 1.75022 41 123 142 255 
9.71149 -4.66542 1.6525 40 124 142 255 
9.70905 -4.64316 1.56236 39 127 142 255 
9.73296 -4.65894 1.46086 38 130 142 255 
9.73384 -4.67178 1.35822 40 124 142 255 
9.74568 -4.68603 1.26076 39 128 142 255 
9.71596 -4.64647 1.16808 48 106 142 255 
9.70967 -4.65404 1.06524 39 126 142 255 
9.73213 -4.67306 0.96541 41 122 142 255 
9.75006 -4.69442 0.866862 38 129 142 255 
9.73865 -4.6594 0.779541 54 93 141 255 
9.73531 -4.66841 0.677383 36 135 142 255 
9.74568 -4.68584 0.576183 40 124 142 255 
9.76397 -4.7053 0.475118 42 118 142 255 
9.76147 -4.67451 0.389296 39 126 142 255 
9.7656 -4.68714 0.287435 36 134 142 255 
9.75455 -4.6922 0.185161 37 133 142 255 
9.71646 -4.68658 0.0847279 72 35 116 255 
9.75615 -4.67405 -0.0018881 50 102 142 255 
9.78678 -4.70151 -0.104228 34 140 141 255 
9.78594 -4.71151 -0.204751 38 130 142 255 
9.78956 -4.72605 -0.307442 40 124 142 255 
9.81215 -4.70719 -0.395251 34 140 141 255 
9.79975 -4.71194 -0.495674 35 138 141 255 
9.81794 -4.72903 -0.599726 39 128 142 255 
9.8065 -4.73633 -0.70234 39 127 142 255 
9.79925 -4.7031 -0.788665 58 83 139 255 
9.87437 -4.75207 -0.897089 41 121 142 255 
9.88642 -4.76839 -1.00278 46 109 142 255 
9.66258 -4.66682 -1.0824 71 45 123 255 
9.0515 -4.35004 -1.09452 66 64 134 255 
8.25848 -3.97619 -1.08647 69 55 129 255 
7.75948 -3.7442 -1.10368 68 57 131 255 
7.31542 -3.53634 -1.11881 65 66 135 255 
6.90834 -3.32451 -1.11981 62 76 138 255 
6.50347 -3.134 -1.12275 58 83 139 255 
6.14425 -2.96612 -1.12583 56 88 140 255 
5.85772 -2.83168 -1.13786 54 92 141 255 
5.58704 -2.69346 -1.13835 55 90 140 255 
5.3466 -2.57996 -1.14534 51 98 141 255 
5.12509 -2.47412 -1.15475 51 99 141 255 
4.90772 -2.37138 -1.16155 57 85 140 255 
4.72383 -2.28036 -1.16385 53 95 141 255 
4.54857 -2.19684 -1.1699 53 94 141 255 
4.36284 -2.10803 -1.17134 58 83 139 255 
4.20615 -2.03058 -1.17839 62 74 137 255 
4.04105 -1.9551 -1.17352 60 80 139 255 
3.90335 -1.88858 -1.1765 62 73 137 255 
3.7635 -1.81925 -1.17814 64 70 136 255 
3.62169 -1.74687 -1.1781 68 59 132 255 
8.65109 -4.20822 2.88989 50 100 142 255 
8.68533 -4.21567 2.79207 50 101 142 255 
13.2138 -6.40785 4.09199 72 29 111 255 
12.1129 -5.87427 3.61473 70 48 126 255 
12.0678 -5.86246 3.48223 69 55 129 255 
9.71807 -4.71903 2.68955 57 85 140 255 
9.73306 -4.7283 2.58386 58 83 139 255 
9.49636 -4.61558 2.41825 65 68 135 255 
15.8268 -7.68512 3.88117 69 56 130 255 
9.71346 -4.71889 2.26981 44 115 142 255 
9.71485 -4.72574 2.16459 46 111 142 255 
9.69096 -4.71851 2.05614 57 85 140 255 
9.69814 -4.70919 1.96702 65 68 135 255 
9.71031 -4.71945 1.86293 38 130 142 255 
9.73511 -4.7398 1.76146 31 150 139 255 
9.71821 -4.74226 1.65857 33 143 141 255 
9.73112 -4.7273 1.57055 31 154 138 255 
9.73895 -4.73547 1.46609 31 150 139 255 
9.75404 -4.75534 1.36509 31 150 139 255 
9.74352 -4.75882 1.26423 32 147 140 255 
9.71052 -4.71729 1.17088 50 102 142 255 
9.72208 -4.73356 1.06977 37 133 142 255 
9.75162 -4.75626 0.970219 31 153 138 255 
9.75331 -4.76992 0.869737 34 140 141 255 
9.75921 -4.74305 0.783502 31 148 140 255 
9.76031 -4.75428 0.68114 31 161 135 255 
9.76609 -4.76965 0.579109 31 151 139 255 
9.77081 -4.7827 0.47687 40 124 142 255 
9.76586 -4.75049 0.390626 31 148 140 255 
9.7726 -4.76449 0.288496 33 145 140 255 
9.74803 -4.76294 0.185589 33 143 141 255 
9.68842 -4.74656 0.0847357 72 37 118 255 
9.75696 -4.74826 -0.00189386 49 103 142 255 
9.78022 -4.77243 -0.104468 31 148 140 255 
9.77481 -4.78025 -0.205128 33 143 141 255 
9.7909 -4.80099 -0.308404 35 138 141 255 
9.79566 -4.77343 -0.395759 31 152 139 255 
9.78771 -4.78032 -0.496539 33 142 141 255 
9.79951 -4.79444 -0.600386 35 136 142 255 
9.79338 -4.80433 -0.703499 38 130 142 255 
9.78007 -4.76794 -0.789461 53 94 141 255 
9.87457 -4.82701 -0.899781 41 121 142 255 
9.90974 -4.85481 -1.00815 49 103 142 255 
9.64627 -4.73216 -1.08381 71 47 125 255 
9.05858 -4.42207 -1.09863 69 56 130 255 
8.27317 -4.04598 -1.09165 70 50 126 255 
7.74081 -3.79392 -1.10432 67 61 132 255 
7.30425 -3.5864 -1.12045 66 63 133 255 
6.90826 -3.37683 -1.12313 62 73 137 255 
6.48944 -3.17646 -1.12368 61 77 138 255 
6.13923 -3.01028 -1.12827 55 91 141 255 
5.84554 -2.87017 -1.1389 55 91 141 255 
5.5819 -2.73331 -1.1407 51 98 141 255 
5.32802 -2.61142 -1.14478 51 99 141 255 
5.11685 -2.50897 -1.15634 49 103 142 255 
4.89308 -2.40145 -1.16155 56 88 140 255 
4.71764 -2.31317 -1.1658 51 98 141 255 
4.52713 -2.22084 -1.16787 49 103 142 255 
4.34459 -2.13219 -1.16993 61 78 138 255 
4.19274 -2.05592 -1.17814 63 72 137 255 
4.03158 -1.98114 -1.17428 61 78 138 255 
3.90468 -1.91888 -1.18043 61 78 138 255 
3.76523 -1.84867 -1.18221 64 70 136 255 
3.63934 -1.78299 -1.18738 67 61 132 255 
8.64572 -4.27141 2.8968 56 88 140 255 
8.69291 -4.28544 2.8029 47 107 142 255 
8.6823 -4.27636 2.69677 62 76 138 255 
12.6822 -6.24678 3.796 72 40 120 255 
12.4891 -6.1621 3.61462 71 42 122 255 
9.66717 -4.76784 2.68351 62 73 137 255 
9.67682 -4.77459 2.57666 55 91 141 255 
9.49146 -4.68541 2.42427 45 112 142 255 
15.6769 -7.73155 3.85597 72 22 104 255 
9.69047 -4.78143 2.27125 48 106 142 255 
9.7094 -4.79699 2.1699 48 105 142 255 
9.70673 -4.80009 2.06569 61 78 138 255 
9.70348 -4.78558 1.97402 49 103 142 255 
9.77926 -4.82736 1.88181 46 110 142 255 
9.72 -4.80645 1.76403 31 153 138 255 
9.71462 -4.81453 1.66296 31 152 139 255 
9.72412 -4.79787 1.57414 31 160 136 255 
9.7337 -4.80698 1.46971 31 154 138 255 
9.73179 -4.81862 1.36609 31 154 138 255 
9.7177 -4.82028 1.2647 32 146 140 255 
9.70546 -4.78866 1.17379 50 102 142 255 
9.72319 -4.80813 1.07312 33 144 141 255 
9.72939 -4.81954 0.970932 31 149 139 255 
9.74082 -4.8381 0.871254 46 110 142 255 
9.75229 -4.81388 0.785303 30 155 138 255 
9.74169 -4.81939 0.681892 31 153 138 255 
9.76079 -4.84146 0.580546 41 122 142 255 
9.75381 -4.84878 0.477483 45 113 142 255 
9.75892 -4.82139 0.391524 31 149 139 255 
9.76021 -4.83279 0.289 34 139 141 255 
9.75087 -4.83866 0.186205 38 130 142 255 
9.75312 -4.85268 0.0855604 58 83 139 255 
9.77246 -4.83019 -0.00190258 51 98 141 255 
9.77853 -4.84612 -0.104765 35 136 142 255 
9.77932 -4.85703 -0.205844 39 128 142 255 
9.78631 -4.87345 -0.309195 39 128 142 255 
9.79037 -4.84542 -0.396739 34 140 141 255 
9.76446 -4.84339 -0.496858 38 130 142 255 
9.78779 -4.86337 -0.601485 40 124 142 255 
9.77711 -4.871 -0.704464 42 120 142 255 
9.78817 -4.84645 -0.7925 56 89 140 255 
9.89387 -4.91188 -0.904269 41 121 142 255 
9.93237 -4.9417 -1.01352 54 92 141 255 
9.66247 -4.81388 -1.08892 71 42 122 255 
9.06067 -4.49214 -1.10221 64 70 136 255 
8.25531 -4.1002 -1.09259 70 50 126 255 
7.72982 -3.84753 -1.1061 68 58 131 255 
7.29364 -3.6369 -1.12222 64 69 136 255 
6.89538 -3.42312 -1.12443 62 73 137 255 
6.48575 -3.22413 -1.12644 59 82 139 255 
6.14272 -3.05889 -1.13234 59 82 139 255 
5.80931 -2.89675 -1.13528 56 88 140 255 
5.57383 -2.77189 -1.14251 53 95 141 255 
5.30926 -2.64275 -1.14421 52 97 141 255 
5.09785 -2.53858 -1.15555 51 99 141 255 
4.88613 -2.43535 -1.16342 60 80 139 255 
4.70073 -2.34077 -1.16515 52 96 141 255 
4.5108 -2.24728 -1.16719 53 94 141 255 
4.32621 -2.15621 -1.16852 64 69 136 255 
4.17831 -2.08074 -1.17765 64 70 136 255 
4.01329 -2.00281 -1.17251 62 74 137 255 
3.89284 -1.9428 -1.18043 62 76 138 255 
3.75812 -1.87389 -1.18356 64 70 136 255 
3.62318 -1.80272 -1.18569 66 65 134 255 
8.57997 -4.30462 2.88357 58 84 140 255 
8.72915 -4.3701 2.82318 47 108 142 255 
8.82218 -4.41272 2.74857 46 109 142 255 
8.89151 -4.44762 2.66949 62 73 137 255 
9.25002 -4.63474 2.68534 63 71 136 255 
10.1201 -5.06868 2.81783 69 53 129 255 
9.54038 -4.78028 2.54809 54 93 141 255 
9.48867 -4.75666 2.43097 45 112 142 255 
30.4349 -15.2428 7.50879 70 11 94 255 
9.66882 -4.84474 2.2731 72 31 112 255 
9.69907 -4.86615 2.17422 50 101 142 255 
9.70343 -4.87279 2.07131 52 97 141 255 
9.71615 -4.86618 1.98264 48 105 142 255 
9.8076 -4.91642 1.89303 46 110 142 255 
9.70885 -4.8753 1.7674 36 134 142 255 
9.72374 -4.8936 1.66964 36 134 142 255 
9.73431 -4.87739 1.58061 32 146 140 255 
9.75185 -4.89061 1.47696 33 145 140 255 
9.718 -4.88626 1.36833 39 128 142 255 
9.73407 -4.90305 1.27072 41 122 142 255 
9.691 -4.85569 1.17563 52 97 141 255 
9.72552 -4.88377 1.07666 34 141 141 255 
9.74057 -4.89974 0.975029 41 123 142 255 
9.74121 -4.91304 0.873969 60 79 138 255 
9.72881 -4.87676 0.785807 47 107 142 255 
9.73869 -4.89252 0.68377 47 108 142 255 
9.76479 -4.91833 0.582568 46 109 142 255 
9.77292 -4.9333 0.479892 48 105 142 255 
9.75774 -4.89552 0.392675 40 124 142 255 
9.78485 -4.91998 0.290618 41 121 142 255 
9.77725 -4.92675 0.187282 44 114 142 255 
9.71691 -4.90928 0.0855054 69 53 129 255 
9.75337 -4.89545 -0.00190468 50 102 142 255 
9.75218 -4.90782 -0.104804 42 120 142 255 
9.75826 -4.92145 -0.206032 47 107 142 255 
9.76246 -4.93657 -0.309393 66 64 134 255 
9.77028 -4.91033 -0.397139 42 120 142 255 
9.73456 -4.90321 -0.496858 57 85 140 255 
9.74528 -4.91704 -0.600715 67 61 132 255 
9.74615 -4.93045 -0.7044 72 35 116 255 
9.78409 -4.91941 -0.794599 60 80 139 255 
9.90003 -4.99089 -0.907614 39 126 142 255 
9.94986 -5.0268 -1.01843 59 82 139 255 
9.68513 -4.89958 -1.09485 70 50 126 255 
9.03915 -4.55078 -1.10297 59 81 139 255 
8.21581 -4.14362 -1.09071 70 51 127 255 
7.72023 -3.90205 -1.10813 67 61 132 255 
7.27825 -3.68516 -1.12331 64 69 136 255 
6.86983 -3.46314 -1.12371 64 69 136 255 
6.46585 -3.26387 -1.12644 59 82 139 255 
6.13528 -3.10231 -1.13446 56 89 140 255 
5.80373 -2.93857 -1.13769 55 90 140 255 
5.55759 -2.80648 -1.14269 52 97 141 255 
5.30346 -2.6806 -1.14648 51 99 141 255 
5.07693 -2.56715 -1.15435 50 100 142 255 
4.85975 -2.45955 -1.16071 59 82 139 255 
4.67234 -2.36252 -1.16168 50 101 142 255 
4.50041 -2.27667 -1.16809 52 96 141 255 
4.3155 -2.18403 -1.16922 62 76 138 255 
4.17065 -2.10897 -1.17912 63 72 137 255 
4.01905 -2.03658 -1.17782 62 74 137 255 
3.86879 -1.96054 -1.17676 63 72 137 255 
3.74913 -1.89822 -1.18438 61 77 138 255 
3.59064 -1.8141 -1.17866 65 66 135 255 
8.56961 -4.36544 2.88903 59 82 139 255 
8.74242 -4.44403 2.83624 54 92 141 255 
8.78119 -4.45979 2.74428 53 95 141 255 
8.87266 -4.50646 2.67208 58 83 139 255 
9.13169 -4.64576 2.65921 53 95 141 255 
9.06647 -4.61075 2.53227 62 76 138 255 
10.0986 -5.13776 2.70556 68 58 131 255 
9.35767 -4.76306 2.40485 54 92 141 255 
30.158 -15.3363 7.46356 71 13 96 255 
9.71654 -4.94347 2.29141 65 66 135 255 
9.68475 -4.93358 2.17775 49 104 142 255 
9.69697 -4.94428 2.07637 58 84 140 255 
9.7282 -4.94711 1.99125 50 102 142 255 
9.75705 -4.96623 1.88912 56 89 140 255 
9.75526 -4.97378 1.78137 33 143 141 255 
9.77187 -4.9932 1.68313 34 140 141 255 
9.77388 -4.97248 1.59196 35 137 142 255 
9.7667 -4.97328 1.4838 34 139 141 255 
9.77709 -4.99136 1.38094 33 144 141 255 
9.77101 -4.99706 1.27952 35 138 141 255 
9.69559 -4.93265 1.17983 59 82 139 255 
9.73792 -4.96505 1.08139 34 139 141 255 
9.78217 -4.99611 0.982243 33 145 140 255 
9.77743 -5.00679 0.879958 39 126 142 255 
9.7947 -4.98522 0.793585 34 141 141 255 
9.78317 -4.99028 0.68903 33 145 140 255 
9.78422 -5.00362 0.585548 34 140 141 255 
9.79137 -5.01824 0.482301 38 130 142 255 
9.80232 -4.9934 0.395694 36 135 142 255 
9.79632 -5.00129 0.291864 38 129 142 255 
9.79223 -5.00987 0.188154 36 135 142 255 
9.73021 -4.99117 0.0858903 67 61 132 255 
9.73116 -4.95929 -0.00190625 50 100 142 255 
9.82607 -5.0208 -0.105927 70 48 126 255 
9.832 -5.03455 -0.208238 70 48 126 255 
9.75867 -5.01007 -0.310241 70 7 90 255 
9.764 -4.98245 -0.398118 70 8 92 255 
9.77544 -4.99924 -0.500501 70 10 93 255 
9.85356 -5.04776 -0.609288 70 7 90 255 
9.84443 -5.05627 -0.713732 70 8 92 255 
9.79547 -5.00067 -0.798 55 90 140 255 
9.91802 -5.07652 -0.912101 40 124 142 255 
10.0916 -5.17638 -1.03617 52 97 141 255 
9.68851 -4.97619 -1.09866 71 45 123 255 
9.00221 -4.60163 -1.10188 69 53 129 255 
8.23089 -4.21478 -1.09612 68 57 131 255 
7.70761 -3.95523 -1.10978 67 61 132 255 
7.25551 -3.72975 -1.12331 64 69 136 255 
6.84845 -3.50522 -1.12371 62 76 138 255 
6.44922 -3.30528 -1.12706 62 74 137 255 
6.13193 -3.14801 -1.13739 56 89 140 255 
5.8145 -2.98899 -1.14338 56 89 140 255 
5.54027 -2.84053 -1.14269 53 95 141 255 
5.28953 -2.71443 -1.14705 52 97 141 255 
5.08026 -2.6081 -1.15873 51 99 141 255 
4.85413 -2.49424 -1.163 59 81 139 255 
4.67687 -2.40095 -1.16644 52 96 141 255 
4.50108 -2.31181 -1.17193 50 100 142 255 
4.30374 -2.21135 -1.16969 62 76 138 255 
4.17661 -2.14426 -1.1845 62 73 137 255 
4.01077 -2.06342 -1.17908 59 81 139 255 
3.85755 -1.98468 -1.17703 61 77 138 255 
3.73998 -1.92251 -1.18519 62 74 137 255 
3.6042 -1.8488 -1.18682 66 63 133 255 
8.75193 -4.52617 2.9598 61 78 138 255 
8.85072 -4.56764 2.88041 56 89 140 255 
8.87524 -4.57627 2.78239 59 82 139 255 
9.02167 -4.652 2.7255 69 56 130 255 
9.09699 -4.6986 2.65746 53 95 141 255 
9.06991 -4.68276 2.54121 45 112 142 255 
10.6157 -5.48307 2.85305 61 77 138 255 
10.9485 -5.65765 2.82255 67 62 133 255 
27.016 -13.9478 6.70701 71 17 100 255 
9.6895 -5.0048 2.29223 51 99 141 255 
9.66475 -4.99832 2.18011 65 68 135 255 
15.1352 -7.83449 3.25107 72 40 120 255 
9.71078 -5.01347 1.99394 60 79 138 255 
9.73514 -5.03052 1.89082 50 101 142 255 
9.76663 -5.05533 1.78907 30 155 138 255 
9.77 -5.06809 1.68813 31 156 137 255 
9.78275 -5.05279 1.59842 31 160 136 255 
9.76857 -5.04996 1.48876 31 154 138 255 
9.76213 -5.05948 1.38319 30 155 138 255 
9.75603 -5.06516 1.2816 31 148 140 255 
9.69075 -5.00527 1.18296 61 78 138 255 
9.74086 -5.04209 1.08513 33 142 141 255 
9.76636 -5.06383 0.983758 31 152 139 255 
9.76156 -5.07451 0.881315 33 142 141 255 
9.78431 -5.05576 0.795241 32 147 140 255 
9.77452 -5.06168 0.690596 30 155 138 255 
9.77726 -5.07598 0.586984 33 144 141 255 
9.77812 -5.08744 0.483176 35 137 142 255 
9.80611 -5.07136 0.397096 31 149 139 255 
9.78764 -5.07281 0.292528 33 143 141 255 
9.80567 -5.0929 0.18901 32 147 140 255 
9.7464 -5.07526 0.0863065 66 65 134 255 
9.79203 -5.06624 -0.00192423 48 106 142 255 
9.82703 -5.09758 -0.106272 70 48 126 255 
9.83286 -5.11138 -0.208916 71 46 124 255 
9.78714 -5.10081 -0.312135 70 10 93 255 
9.78027 -5.06663 -0.400042 70 10 93 255 
9.81551 -5.09595 -0.504144 70 8 92 255 
9.81177 -5.1026 -0.608628 70 7 90 255 
9.77429 -5.09628 -0.7109 70 7 90 255 
9.7956 -5.07674 -0.800533 59 81 139 255 
9.92825 -5.15888 -0.915936 42 119 142 255 
10.1135 -5.26626 -1.04172 51 99 141 255 
9.66045 -5.03692 -1.09896 71 46 124 255 
8.99498 -4.66777 -1.10448 70 48 126 255 
8.22337 -4.27482 -1.09859 69 53 129 255 
7.6788 -4.00016 -1.10915 69 55 129 255 
7.24566 -3.78107 -1.12536 63 71 136 255 
6.85316 -3.56086 -1.12805 63 71 136 255 
6.44898 -3.35528 -1.13059 58 83 139 255 
6.1125 -3.18557 -1.13739 53 94 141 255 
5.80129 -3.02734 -1.14441 57 85 140 255 
5.53931 -2.8831 -1.14612 54 93 141 255 
5.26668 -2.74366 -1.14572 51 98 141 255 
5.05374 -2.63379 -1.15634 48 105 142 255 
4.8292 -2.519 -1.16071 60 79 138 255 
4.65945 -2.42825 -1.1658 54 92 141 255 
4.49718 -2.34479 -1.17464 50 102 142 255 
4.32026 -2.25345 -1.17792 58 83 139 255 
4.16165 -2.16895 -1.18401 63 72 137 255 
3.99804 -2.08799 -1.17908 62 73 137 255 
3.84359 -2.00742 -1.1765 61 78 138 255 
3.71446 -1.93829 -1.18085 63 71 136 255 
3.59364 -1.87132 -1.1871 68 58 131 255 
10.3012 -5.40778 3.49492 71 46 124 255 
9.08207 -4.75782 2.96515 69 56 130 255 
9.18668 -4.80844 2.88922 58 84 140 255 
10.1738 -5.32535 3.08337 72 28 110 255 
9.09713 -4.76961 2.666 61 77 138 255 
9.67188 -5.06896 2.71854 62 74 137 255 
9.77468 -5.1249 2.63542 72 24 106 255 
10.8825 -5.70842 2.81451 69 53 129 255 
10.0679 -5.27634 2.50746 72 28 110 255 
9.65948 -5.06461 2.29244 67 61 132 255 
14.9939 -7.87136 3.39305 70 50 126 255 
15.1251 -7.94731 3.25931 72 27 109 255 
22.1985 -11.6337 4.57266 72 28 110 255 
22.2234 -11.657 4.33018 72 35 116 255 
9.75115 -5.12342 1.79196 43 117 142 255 
9.76933 -5.14406 1.69344 33 145 140 255 
9.7761 -5.12559 1.60244 31 159 136 255 
9.77074 -5.1273 1.49386 32 147 140 255 
9.74583 -5.12714 1.38531 34 141 141 255 
9.76783 -5.14761 1.28728 34 140 141 255 
9.69244 -5.08172 1.18695 66 65 134 255 
9.7485 -5.12213 1.08946 33 142 141 255 
9.75891 -5.13619 0.986162 35 136 142 255 
9.75757 -5.14873 0.883791 39 128 142 255 
9.769 -5.12404 0.796538 47 108 142 255 
9.77862 -5.14014 0.6931 33 144 141 255 
9.77332 -5.15031 0.588634 37 131 142 255 
9.78912 -5.16974 0.485279 43 116 142 255 
9.79339 -5.14118 0.397851 37 133 142 255 
9.78552 -5.14813 0.293403 39 127 142 255 
9.79547 -5.16417 0.18942 41 122 142 255 
9.75309 -5.15506 0.0866442 62 74 137 255 
9.79175 -5.1425 -0.00193033 48 105 142 255 
9.80087 -5.16057 -0.10633 70 7 90 255 
9.80662 -5.17442 -0.209029 70 10 93 255 
9.9147 -5.2449 -0.317224 69 5 89 255 
9.90378 -5.20795 -0.406394 70 7 90 255 
9.88922 -5.2115 -0.509563 69 5 89 255 
9.89419 -5.22283 -0.615717 69 5 89 255 
9.92188 -5.25092 -0.723965 69 5 89 255 
9.80928 -5.16043 -0.804224 57 85 140 255 
9.92814 -5.23644 -0.918873 43 117 142 255 
10.2422 -5.41338 -1.05837 60 80 139 255 
9.6276 -5.09517 -1.09876 71 47 125 255 
8.98112 -4.73075 -1.10632 70 48 126 255 
8.19348 -4.32334 -1.09812 70 52 128 255 
7.65586 -4.04813 -1.1094 69 53 129 255 
7.23808 -3.83381 -1.12781 63 72 137 255 
6.8198 -3.59685 -1.12617 61 78 138 255 
6.43176 -3.39663 -1.13121 58 83 139 255 
6.10592 -3.22994 -1.13983 58 83 139 255 
5.78957 -3.06657 -1.14579 56 88 140 255 
5.52586 -2.91933 -1.14702 53 94 141 255 
5.24975 -2.77592 -1.14572 52 97 141 255 
5.02622 -2.65879 -1.15376 50 100 142 255 
4.83353 -2.55911 -1.16551 60 80 139 255 
4.65827 -2.4641 -1.16926 53 94 141 255 
4.48271 -2.37234 -1.17464 51 98 141 255 
4.29604 -2.27446 -1.1751 58 83 139 255 
4.14655 -2.19354 -1.18352 63 71 136 255 
3.9843 -2.11203 -1.17883 61 77 138 255 
3.84058 -2.03594 -1.17938 62 73 137 255 
3.69484 -1.95699 -1.17841 64 69 136 255 
3.59906 -1.90231 -1.19272 63 71 136 255 
9.45897 -5.0399 3.21959 67 61 132 255 
9.50394 -5.05339 3.11295 51 98 141 255 
9.72102 -5.16436 3.06718 63 72 137 255 
9.4347 -5.01249 2.86865 57 86 140 255 
9.05146 -4.8167 2.66122 50 100 142 255 
9.65173 -5.13414 2.72168 66 65 134 255 
9.75764 -5.19255 2.63937 45 112 142 255 
12.1353 -6.46084 3.14872 72 20 103 255 
10.0198 -5.32976 2.50358 55 91 141 255 
14.8911 -7.92451 3.54551 72 40 120 255 
14.8397 -7.90696 3.36909 70 52 128 255 
15.4886 -8.25999 3.3485 72 32 113 255 
15.6518 -8.32555 3.23457 72 23 105 255 
22.1819 -11.8094 4.33613 72 40 120 255 
9.73434 -5.19105 1.79469 42 119 142 255 
9.78989 -5.23186 1.70253 42 118 142 255 
9.7733 -5.20082 1.60718 41 122 142 255 
9.78895 -5.21371 1.50151 40 124 142 255 
9.79908 -5.23217 1.39741 40 124 142 255 
9.78949 -5.23603 1.29434 41 123 142 255 
9.7111 -5.16772 1.19309 67 62 133 255 
9.76079 -5.20527 1.09439 31 148 140 255 
9.78519 -5.22694 0.992041 39 128 142 255 
9.80224 -5.24944 0.890738 37 131 142 255 
9.80869 -5.22185 0.802371 41 122 142 255 
9.79268 -5.22447 0.696356 45 112 142 255 
9.79965 -5.24126 0.592145 51 99 141 255 
9.82502 -5.26605 0.488651 50 101 142 255 
9.82605 -5.23548 0.400475 41 121 142 255 
9.81107 -5.23868 0.295127 39 127 142 255 
9.80415 -5.24587 0.190207 38 130 142 255 
9.74331 -5.22663 0.0868406 64 70 136 255 
9.78648 -5.21659 -0.00193557 51 99 141 255 
9.81312 -5.24418 -0.10681 70 7 90 255 
9.87428 -5.28783 -0.211159 70 7 90 255 
9.79778 -5.26025 -0.31451 70 7 90 255 
9.84608 -5.25497 -0.405341 70 10 93 255 
9.82887 -5.257 -0.508106 70 7 90 255 
9.84875 -5.27637 -0.614893 69 4 87 255 
9.81387 -5.27109 -0.71843 70 8 92 255 
9.8355 -5.25153 -0.809 58 83 139 255 
9.92922 -5.31513 -0.921974 39 127 142 255 
10.2219 -5.48318 -1.05974 68 59 132 255 
9.58125 -5.14615 -1.09705 71 42 122 255 
9.02907 -4.82702 -1.11586 66 65 134 255 
8.16855 -4.37448 -1.09836 69 53 129 255 
7.61865 -4.08846 -1.10762 70 50 126 255 
7.231 -3.88706 -1.13041 66 65 134 255 
6.79499 -3.63722 -1.12574 62 76 138 255 
6.40993 -3.43557 -1.13105 58 84 140 255 
6.08773 -3.26828 -1.14015 57 86 140 255 
5.77151 -3.1025 -1.14596 58 83 139 255 
5.50871 -2.95365 -1.1472 51 98 141 255 
5.24213 -2.81319 -1.14781 53 94 141 255 
5.02017 -2.69515 -1.15614 50 101 142 255 
4.83325 -2.59705 -1.16926 58 84 140 255 
4.66198 -2.50279 -1.17403 51 99 141 255 
4.45949 -2.39519 -1.17238 49 103 142 255 
4.28714 -2.30354 -1.17651 60 80 139 255 
4.13131 -2.21802 -1.18303 62 73 137 255 
3.96871 -2.13506 -1.17807 62 73 137 255 
3.84586 -2.06907 -1.18488 62 73 137 255 
3.69803 -1.98783 -1.18329 63 72 137 255 
3.56702 -1.91347 -1.18597 65 66 135 255 
13.1658 -7.11903 4.4961 72 29 111 255 
9.58096 -5.17 3.14851 44 115 142 255 
10.0359 -5.41088 3.17697 71 42 122 255 
9.91978 -5.3485 3.02606 62 73 137 255 
8.9272 -4.82109 2.63334 52 96 141 255 
9.73276 -5.25411 2.75357 65 66 135 255 
9.81632 -5.30132 2.66399 63 72 137 255 
10.0218 -5.41478 2.6089 66 63 133 255 
9.96802 -5.38093 2.49884 68 59 132 255 
14.8431 -8.0162 3.54572 72 26 108 255 
14.4977 -7.8393 3.30229 72 36 117 255 
10.8971 -5.8975 2.36363 72 28 110 255 
10.9864 -5.93065 2.2779 72 35 116 255 
22.0692 -11.9237 4.3283 72 38 119 255 
9.76481 -5.28451 1.80626 37 132 142 255 
9.79323 -5.31115 1.70875 33 145 140 255 
9.79432 -5.28937 1.61595 33 145 140 255 
9.79775 -5.29582 1.50781 32 147 140 255 
9.78773 -5.30354 1.40041 34 141 141 255 
9.79122 -5.31448 1.29886 31 148 140 255 
9.73257 -5.25602 1.19967 61 78 138 255 
9.76542 -5.28495 1.09852 34 141 141 255 
9.80109 -5.31299 0.99694 31 148 140 255 
9.80401 -5.32805 0.893852 32 146 140 255 
9.81244 -5.30137 0.805324 33 144 141 255 
9.80608 -5.30917 0.699612 31 150 139 255 
9.81382 -5.32654 0.594965 32 146 140 255 
9.8206 -5.34151 0.490052 33 142 141 255 
9.83506 -5.31802 0.402164 31 150 139 255 
9.81477 -5.31831 0.296215 33 143 141 255 
9.81747 -5.33074 0.191096 32 146 140 255 
9.77517 -5.32121 0.0874139 52 97 141 255 
9.79475 -5.29843 -0.0019436 51 98 141 255 
9.81416 -5.32241 -0.107175 69 4 87 255 
9.85834 -5.35739 -0.211517 70 7 90 255 
9.861 -5.37239 -0.317592 69 5 89 255 
9.84792 -5.33385 -0.406757 70 11 94 255 
9.83506 -5.33818 -0.510109 70 7 90 255 
9.889 -5.37629 -0.619453 69 5 89 255 
9.85758 -5.37275 -0.724029 69 4 87 255 
9.83291 -5.32793 -0.811461 59 82 139 255 
9.94546 -5.4026 -0.926543 39 126 142 255 
10.2493 -5.57913 -1.06611 68 59 132 255 
9.62463 -5.24579 -1.10568 71 44 122 255 
8.97482 -4.86905 -1.11283 61 77 138 255 
8.18605 -4.4487 -1.10436 67 62 133 255 
7.63871 -4.1598 -1.11423 69 53 129 255 
7.20179 -3.92851 -1.12959 63 72 137 255 
6.78211 -3.68404 -1.12733 61 78 138 255 
6.40088 -3.48144 -1.1332 56 89 140 255 
6.07189 -3.30793 -1.14097 57 86 140 255 
5.78523 -3.15579 -1.15251 55 90 140 255 
5.519 -3.00291 -1.15316 52 96 141 255 
5.23771 -2.85235 -1.15065 52 97 141 255 
4.99407 -2.72074 -1.15395 52 97 141 255 
4.81808 -2.62713 -1.16947 56 88 140 255 
4.65511 -2.53602 -1.17619 48 106 142 255 
4.44043 -2.42018 -1.17125 51 98 141 255 
4.29085 -2.33957 -1.18144 61 78 138 255 
4.11507 -2.24194 -1.1823 63 71 136 255 
3.97761 -2.17142 -1.18465 63 72 137 255 
3.82123 -2.08615 -1.18122 62 73 137 255 
3.70435 -2.02062 -1.18926 63 72 137 255 
3.57797 -1.9477 -1.19356 64 70 136 255 
15.0867 -8.2777 5.1693 72 31 112 255 
9.5162 -5.2107 3.13767 46 110 142 255 
9.92311 -5.4289 3.15173 68 59 132 255 
10.0791 -5.5145 3.08493 61 78 138 255 
8.88472 -4.8688 2.62957 57 86 140 255 
9.62289 -5.2713 2.73158 69 55 129 255 
9.79896 -5.36986 2.66817 59 82 139 255 
11.9765 -6.56616 3.12818 72 32 113 255 
14.4894 -7.93687 3.64443 67 62 133 255 
14.9189 -8.17579 3.57575 72 24 106 255 
14.1605 -7.76963 3.23628 72 32 113 255 
10.958 -6.01768 2.3848 66 63 133 255 
10.8661 -5.95211 2.26049 56 89 140 255 
10.8695 -5.9591 2.1389 67 61 132 255 
9.77978 -5.37045 1.81509 38 129 142 255 
9.78297 -5.38353 1.71269 31 150 139 255 
9.78598 -5.36269 1.61997 31 153 138 255 
9.77637 -5.36203 1.50956 32 147 140 255 
9.77761 -5.37593 1.40366 31 148 140 255 
9.79149 -5.39266 1.30326 33 143 141 255 
9.77773 -5.35817 1.20927 54 93 141 255 
9.78951 -5.37591 1.10492 34 141 141 255 
9.80322 -5.39223 1.0005 34 140 141 255 
9.79906 -5.40351 0.896407 35 136 142 255 
9.81734 -5.3821 0.808421 33 142 141 255 
9.79694 -5.38221 0.701303 34 141 141 255 
9.80282 -5.3987 0.596295 36 134 142 255 
9.81213 -5.41518 0.491278 40 124 142 255 
9.81538 -5.38547 0.402703 34 140 141 255 
9.81349 -5.39577 0.29717 37 133 142 255 
9.80734 -5.40342 0.191541 39 128 142 255 
9.78523 -5.40478 0.0877988 51 98 141 255 
9.80413 -5.38153 -0.00195198 52 96 141 255 
9.86104 -5.42639 -0.108048 70 7 90 255 
9.85418 -5.43371 -0.212139 70 7 90 255 
9.85409 -5.4473 -0.31844 69 5 89 255 
9.81676 -5.39513 -0.406829 70 7 90 255 
9.81262 -5.40421 -0.510656 70 7 90 255 
9.83484 -5.42529 -0.618135 70 7 90 255 
9.84538 -5.44473 -0.725574 69 5 89 255 
9.8481 -5.4146 -0.815441 61 78 138 255 
9.95489 -5.4871 -0.930541 40 124 142 255 
10.2384 -5.65491 -1.06856 63 71 136 255 
9.62883 -5.32497 -1.1099 70 48 126 255 
8.94565 -4.92451 -1.11293 68 58 131 255 
8.17512 -4.50795 -1.1066 68 58 131 255 
7.61999 -4.21043 -1.11525 70 51 127 255 
7.17929 -3.97358 -1.12986 64 70 136 255 
6.77757 -3.73562 -1.13036 61 78 138 255 
6.37248 -3.51683 -1.13198 56 88 140 255 
6.05493 -3.34703 -1.14162 55 91 141 255 
5.76231 -3.18932 -1.15182 57 86 140 255 
5.51855 -3.0467 -1.15695 50 101 142 255 
5.22269 -2.88586 -1.15122 51 99 141 255 
4.99187 -2.75939 -1.15734 49 103 142 255 
4.807 -2.65948 -1.17072 54 92 141 255 
4.6369 -2.56312 -1.17554 50 100 142 255 
4.44425 -2.45775 -1.17622 55 90 140 255 
4.28577 -2.37103 -1.18403 62 76 138 255 
4.11481 -2.27465 -1.18621 61 77 138 255 
3.97521 -2.20188 -1.18794 62 73 137 255 
3.82862 -2.12078 -1.1875 60 79 138 255 
3.69525 -2.04518 -1.19034 63 72 137 255 
3.56007 -1.96637 -1.1916 63 71 136 255 
14.6917 -8.17866 5.05106 68 57 131 255 
13.1403 -7.30026 4.34729 71 42 122 255 
9.64621 -5.35457 3.07416 58 83 139 255 
9.98175 -5.54108 3.06548 52 96 141 255 
10.094 -5.6123 2.99761 65 68 135 255 
11.7973 -6.55686 3.36018 71 42 122 255 
10.2274 -5.68654 2.79429 68 59 132 255 
9.84982 -5.47907 2.58144 68 58 131 255 
14.6436 -8.13853 3.6957 67 61 132 255 
14.7171 -8.183 3.53934 64 70 136 255 
14.953 -8.32423 3.42901 69 55 129 255 
10.9594 -6.10632 2.39323 69 56 130 255 
10.8397 -6.02441 2.26264 68 59 132 255 
14.7993 -8.23208 2.92209 71 42 122 255 
9.78975 -5.45438 1.82312 33 142 141 255 
9.77133 -5.4555 1.71648 41 123 142 255 
9.78489 -5.44043 1.62529 35 138 141 255 
9.77792 -5.44119 1.51493 40 124 142 255 
9.78517 -5.45854 1.40952 42 120 142 255 
9.82411 -5.48946 1.31206 44 113 142 255 
9.78724 -5.44173 1.21455 48 105 142 255 
9.79285 -5.45622 1.10905 35 138 141 255 
9.80474 -5.4717 1.00407 42 118 142 255 
9.8127 -5.48982 0.900719 44 113 142 255 
9.82161 -5.46308 0.811518 44 114 142 255 
9.82911 -5.47867 0.705999 41 121 142 255 
9.84535 -5.50113 0.600924 40 125 142 255 
9.8441 -5.51189 0.494563 42 118 142 255 
9.83716 -5.47622 0.404968 44 113 142 255 
9.86051 -5.50068 0.29961 44 113 142 255 
9.86913 -5.51667 0.193405 40 124 142 255 
9.8112 -5.49796 0.0883328 49 103 142 255 
9.81723 -5.46737 -0.00196123 52 96 141 255 
9.86598 -5.50825 -0.108471 70 7 90 255 
9.88871 -5.53215 -0.213609 70 7 90 255 
9.90941 -5.55754 -0.321323 70 7 90 255 
9.8786 -5.50832 -0.410785 70 7 90 255 
9.90834 -5.53644 -0.517395 69 5 89 255 
9.83622 -5.50504 -0.620333 70 7 90 255 
9.85443 -5.52896 -0.728727 70 7 90 255 
9.86521 -5.5031 -0.819638 61 78 138 255 
9.95409 -5.56656 -0.933641 41 123 142 255 
10.1896 -5.70984 -1.06711 66 63 133 255 
9.58209 -5.37616 -1.10829 71 47 125 255 
8.95692 -5.00257 -1.11813 64 70 136 255 
8.16031 -4.5653 -1.10836 67 62 133 255 
7.59315 -4.25662 -1.11512 70 52 128 255 
7.16945 -4.0258 -1.13218 62 73 137 255 
6.76143 -3.781 -1.13152 58 84 140 255 
6.36371 -3.56311 -1.13428 55 91 141 255 
6.04289 -3.38895 -1.14325 58 84 140 255 
5.75637 -3.23233 -1.15457 57 86 140 255 
5.49546 -3.0781 -1.15604 50 101 142 255 
5.2203 -2.92649 -1.15463 48 105 142 255 
4.97997 -2.79285 -1.15853 49 104 142 255 
4.79742 -2.69275 -1.17238 51 98 141 255 
4.62449 -2.59343 -1.17641 50 101 142 255 
4.43588 -2.48878 -1.17802 54 92 141 255 
4.26944 -2.39633 -1.18356 62 76 138 255 
4.0957 -2.29701 -1.18475 60 80 139 255 
3.965 -2.22813 -1.18895 62 76 138 255 
3.82816 -2.15133 -1.19143 60 80 139 255 
3.6541 -2.05179 -1.18112 63 72 137 255 
3.54627 -1.98724 -1.19103 66 65 134 255 
14.6562 -8.27712 5.05624 72 24 106 255 
12.7739 -7.19963 4.24061 66 64 134 255 
9.90107 -5.57579 3.16623 56 89 140 255 
9.90969 -5.5809 3.05381 69 53 129 255 
10.0796 -5.68554 3.00364 70 52 128 255 
9.80684 -5.52959 2.80285 72 36 117 255 
10.144 -5.72195 2.78105 58 84 140 255 
10.3644 -5.84888 2.72566 65 66 135 255 
10.0119 -5.64504 2.53546 72 38 119 255 
14.5976 -8.2342 3.52268 66 63 133 255 
10.6336 -6.00545 2.4469 64 70 136 255 
10.7507 -6.07678 2.35576 60 80 139 255 
10.8393 -6.11158 2.27036 58 84 140 255 
10.9019 -6.15209 2.15999 61 78 138 255 
9.80336 -5.54106 1.83195 35 136 142 255 
9.81594 -5.55968 1.73028 33 142 141 255 
9.82029 -5.53926 1.63678 34 139 141 255 
9.81511 -5.54103 1.52593 34 140 141 255 
9.83179 -5.56392 1.42113 34 140 141 255 
9.82827 -5.57119 1.31715 34 141 141 255 
9.86451 -5.5642 1.22835 33 143 141 255 
9.81377 -5.54705 1.11526 35 136 142 255 
9.84639 -5.57445 1.01181 33 143 141 255 
9.83864 -5.58387 0.906229 33 144 141 255 
9.86348 -5.56589 0.817784 33 142 141 255 
9.84917 -5.56933 0.709881 31 153 138 255 
9.85485 -5.58605 0.603585 32 146 140 255 
9.84224 -5.59045 0.496183 33 145 140 255 
9.86603 -5.57186 0.407556 32 147 140 255 
9.87182 -5.58669 0.300989 33 144 141 255 
9.86554 -5.59439 0.194004 33 145 140 255 
9.82422 -5.58474 0.0887569 43 116 142 255 
9.85664 -5.56882 -0.00197589 54 93 141 255 
9.88855 -5.60071 -0.109094 69 5 89 255 
9.92762 -5.63417 -0.215193 69 5 89 255 
9.89685 -5.63059 -0.32203 70 7 90 255 
9.89855 -5.59933 -0.413036 69 5 89 255 
9.87766 -5.5991 -0.517577 70 8 92 255 
9.9846 -5.66881 -0.631872 70 7 90 255 
9.829 -5.59426 -0.729371 69 5 89 255 
9.8599 -5.57974 -0.822026 60 79 138 255 
9.96916 -5.65556 -0.938292 41 121 142 255 
10.118 -5.75158 -1.06329 69 55 129 255 
9.55843 -5.44027 -1.1094 70 51 127 255 
8.93211 -5.06087 -1.11889 68 57 131 255 
8.14337 -4.62166 -1.10989 69 56 130 255 
7.58413 -4.31294 -1.11766 70 52 128 255 
7.14031 -4.06727 -1.1315 65 68 135 255 
6.67872 -3.78873 -1.12154 69 55 129 255 
6.35204 -3.60795 -1.13612 56 88 140 255 
6.02798 -3.42938 -1.14439 55 90 140 255 
5.74841 -3.27441 -1.15699 56 88 140 255 
5.47048 -3.10836 -1.15478 50 101 142 255 
5.21846 -2.96769 -1.15823 49 103 142 255 
4.96274 -2.82335 -1.15853 53 95 141 255 
4.78165 -2.72262 -1.17259 55 91 141 255 
4.61274 -2.62417 -1.17749 53 95 141 255 
4.42222 -2.51692 -1.17847 53 94 141 255 
4.23946 -2.41383 -1.17933 61 77 138 255 
4.08743 -2.32545 -1.18646 66 65 134 255 
3.9605 -2.25769 -1.19173 60 79 138 255 
3.79728 -2.16474 -1.18593 62 74 137 255 
3.66987 -2.09037 -1.19034 61 78 138 255 
3.53651 -2.01039 -1.19188 64 69 136 255 
9.96972 -5.71139 3.45148 68 58 131 255 
12.7762 -7.30458 4.25617 70 48 126 255 
12.7122 -7.262 4.07938 70 48 126 255 
12.9982 -7.42568 4.01953 71 45 123 255 
10.0286 -5.73815 2.99887 72 41 121 255 
9.70281 -5.54968 2.7828 72 26 108 255 
11.6284 -6.65358 3.19911 72 41 121 255 
11.934 -6.8315 3.14939 69 55 129 255 
9.98215 -5.70927 2.53675 56 88 140 255 
14.5238 -8.31049 3.51712 72 22 104 255 
10.5056 -6.01843 2.42588 60 80 139 255 
10.5633 -6.05664 2.32278 58 84 140 255 
10.507 -6.00947 2.20843 60 80 139 255 
14.1429 -8.09584 2.81191 71 45 123 255 
9.78459 -5.60994 1.83484 41 121 142 255 
9.80221 -5.63163 1.73392 33 145 140 255 
9.82562 -5.62202 1.64339 31 154 138 255 
9.82048 -5.62381 1.5321 31 150 139 255 
9.81812 -5.636 1.42412 31 151 139 255 
9.81456 -5.64327 1.31993 31 148 140 255 
9.84916 -5.63549 1.23072 31 152 139 255 
9.82875 -5.63538 1.12087 38 130 142 255 
9.82064 -5.63972 1.0127 31 148 140 255 
9.82752 -5.65756 0.908385 33 143 141 255 
9.86549 -5.64711 0.820808 31 153 138 255 
9.82607 -5.63612 0.710695 31 154 138 255 
9.8351 -5.65488 0.604489 34 140 141 255 
9.82333 -5.65971 0.496972 35 137 142 255 
9.85246 -5.64422 0.408419 32 147 140 255 
9.85556 -5.6576 0.301546 34 141 141 255 
9.84663 -5.66379 0.194312 34 139 141 255 
9.82962 -5.6679 0.0891182 44 115 142 255 
9.84657 -5.64312 -0.00198077 52 96 141 255 
9.88261 -5.67772 -0.109411 69 4 87 255 
9.91626 -5.70845 -0.215702 70 7 90 255 
9.82402 -5.66923 -0.320786 69 4 87 255 
9.91515 -5.68931 -0.415177 69 5 89 255 
9.84831 -5.66259 -0.517851 69 5 89 255 
9.89772 -5.70007 -0.628575 69 4 87 255 
9.96993 -5.75575 -0.742435 70 7 90 255 
9.85402 -5.65652 -0.824415 60 80 139 255 
9.96364 -5.73353 -0.941066 42 119 142 255 
10.0696 -5.80609 -1.06192 68 57 131 255 
9.53349 -5.50379 -1.1104 70 48 126 255 
8.91382 -5.12301 -1.12052 66 64 134 255 
8.11055 -4.66906 -1.10931 71 47 125 255 
7.59962 -4.38368 -1.12389 68 58 131 255 
7.1178 -4.11249 -1.13191 66 64 134 255 
6.45723 -3.71563 -1.08816 72 41 121 255 
6.34691 -3.65672 -1.1392 56 88 140 255 
6.00341 -3.46433 -1.14374 58 84 140 255 
5.74954 -3.32194 -1.16129 58 84 140 255 
5.45898 -3.14629 -1.15641 52 96 141 255 
5.18739 -2.99229 -1.15538 50 100 142 255 
4.94957 -2.8562 -1.15952 53 95 141 255 
4.77587 -2.75827 -1.1753 50 102 142 255 
4.60331 -2.65633 -1.17922 52 97 141 255 
4.39235 -2.53573 -1.17464 57 86 140 255 
4.2212 -2.43785 -1.17839 63 72 137 255 
4.084 -2.35679 -1.18964 66 64 134 255 
3.9516 -2.28485 -1.19325 62 76 138 255 
3.78142 -2.18655 -1.18514 62 73 137 255 
3.65614 -2.11237 -1.19007 60 79 138 255 
3.51413 -2.0263 -1.1885 66 65 134 255 
10.1051 -5.87157 3.51074 69 56 130 255 
12.7718 -7.40645 4.26978 68 59 132 255 
12.6841 -7.34952 4.08475 72 37 118 255 
12.8738 -7.45978 3.99516 67 62 133 255 
12.9182 -7.49713 3.87665 71 14 97 255 
9.6627 -5.6057 2.78111 63 72 137 255 
11.6563 -6.76484 3.21816 70 48 126 255 
11.8918 -6.9046 3.14939 70 48 126 255 
9.94102 -5.76698 2.53524 50 101 142 255 
10.6299 -6.16929 2.58328 68 59 132 255 
10.4676 -6.08229 2.42569 51 98 141 255 
10.4902 -6.1006 2.31491 53 95 141 255 
10.4206 -6.0452 2.19802 56 88 140 255 
14.7986 -8.59215 2.9527 72 27 109 255 
9.76705 -5.6798 1.83805 61 78 138 255 
9.79394 -5.70709 1.73862 39 126 142 255 
9.82689 -5.70306 1.64942 33 142 141 255 
9.82692 -5.70785 1.53854 37 133 142 255 
9.80822 -5.71061 1.42774 40 125 142 255 
9.82179 -5.72791 1.32561 41 122 142 255 
9.84191 -5.71178 1.23417 36 134 142 255 
9.86109 -5.7346 1.12855 42 118 142 255 
9.8349 -5.72845 1.01778 41 122 142 255 
9.81156 -5.72882 0.910141 43 116 142 255 
9.85309 -5.72056 0.822681 37 133 142 255 
9.82494 -5.71588 0.713137 39 127 142 255 
9.83818 -5.73725 0.60683 50 100 142 255 
9.84707 -5.75415 0.499949 53 95 141 255 
9.84875 -5.72264 0.409713 41 122 142 255 
9.84571 -5.73256 0.302316 45 113 142 255 
9.86351 -5.75433 0.195338 46 111 142 255 
9.86199 -5.76748 0.0897308 42 119 142 255 
9.87833 -5.74213 -0.00199421 52 97 141 255 
9.87005 -5.75134 -0.109661 70 7 90 255 
9.87328 -5.76465 -0.215532 70 7 90 255 
9.90551 -5.79757 -0.324603 70 8 92 255 
9.90942 -5.76713 -0.416411 69 5 89 255 
9.86861 -5.75512 -0.520765 70 8 92 255 
9.92118 -5.79494 -0.632312 69 5 89 255 
9.92581 -5.81177 -0.741792 69 5 89 255 
9.89153 -5.75903 -0.830493 59 82 139 255 
10.0049 -5.83927 -0.948328 41 122 142 255 
10.0647 -5.88587 -1.0652 67 62 133 255 
9.48666 -5.55464 -1.1089 70 51 127 255 
8.93289 -5.20715 -1.12691 66 63 133 255 
8.07661 -4.71573 -1.1086 70 51 127 255 
7.58628 -4.43824 -1.12592 67 62 133 255 
7.09841 -4.15959 -1.13286 66 64 134 255 
6.43431 -3.75519 -1.08816 70 50 126 255 
6.33885 -3.70407 -1.14181 59 82 139 255 
5.98374 -3.5021 -1.14406 57 85 140 255 
5.7214 -3.35268 -1.15974 58 84 140 255 
5.45655 -3.18965 -1.16002 51 98 141 255 
5.18843 -3.03547 -1.15974 49 104 142 255 
4.94294 -2.89295 -1.16211 50 101 142 255 
4.73776 -2.77517 -1.17009 52 97 141 255 
4.58693 -2.68452 -1.17922 54 92 141 255 
4.38428 -2.56706 -1.17667 57 85 140 255 
4.23216 -2.47893 -1.18567 61 78 138 255 
4.05942 -2.37593 -1.1867 65 68 135 255 
3.92582 -2.3022 -1.18971 62 73 137 255 
3.77792 -2.21557 -1.18829 61 78 138 255 
3.6373 -2.13136 -1.18817 64 70 136 255 
3.50246 -2.04831 -1.18878 66 64 134 255 
10.1439 -5.97771 3.53692 57 86 140 255 
9.30551 -5.47288 3.12212 71 14 97 255 
10.8972 -6.40376 3.52188 72 22 104 255 
12.5206 -7.35806 3.89947 71 14 97 255 
25.8057 -15.1888 7.77189 71 16 99 255 
9.63314 -5.66783 2.78256 53 94 141 255 
9.62795 -5.66693 2.66771 65 66 135 255 
9.67207 -5.69541 2.57073 72 32 113 255 
9.81455 -5.77439 2.51198 68 58 131 255 
10.3237 -6.07654 2.51787 68 57 131 255 
10.5754 -6.23202 2.45948 62 73 137 255 
13.188 -7.77817 2.92071 70 48 126 255 
13.512 -7.94981 2.86034 72 28 110 255 
15.0513 -8.8628 3.01391 67 62 133 255 
9.77027 -5.76218 1.84527 72 28 110 255 
9.87277 -5.83447 1.75893 35 138 141 255 
9.87103 -5.80994 1.66278 37 133 142 255 
9.8771 -5.81833 1.55195 37 133 142 255 
9.86783 -5.82668 1.4416 36 135 142 255 
9.87794 -5.84217 1.338 37 133 142 255 
9.88465 -5.81795 1.24399 39 126 142 255 
9.89772 -5.83746 1.13682 45 113 142 255 
9.88533 -5.83934 1.02669 37 132 142 255 
9.88515 -5.85341 0.920283 37 133 142 255 
9.87538 -5.81482 0.827506 37 132 142 255 
9.86705 -5.8217 0.718773 42 118 142 255 
9.87413 -5.8397 0.611247 35 138 141 255 
9.89409 -5.86336 0.504154 36 134 142 255 
9.90902 -5.83928 0.413703 34 141 141 255 
9.9059 -5.84928 0.30526 37 132 142 255 
9.90546 -5.86057 0.196877 35 137 142 255 
9.86683 -5.85186 0.0901 41 122 142 255 
9.8679 -5.81736 -0.00199927 55 91 141 255 
9.92324 -5.86419 -0.11065 55 91 141 255 
9.93924 -5.88523 -0.217756 47 107 142 255 
9.89296 -5.87201 -0.325366 70 11 94 255 
9.86438 -5.82224 -0.416012 70 7 90 255 
9.8847 -5.84607 -0.523497 69 5 89 255 
0 -0 -0 68 2 86 255 
0 -0 -0 68 2 86 255 
9.90926 -5.85106 -0.83498 57 85 140 255 
9.99631 -5.91679 -0.950939 42 120 142 255 
10.037 -5.95259 -1.06611 67 61 132 255 
9.47036 -5.62341 -1.111 71 45 123 255 
8.8982 -5.26034 -1.12659 68 58 131 255 
8.08426 -4.78696 -1.11366 71 46 124 255 
7.56829 -4.49027 -1.12732 68 57 131 255 
7.08893 -4.21269 -1.13545 61 77 138 255 
6.47246 -3.83088 -1.09856 58 84 140 255 
6.33471 -3.75398 -1.14519 56 88 140 255 
5.96978 -3.54328 -1.14553 55 90 140 255 
5.70749 -3.39175 -1.16112 54 92 141 255 
5.44703 -3.22909 -1.16218 50 102 142 255 
5.18153 -3.07426 -1.16239 46 109 142 255 
4.93016 -2.92623 -1.1633 54 92 141 255 
4.72064 -2.80418 -1.17009 58 84 140 255 
4.56365 -2.70863 -1.17749 54 92 141 255 
4.37514 -2.59789 -1.17847 56 89 140 255 
4.21938 -2.50635 -1.18638 62 76 138 255 
4.07061 -2.41613 -1.19429 62 76 138 255 
3.91162 -2.32625 -1.18971 62 73 137 255 
3.77918 -2.24759 -1.193 62 76 138 255 
3.63408 -2.15953 -1.19143 64 70 136 255 
3.50551 -2.07906 -1.19413 65 66 135 255 
10.0158 -5.98531 3.50499 57 85 140 255 
9.36334 -5.5845 3.15295 72 27 109 255 
12.099 -7.21021 3.9245 72 36 117 255 
12.3151 -7.33933 3.84942 72 35 116 255 
12.615 -7.52958 3.81309 72 23 105 255 
9.58068 -5.71639 2.77748 52 97 141 255 
9.62223 -5.74335 2.67584 62 74 137 255 
9.6361 -5.75415 2.5705 66 63 133 255 
9.78815 -5.84001 2.51435 62 74 137 255 
10.3585 -6.18291 2.53556 70 51 127 255 
10.5091 -6.2802 2.45299 59 81 139 255 
10.4281 -6.23694 2.31791 60 79 138 255 
10.4419 -6.23008 2.21848 58 84 140 255 
13.626 -8.13654 2.73845 72 40 120 255 
10.9469 -6.54699 2.07505 60 80 139 255 
9.86307 -5.91068 1.76363 33 145 140 255 
9.86834 -5.89018 1.66839 31 153 138 255 
9.86333 -5.89204 1.55544 31 154 138 255 
9.85658 -5.9019 1.44522 32 146 140 255 
9.85469 -5.91033 1.33974 33 144 141 255 
9.89316 -5.90499 1.24959 31 149 139 255 
9.90613 -5.92465 1.14194 50 102 142 255 
9.86555 -5.90961 1.02838 32 147 140 255 
9.86871 -5.92576 0.922119 32 146 140 255 
9.86521 -5.89064 0.829667 41 122 142 255 
9.87653 -5.90929 0.722091 31 159 136 255 
9.88093 -5.92586 0.613907 31 149 139 255 
9.8956 -5.9466 0.506081 34 139 141 255 
9.89445 -5.91279 0.414602 32 146 140 255 
9.8904 -5.92228 0.305897 33 142 141 255 
9.89675 -5.93769 0.197424 37 133 142 255 
9.85988 -5.92981 0.090367 42 119 142 255 
9.86892 -5.89986 -0.00200678 53 95 141 255 
9.93854 -5.95581 -0.111226 38 129 142 255 
9.93551 -5.96567 -0.218472 44 113 142 255 
9.90471 -5.96147 -0.326949 71 19 101 255 
9.90564 -5.92884 -0.419278 70 7 90 255 
9.85893 -5.91278 -0.524044 70 7 90 255 
10.166 -6.10649 -0.652643 72 20 103 255 
10.2128 -6.14934 -0.768822 72 23 105 255 
9.89884 -5.92712 -0.837151 56 88 140 255 
10.0137 -6.01033 -0.956079 41 121 142 255 
10.008 -6.01869 -1.06692 68 58 131 255 
9.42034 -5.67218 -1.1092 70 51 127 255 
8.86491 -5.31433 -1.12648 66 64 134 255 
8.0641 -4.8421 -1.11496 70 50 126 255 
7.56184 -4.54941 -1.13049 68 59 132 255 
7.08077 -4.26684 -1.13832 68 59 132 255 
6.68299 -4.01107 -1.13845 63 72 137 255 
6.33527 -3.80703 -1.14949 58 84 140 255 
5.94877 -3.58035 -1.14569 53 94 141 255 
5.68995 -3.42874 -1.16181 53 95 141 255 
5.43386 -3.2665 -1.16363 51 99 141 255 
5.17603 -3.1141 -1.16542 50 101 142 255 
4.93058 -2.96754 -1.16768 49 103 142 255 
4.70921 -2.83663 -1.17155 54 92 141 255 
4.54276 -2.73407 -1.17641 53 94 141 255 
4.37331 -2.63323 -1.18231 54 92 141 255 
4.19643 -2.52767 -1.18426 62 73 137 255 
4.04741 -2.43606 -1.19184 62 74 137 255 
3.91633 -2.3617 -1.19552 61 78 138 255 
3.7678 -2.27223 -1.19378 61 77 138 255 
3.65457 -2.20216 -1.20255 66 63 133 255 
3.49186 -2.10003 -1.19384 66 63 133 255 
11.3263 -6.8631 3.97824 66 65 134 255 
9.32067 -5.63687 3.15017 51 99 141 255 
12.0232 -7.26538 3.9143 72 36 117 255 
12.0549 -7.28488 3.78199 66 64 134 255 
12.1305 -7.34172 3.68019 71 14 97 255 
11.3404 -6.86107 3.29978 72 33 115 255 
11.5181 -6.9712 3.2149 70 51 127 255 
9.60478 -5.81569 2.57162 55 90 140 255 
