ply
format ascii 1.0
comment VTK generated PLY File
obj_info vtkPolyData points and polygons: vtk4.0
element vertex 1220
property float x
property float y
property float z
property uchar red
property uchar green
property uchar blue
property uchar alpha
element face 0
property list uchar int vertex_indices
end_header
9.29578 9.74501 -0.741168 72 36 117 255 
8.73819 9.14104 -0.815546 71 42 122 255 
8.01176 8.42255 -0.843447 72 41 121 255 
7.36511 7.7263 -0.873835 69 55 129 255 
6.82795 7.15041 -0.903251 69 55 129 255 
6.36153 6.65481 -0.928647 68 57 131 255 
5.93057 6.22813 -0.937304 61 77 138 255 
5.59559 5.86795 -0.961108 57 86 140 255 
5.31462 5.56367 -0.98564 53 94 141 255 
4.97637 5.20216 -0.991271 58 84 140 255 
4.73473 4.96709 -1.00231 57 85 140 255 
4.5132 4.72956 -1.01672 54 92 141 255 
4.30459 4.50474 -1.02814 54 93 141 255 
4.10797 4.29436 -1.03932 56 89 140 255 
3.93083 4.11799 -1.04484 54 93 141 255 
3.78591 3.96326 -1.05744 58 84 140 255 
3.61147 3.77939 -1.06069 54 92 141 255 
3.49532 3.65519 -1.07776 60 79 138 255 
3.35473 3.51078 -1.07742 58 83 139 255 
3.21779 3.36616 -1.07852 59 82 139 255 
3.10423 3.24629 -1.08581 61 77 138 255 
2.96892 3.10687 -1.0842 63 72 137 255 
2.90014 3.02975 -1.09638 64 70 136 255 
2.79095 2.91557 -1.09507 64 69 136 255 
2.68258 2.80437 -1.09377 66 64 134 255 
2.61525 2.73869 -1.10949 66 64 134 255 
9.53105 9.91469 4.1313 66 64 134 255 
9.59605 9.99947 4.00808 71 13 96 255 
9.51311 9.92015 3.82975 62 73 137 255 
9.35404 9.75389 3.62873 71 16 99 255 
9.38938 9.77755 3.5184 71 14 97 255 
18.129 18.8845 6.51719 72 23 105 255 
9.82736 10.2335 3.38794 70 50 126 255 
12.0791 12.5735 3.99327 72 26 108 255 
9.74558 10.152 3.10438 69 56 130 255 
11.2813 11.7474 3.42333 72 38 119 255 
9.99302 10.3951 2.88913 71 47 125 255 
7.52992 7.82719 2.07188 60 80 139 255 
7.46402 7.7753 1.96648 52 97 141 255 
7.6004 7.91164 1.89303 58 83 139 255 
7.69543 7.99951 1.80577 52 96 141 255 
8.06957 8.37352 1.78364 69 56 130 255 
11.5267 12.0032 2.41588 70 50 126 255 
8.9133 9.27505 1.74152 65 66 135 255 
9.00824 9.35439 1.63369 61 77 138 255 
15.7929 16.3764 2.65249 71 16 99 255 
18.7356 19.5102 2.93373 71 17 100 255 
18.3586 19.0837 2.61979 72 24 106 255 
15.519 16.1097 2.00029 72 23 105 255 
15.6687 16.2306 1.80719 72 23 105 255 
15.7306 16.3753 1.6396 71 47 125 255 
15.9905 16.6162 1.44681 71 42 122 255 
40.1708 41.6561 3.08348 69 5 89 255 
45.0954 46.6799 2.84515 70 8 92 255 
0 0 0 69 4 87 255 
44.9216 46.6469 1.71843 69 4 87 255 
22.5914 23.4186 0.556613 71 16 99 255 
0 0 0 68 2 86 255 
15.8946 16.5286 -0.00400221 71 17 100 255 
15.7407 16.3338 -0.217757 71 16 99 255 
15.9346 16.5065 -0.432515 72 23 105 255 
13.7204 14.1826 -0.558089 72 31 112 255 
11.2436 11.6799 -0.588812 71 45 123 255 
10.0272 10.3978 -0.65847 72 38 119 255 
9.37413 9.70718 -0.742652 72 33 115 255 
8.84338 9.13816 -0.820116 72 40 120 255 
8.08127 8.39191 -0.845329 71 44 122 255 
7.40615 7.6745 -0.873101 69 53 129 255 
6.8717 7.10838 -0.903251 68 57 131 255 
6.40225 6.61565 -0.928647 66 63 133 255 
5.9666 6.18948 -0.936979 62 74 137 255 
5.61563 5.81707 -0.958401 60 79 138 255 
5.34176 5.52382 -0.98437 59 82 139 255 
5.02818 5.19216 -0.995227 56 88 140 255 
4.77542 4.94862 -1.00448 53 95 141 255 
4.5339 4.69325 -1.01487 57 86 140 255 
4.33489 4.48108 -1.02879 51 99 141 255 
4.1267 4.26129 -1.03743 58 83 139 255 
3.96423 4.10228 -1.04701 56 89 140 255 
3.80129 3.93078 -1.05498 57 86 140 255 
3.6489 3.77195 -1.06487 59 82 139 255 
3.50748 3.62313 -1.07463 60 80 139 255 
3.3701 3.48382 -1.07547 58 84 140 255 
3.24786 3.35616 -1.08168 57 86 140 255 
3.10922 3.21182 -1.08064 62 73 137 255 
3.01219 3.11369 -1.09301 64 69 136 255 
2.89713 2.98967 -1.08829 63 72 137 255 
2.80543 2.89492 -1.09376 67 62 133 255 
2.7004 2.78854 -1.09404 67 62 133 255 
2.64268 2.73363 -1.11399 67 61 132 255 
8.90706 9.15251 3.83641 70 52 128 255 
9.37474 9.64964 3.89084 72 36 117 255 
9.56911 9.85676 3.82787 70 50 126 255 
9.42986 9.71294 3.63496 66 64 134 255 
9.63609 9.912 3.58799 66 65 134 255 
9.75357 10.0361 3.48411 72 27 109 255 
9.86421 10.1465 3.37911 70 50 126 255 
9.87734 10.1561 3.24472 72 38 119 255 
9.85124 10.1368 3.11816 59 81 139 255 
7.75072 7.97242 2.33707 71 42 122 255 
9.88497 10.1573 2.83982 62 74 137 255 
7.4894 7.69006 2.0477 65 66 135 255 
7.44714 7.66304 1.94961 45 112 142 255 
7.64812 7.86415 1.89286 58 83 139 255 
7.68445 7.89062 1.7918 52 96 141 255 
11.6431 11.9343 2.55729 71 42 122 255 
11.6408 11.9741 2.42435 72 37 118 255 
8.98593 9.23652 1.74461 69 53 129 255 
9.05508 9.28828 1.63181 53 95 141 255 
10.6468 10.9054 1.7769 72 22 104 255 
11.302 11.6256 1.75853 71 16 99 255 
18.6927 19.1939 2.65061 72 24 106 255 
15.6398 16.037 2.00314 72 22 104 255 
15.6579 16.0215 1.79457 72 33 115 255 
15.8552 16.3035 1.64212 72 37 118 255 
15.9083 16.3291 1.43028 72 26 108 255 
15.9032 16.29 1.21302 72 38 119 255 
0 0 0 69 4 87 255 
37.5972 38.6333 1.93904 70 7 90 255 
0 0 0 69 4 87 255 
22.0724 22.6014 0.540399 71 17 100 255 
19.7769 20.2079 0.222077 69 5 89 255 
16.6981 17.1523 -0.00417797 72 40 120 255 
19.7231 20.2165 -0.271128 72 32 113 255 
16.3536 16.7338 -0.441091 72 28 110 255 
13.8344 14.126 -0.559192 72 31 112 255 
11.3004 11.5957 -0.58805 71 45 123 255 
10.0636 10.3082 -0.656694 72 38 119 255 
9.45865 9.67518 -0.74463 72 35 116 255 
8.94049 9.12579 -0.823913 70 51 127 255 
8.12913 8.3386 -0.844967 72 41 121 255 
7.43639 7.61181 -0.871143 70 51 127 255 
6.92563 7.07676 -0.904616 67 62 133 255 
6.43227 6.56558 -0.927142 67 61 132 255 
5.99544 6.1435 -0.935571 62 73 137 255 
5.6415 5.77256 -0.956753 64 69 136 255 
5.36376 5.47889 -0.982209 56 89 140 255 
5.0648 5.16616 -0.996182 55 91 141 255 
4.80155 4.91498 -1.00361 56 89 140 255 
4.55224 4.65475 -1.01257 57 85 140 255 
4.37197 4.46426 -1.03107 54 93 141 255 
4.14725 4.23026 -1.03605 57 86 140 255 
3.99345 4.08209 -1.04809 54 93 141 255 
3.83838 3.92071 -1.05858 58 84 140 255 
3.65483 3.73198 -1.0599 58 83 139 255 
3.50432 3.5757 -1.06692 62 76 138 255 
3.38527 3.4568 -1.07352 59 81 139 255 
3.26703 3.33477 -1.08122 58 84 140 255 
3.11798 3.18158 -1.07688 63 71 136 255 
3.03328 3.09722 -1.09374 65 68 135 255 
2.92219 2.97874 -1.09082 62 74 137 255 
2.82314 2.87766 -1.09376 65 66 135 255 
2.71275 2.76711 -1.09214 67 62 133 255 
2.65001 2.70776 -1.11006 68 59 132 255 
8.92205 9.05607 3.81886 66 65 134 255 
9.51124 9.6707 3.92279 64 69 136 255 
9.60105 9.769 3.8166 68 57 131 255 
9.51568 9.68176 3.64507 71 47 125 255 
9.73271 9.88925 3.60131 70 52 128 255 
9.81089 9.97189 3.48266 70 50 126 255 
9.93037 10.09 3.3805 68 57 131 255 
10.0434 10.2009 3.27865 72 35 116 255 
9.9249 10.088 3.12182 59 81 139 255 
9.62271 9.77721 2.88339 68 57 131 255 
9.80397 9.95113 2.79896 63 71 136 255 
7.4392 7.54533 2.02128 65 66 135 255 
7.43882 7.5611 1.93525 48 105 142 255 
7.73909 7.86061 1.9034 47 107 142 255 
7.75005 7.86089 1.79582 62 73 137 255 
7.82582 7.92364 1.70814 60 80 139 255 
9.23797 9.38655 1.9119 67 61 132 255 
9.09946 9.23911 1.75561 62 73 137 255 
9.10354 9.22407 1.63032 66 64 134 255 
10.6653 10.7911 1.76891 72 37 118 255 
11.3711 11.5539 1.75821 72 35 116 255 
18.5377 18.8024 2.61221 72 26 108 255 
18.665 18.9056 2.37571 71 19 101 255 
15.723 15.8918 1.79082 72 35 116 255 
16.0235 16.2755 1.64918 72 36 117 255 
15.9927 16.2155 1.4289 72 41 121 255 
16.2106 16.4024 1.22877 72 35 116 255 
45.783 46.2423 2.85251 70 7 90 255 
0 0 0 69 4 87 255 
45.6936 46.2978 1.72609 69 5 89 255 
21.519 21.7659 0.523569 72 20 103 255 
19.9174 20.1032 0.222265 70 7 90 255 
16.8241 17.0709 -0.00418321 72 33 115 255 
16.8871 17.0985 -0.230697 72 20 103 255 
16.4327 16.6097 -0.440469 72 23 105 255 
13.8751 13.9948 -0.557354 72 27 109 255 
11.3658 11.5204 -0.587759 71 46 124 255 
10.4995 10.6235 -0.680874 72 36 117 255 
9.49817 9.59709 -0.743091 72 29 111 255 
8.95697 9.03108 -0.820309 69 53 129 255 
8.17244 8.28075 -0.844171 71 45 123 255 
7.47244 7.5554 -0.869919 70 50 126 255 
6.95701 7.02211 -0.903069 69 56 130 255 
6.45983 6.51328 -0.925335 68 58 131 255 
6.03302 6.1066 -0.935571 66 65 134 255 
5.67961 5.74066 -0.957224 61 77 138 255 
5.37144 5.41981 -0.977508 63 72 137 255 
5.09361 5.13218 -0.995636 58 83 139 255 
4.82118 4.87487 -1.00144 61 78 138 255 
4.60575 4.65201 -1.0181 59 82 139 255 
4.39789 4.43595 -1.03075 59 81 139 255 
4.19881 4.2306 -1.04242 60 80 139 255 
4.01911 4.05821 -1.04827 53 94 141 255 
3.85131 3.88592 -1.05555 58 84 140 255 
3.67421 3.70601 -1.0589 57 85 140 255 
3.54686 3.57496 -1.07317 62 74 137 255 
3.40573 3.43527 -1.0733 61 77 138 255 
3.284 3.31121 -1.0801 62 76 138 255 
3.1347 3.15962 -1.07594 62 74 137 255 
3.05632 3.08268 -1.09521 62 73 137 255 
2.94382 2.96419 -1.09208 63 72 137 255 
2.84142 2.86096 -1.09402 64 70 136 255 
2.75408 2.77501 -1.10191 66 63 133 255 
2.65846 2.68327 -1.10668 66 64 134 255 
9.05184 9.07575 3.85051 62 73 137 255 
9.75001 9.79256 3.99641 68 57 131 255 
9.59898 9.64777 3.79217 67 61 132 255 
9.38008 9.42738 3.5709 64 70 136 255 
9.96263 9.99939 3.66361 71 47 125 255 
17.1012 17.1698 6.03306 72 27 109 255 
9.98866 10.0254 3.37934 66 64 134 255 
10.112 10.1453 3.28066 70 51 127 255 
10.1541 10.1951 3.17417 70 50 126 255 
9.66802 9.70342 2.87907 72 36 117 255 
10.0158 10.0421 2.84179 66 64 134 255 
7.48605 7.50024 2.02147 50 100 142 255 
7.47675 7.50695 1.9331 63 72 137 255 
7.78231 7.80809 1.90221 53 95 141 255 
7.76049 7.77547 1.78715 48 105 142 255 
9.08545 9.08682 1.97088 70 48 126 255 
9.14452 9.17826 1.88087 55 91 141 255 
9.22035 9.24766 1.76795 50 102 142 255 
9.55758 9.56601 1.70109 71 46 124 255 
14.5068 14.4989 2.39124 72 33 115 255 
11.6143 11.6572 1.78473 72 23 105 255 
18.6365 18.6721 2.60995 72 28 110 255 
18.6638 18.6738 2.36093 72 22 104 255 
15.603 15.5781 1.76622 72 36 117 255 
15.6168 15.669 1.5974 72 36 117 255 
13.774 13.7956 1.22308 72 33 115 255 
16.335 16.3266 1.23058 71 17 100 255 
16.3647 16.3273 1.01334 70 11 94 255 
0 0 0 69 4 87 255 
45.9817 46.0215 1.72628 69 5 89 255 
20.9646 20.9465 0.506945 70 10 93 255 
20.0687 20.0088 0.22258 70 8 92 255 
20.0158 20.0616 -0.00494609 70 7 90 255 
19.9195 19.9228 -0.270447 71 16 99 255 
16.6617 16.6357 -0.443862 72 31 112 255 
13.9557 13.9044 -0.557156 72 28 110 255 
11.4278 11.442 -0.587324 70 51 127 255 
10.5666 10.561 -0.681011 72 38 119 255 
9.60776 9.58942 -0.747048 72 36 117 255 
8.99736 8.96116 -0.818957 68 59 132 255 
8.2097 8.21705 -0.842796 71 45 123 255 
7.52289 7.51364 -0.870409 70 50 126 255 
6.99503 6.97437 -0.902433 69 56 130 255 
6.50531 6.47914 -0.926138 69 55 129 255 
6.08163 6.08071 -0.937304 63 71 136 255 
5.71472 5.70571 -0.957224 62 76 138 255 
5.4067 5.38885 -0.977889 63 72 137 255 
5.11658 5.09244 -0.993999 54 92 141 255 
4.851 4.8452 -1.00144 61 77 138 255 
4.64959 4.63902 -1.02148 57 86 140 255 
4.41664 4.40053 -1.02879 59 82 139 255 
4.20933 4.18947 -1.03863 61 78 138 255 
4.03071 4.02028 -1.04484 55 90 140 255 
3.87021 3.85737 -1.05422 62 76 138 255 
3.69897 3.68547 -1.0595 59 81 139 255 
3.56041 3.54485 -1.07067 60 80 139 255 
3.42813 3.41568 -1.07374 57 85 140 255 
3.29943 3.28618 -1.07852 59 82 139 255 
3.17194 3.15816 -1.08205 58 83 139 255 
3.07106 3.05977 -1.09374 64 69 136 255 
2.95235 2.93651 -1.08854 61 77 138 255 
2.86303 2.84756 -1.09559 65 68 135 255 
2.76901 2.75602 -1.10109 65 68 135 255 
2.68711 2.6791 -1.11174 67 62 133 255 
9.34552 9.25592 3.9512 65 68 135 255 
9.40893 9.33472 3.83305 69 53 129 255 
9.44608 9.37829 3.70897 63 71 136 255 
9.43433 9.36625 3.56961 56 89 140 255 
10.0341 9.9483 3.66738 62 76 138 255 
11.1954 11.1033 3.92549 71 16 99 255 
10.3574 10.2687 3.4827 71 45 123 255 
10.1498 10.0591 3.27285 72 20 103 255 
7.69612 7.63297 2.39113 70 52 128 255 
7.6821 7.6162 2.27372 70 48 126 255 
9.67943 9.58651 2.72961 61 78 138 255 
7.52844 7.45071 2.02053 56 88 140 255 
7.59182 7.52952 1.95087 55 90 140 255 
7.76568 7.69637 1.88657 50 102 142 255 
7.79893 7.71868 1.78506 47 108 142 255 
9.27252 9.16081 1.99923 65 66 135 255 
8.07061 8.00159 1.64985 46 109 142 255 
9.38462 9.29762 1.78848 64 69 136 255 
10.4395 10.3213 1.84674 63 72 137 255 
11.7611 11.6113 1.92686 72 26 108 255 
15.138 15.0085 2.312 71 17 100 255 
11.5305 11.4117 1.60495 72 38 119 255 
18.7242 18.5057 2.35416 72 23 105 255 
14.5875 14.3867 1.64126 72 28 110 255 
14.6684 14.5379 1.49124 72 32 113 255 
13.8967 13.7487 1.22647 69 53 129 255 
16.4157 16.2071 1.22914 71 19 101 255 
16.3735 16.1368 1.00774 72 24 106 255 
0 0 0 69 4 87 255 
34.5778 34.1856 1.29025 69 4 87 255 
34.5511 34.1002 0.830404 70 8 92 255 
20.2075 19.9015 0.22276 70 7 90 255 
20.1385 19.9384 -0.00494609 69 5 89 255 
20.0733 19.8318 -0.270879 72 22 104 255 
16.5919 16.3639 -0.439319 72 22 104 255 
14.0664 13.8438 -0.558174 72 31 112 255 
11.3755 11.2508 -0.581081 68 59 132 255 
10.558 10.4237 -0.676321 71 42 122 255 
9.67566 9.5394 -0.747762 67 61 132 255 
9.11478 8.96737 -0.824621 71 47 125 255 
8.26564 8.17213 -0.843375 71 47 125 255 
7.5802 7.47854 -0.871714 70 50 126 255 
7.0462 6.9397 -0.903524 69 56 130 255 
6.53076 6.42514 -0.924131 67 62 133 255 
6.12307 6.04747 -0.937955 61 77 138 255 
5.77296 5.69354 -0.961108 59 82 139 255 
5.4227 5.33887 -0.97484 66 65 134 255 
5.14985 5.06303 -0.994409 55 90 140 255 
4.88064 4.81534 -1.00144 57 86 140 255 
4.69205 4.62427 -1.02456 53 95 141 255 
4.46184 4.39134 -1.03303 61 77 138 255 
4.24479 4.17323 -1.04105 60 79 138 255 
4.0532 3.9934 -1.0443 56 88 140 255 
3.88961 3.82942 -1.05309 59 82 139 255 
3.71523 3.65652 -1.05771 61 78 138 255 
3.56884 3.5099 -1.06671 61 78 138 255 
3.43997 3.38568 -1.07092 59 82 139 255 
3.32092 3.26724 -1.07897 59 82 139 255 
3.20096 3.14818 -1.08534 58 83 139 255 
3.06351 3.01502 -1.08445 64 69 136 255 
2.99171 2.93936 -1.09638 62 76 138 255 
2.87838 2.82791 -1.0948 65 66 135 255 
2.78999 2.74303 -1.10272 64 69 136 255 
2.68367 2.64303 -1.10359 68 57 131 255 
9.36175 9.15888 3.93423 70 48 126 255 
10.9795 10.7601 4.44592 70 50 126 255 
9.52614 9.34241 3.71782 62 76 138 255 
9.50265 9.31901 3.57375 63 72 137 255 
9.6261 9.42736 3.49705 62 76 138 255 
9.75294 9.55465 3.39908 67 61 132 255 
10.2221 10.011 3.4165 71 42 122 255 
10.2044 9.98978 3.27061 70 51 127 255 
7.75328 7.59585 2.39436 62 74 137 255 
7.72869 7.56892 2.27372 57 85 140 255 
9.73736 9.52625 2.72941 70 52 128 255 
10.3331 10.1016 2.75657 72 29 111 255 
7.82972 7.67074 1.99987 61 77 138 255 
7.95852 7.79128 1.92176 68 59 132 255 
7.85038 7.67482 1.78602 50 102 142 255 
8.02976 7.83624 1.72088 60 79 138 255 
8.11602 7.94846 1.64913 52 97 141 255 
10.5669 10.3412 2.00165 63 71 136 255 
10.5701 10.3229 1.8586 69 56 130 255 
10.5805 10.3183 1.72305 68 57 131 255 
15.1843 14.8708 2.3051 72 37 118 255 
11.5384 11.2802 1.59639 69 56 130 255 
14.5911 14.2449 1.82349 71 14 97 255 
14.6127 14.2357 1.63423 72 40 120 255 
14.4281 14.1253 1.45797 72 29 111 255 
14.0965 13.7762 1.23661 72 32 113 255 
16.8001 16.3843 1.25037 72 28 110 255 
46.9084 45.6663 2.86976 69 4 87 255 
0 0 0 68 2 86 255 
34.7862 33.9721 1.29022 69 4 87 255 
30.0346 29.281 0.717522 69 5 89 255 
20.3342 19.782 0.222815 69 5 89 255 
20.2676 19.8215 -0.00494783 69 5 89 255 
20.2047 19.718 -0.271013 72 22 104 255 
16.7593 16.3274 -0.441091 72 26 108 255 
14.0981 13.7056 -0.556082 72 27 109 255 
11.4922 11.2275 -0.583513 71 42 122 255 
10.566 10.3043 -0.672769 70 48 126 255 
9.76835 9.51329 -0.7504 68 57 131 255 
9.16891 8.91058 -0.824556 71 44 122 255 
8.3356 8.14077 -0.845401 70 52 128 255 
7.62952 7.43536 -0.872122 68 59 132 255 
7.07652 6.88453 -0.901978 70 51 127 255 
6.56078 6.37593 -0.922826 68 57 131 255 
6.15294 6.00285 -0.936871 65 66 135 255 
5.80636 5.65663 -0.960873 62 73 137 255 
5.45394 5.30412 -0.974586 64 70 136 255 
5.17869 5.02927 -0.993999 55 90 140 255 
4.92072 4.79566 -1.00361 53 94 141 255 
4.70971 4.58506 -1.02225 50 102 142 255 
4.47739 4.35287 -1.03042 56 88 140 255 
4.25548 4.13269 -1.03743 61 77 138 255 
4.07128 3.96228 -1.04268 56 89 140 255 
3.91515 3.80753 -1.05366 57 85 140 255 
3.7397 3.6357 -1.05831 59 81 139 255 
3.58751 3.48521 -1.06588 61 77 138 255 
3.48308 3.38629 -1.07785 55 90 140 255 
3.33461 3.24069 -1.07694 56 88 140 255 
3.2237 3.13187 -1.08651 57 85 140 255 
3.10351 3.01712 -1.09203 61 77 138 255 
3.01802 2.92904 -1.09942 62 74 137 255 
2.89984 2.81423 -1.09638 65 68 135 255 
2.79434 2.71379 -1.09784 65 66 135 255 
2.70121 2.62786 -1.10415 67 61 132 255 
11.2986 10.9189 4.71992 72 29 111 255 
11.1703 10.8134 4.4962 68 57 131 255 
9.66355 9.36153 3.74896 68 58 131 255 
9.68382 9.38081 3.62017 62 76 138 255 
9.76238 9.44417 3.52544 72 33 115 255 
9.82881 9.5115 3.40511 61 77 138 255 
10.1631 9.83175 3.37656 63 71 136 255 
7.87957 7.61971 2.51045 72 29 111 255 
7.79974 7.54814 2.39436 68 58 131 255 
11.3762 11.0051 3.32686 72 26 108 255 
7.74739 7.48694 2.1587 66 64 134 255 
8.06023 7.78355 2.13746 72 37 118 255 
7.97136 7.71423 2.02392 61 78 138 255 
7.87867 7.61899 1.89116 45 112 142 255 
7.91578 7.64433 1.7902 50 101 142 255 
8.07556 7.78477 1.72042 50 100 142 255 
8.21656 7.94874 1.65962 43 117 142 255 
10.7377 10.3802 2.02191 69 53 129 255 
10.8231 10.441 1.8918 69 55 129 255 
10.6487 10.258 1.72386 60 79 138 255 
10.6144 10.2684 1.60175 71 44 122 255 
11.47 11.0764 1.57749 71 42 122 255 
11.1236 10.7271 1.38189 72 28 110 255 
14.5698 14.0207 1.61978 72 33 115 255 
14.1001 13.6357 1.41634 72 28 110 255 
16.248 15.6851 1.41688 72 35 116 255 
0 0 0 68 2 86 255 
47.1712 45.3617 2.86875 69 4 87 255 
47.11 45.5268 2.35648 69 4 87 255 
0 0 0 68 2 86 255 
29.2112 28.1308 0.693714 70 7 90 255 
20.3031 19.5106 0.221158 69 5 89 255 
20.3313 19.6412 -0.00493387 69 5 89 255 
20.1669 19.441 -0.268901 72 20 103 255 
17.0559 16.4135 -0.446237 72 24 106 255 
14.2151 13.6507 -0.557383 72 22 104 255 
11.4933 11.0916 -0.580101 71 44 122 255 
10.7571 10.3626 -0.680874 72 38 119 255 
9.87619 9.50094 -0.754191 71 44 122 255 
9.21838 8.84932 -0.824106 69 53 129 255 
8.37535 8.07978 -0.844388 69 56 130 255 
7.67356 7.38703 -0.871959 68 57 131 255 
7.11575 6.83822 -0.901614 70 51 127 255 
6.61485 6.35003 -0.924934 68 57 131 255 
6.18823 5.9636 -0.936654 64 70 136 255 
5.83524 5.61539 -0.959931 64 69 136 255 
5.50212 5.28567 -0.977381 62 73 137 255 
5.20587 4.99397 -0.993317 57 86 140 255 
4.9579 4.77293 -1.0052 53 95 141 255 
4.7171 4.53621 -1.01779 51 99 141 255 
4.49333 4.31507 -1.02798 58 84 140 255 
4.28075 4.10651 -1.03743 58 83 139 255 
4.1019 3.94336 -1.0443 59 82 139 255 
3.93702 3.78208 -1.05328 54 92 141 255 
3.74709 3.59843 -1.05413 61 77 138 255 
3.61023 3.46449 -1.0663 58 83 139 255 
3.49535 3.35674 -1.07525 57 85 140 255 
3.36287 3.22827 -1.07965 56 88 140 255 
3.24356 3.1127 -1.08675 60 80 139 255 
3.11916 2.99533 -1.09105 62 73 137 255 
3.03384 2.90846 -1.09866 63 72 137 255 
2.92123 2.80039 -1.09795 66 64 134 255 
2.81649 2.70192 -1.10001 67 62 133 255 
2.70829 2.60259 -1.1005 66 63 133 255 
16.18 15.4454 6.7194 72 31 112 255 
9.8173 9.38767 3.92834 72 35 116 255 
9.73612 9.31671 3.75486 68 57 131 255 
9.73492 9.3152 3.61784 68 59 132 255 
9.82924 9.39279 3.5287 63 72 137 255 
9.90593 9.46912 3.41164 61 78 138 255 
10.4328 9.96946 3.44577 66 65 134 255 
10.3516 9.88804 3.27865 71 45 123 255 
7.91438 7.56559 2.41526 61 77 138 255 
7.91863 7.5668 2.3021 69 55 129 255 
7.7946 7.44061 2.15909 61 78 138 255 
8.02538 7.6553 2.11572 69 56 130 255 
7.92326 7.57408 1.99987 57 85 140 255 
7.97159 7.61475 1.90221 54 92 141 255 
8.12252 7.74822 1.82617 68 57 131 255 
8.09239 7.70576 1.7139 62 73 137 255 
8.24157 7.87561 1.65488 65 66 135 255 
10.7912 10.3045 2.02003 70 48 126 255 
10.9229 10.4087 1.89804 69 53 129 255 
10.751 10.2302 1.73023 66 64 134 255 
10.8317 10.3508 1.62494 69 56 130 255 
11.1474 10.6336 1.52413 69 55 129 255 
11.2022 10.671 1.3835 69 56 130 255 
11.4253 10.8605 1.26276 71 44 122 255 
11.5712 11.0536 1.15548 72 24 106 255 
11.6086 11.0696 1.00637 72 24 106 255 
11.6221 11.0595 0.85483 72 24 106 255 
11.6626 11.0783 0.705123 72 24 106 255 
47.5504 45.3914 2.36453 69 4 87 255 
0 0 0 68 2 86 255 
29.2775 27.8504 0.691217 70 7 90 255 
11.6577 11.0659 0.126244 71 13 96 255 
19.8531 18.9451 -0.00478953 69 4 87 255 
11.7444 11.1834 -0.155679 70 8 92 255 
17.0823 16.2383 -0.444314 70 11 94 255 
14.2434 13.511 -0.555234 71 17 100 255 
11.5474 11.0078 -0.579411 71 42 122 255 
10.84 10.315 -0.682104 71 44 122 255 
9.95529 9.4601 -0.755785 72 37 118 255 
9.2906 8.80975 -0.825715 69 53 129 255 
8.40455 8.00897 -0.842362 70 50 126 255 
7.71802 7.33912 -0.871877 70 52 128 255 
7.1778 6.81363 -0.904161 69 56 130 255 
6.66236 6.31754 -0.926138 68 58 131 255 
6.22759 5.92826 -0.937088 66 64 134 255 
5.88182 5.59111 -0.961932 61 78 138 255 
5.5661 5.28185 -0.982972 64 70 136 255 
5.25655 4.98101 -0.997137 58 83 139 255 
4.99067 4.74583 -1.00592 54 92 141 255 
4.75058 4.51262 -1.01902 52 96 141 255 
4.51328 4.2813 -1.02651 58 83 139 255 
4.30873 4.08287 -1.03812 59 82 139 255 
4.12174 3.91405 -1.04322 57 85 140 255 
3.963 3.76055 -1.05403 58 84 140 255 
3.78688 3.59223 -1.0591 58 83 139 255 
3.6222 3.43352 -1.06359 61 78 138 255 
3.51729 3.33657 -1.07569 56 89 140 255 
3.36141 3.18746 -1.07288 60 79 138 255 
3.25061 3.08137 -1.08275 62 76 138 255 
3.14522 2.98348 -1.09374 63 72 137 255 
3.05233 2.89045 -1.09891 65 66 135 255 
2.93205 2.77644 -1.09559 65 66 135 255 
2.84699 2.69783 -1.10544 64 69 136 255 
2.72282 2.5846 -1.09993 68 59 132 255 
11.7167 11.0481 4.83759 71 45 123 255 
9.73365 9.19401 3.87222 72 31 112 255 
11.5152 10.8846 4.41517 72 36 117 255 
9.9077 9.36476 3.66063 68 59 132 255 
10.0007 9.43993 3.5694 64 69 136 255 
9.97937 9.42281 3.41695 72 31 112 255 
10.5249 9.93463 3.45599 65 66 135 255 
10.6581 10.0565 3.35612 69 56 130 255 
7.9784 7.53364 2.42064 58 83 139 255 
7.93929 7.49389 2.2947 64 69 136 255 
7.93712 7.48413 2.18581 46 109 142 255 
7.94137 7.48264 2.08143 55 90 140 255 
7.95385 7.51046 1.99592 66 63 133 255 
7.98806 7.53729 1.89507 49 104 142 255 
8.05784 7.59264 1.80112 66 63 133 255 
8.1424 7.65867 1.71451 53 95 141 255 
8.15444 7.69719 1.62787 52 97 141 255 
9.4694 8.93192 1.76231 58 83 139 255 
11.6397 10.9562 2.01087 70 51 127 255 
10.9822 10.3225 1.75721 65 66 135 255 
11.6216 10.9699 1.7333 70 48 126 255 
11.655 10.9819 1.58428 70 50 126 255 
11.5888 10.9045 1.42295 72 38 119 255 
11.592 10.8843 1.27378 71 42 122 255 
11.6396 10.983 1.15556 66 63 133 255 
11.6778 10.9995 1.00649 67 61 132 255 
11.6919 10.99 0.85499 68 58 131 255 
11.7231 10.9997 0.704685 69 55 129 255 
11.6916 11.0245 0.578012 70 51 127 255 
11.6946 11.0077 0.426165 71 47 125 255 
11.7255 11.0177 0.275228 70 48 126 255 
11.6999 10.9703 0.125969 71 42 122 255 
11.6727 11.0028 -0.00279968 70 48 126 255 
11.7108 11.0152 -0.154335 70 52 128 255 
11.7173 11.0023 -0.303008 70 50 126 255 
11.6819 10.9457 -0.452753 71 46 124 255 
11.6489 10.9689 -0.581117 71 44 122 255 
10.89 10.236 -0.681284 71 47 125 255 
10.0131 9.39884 -0.755785 71 45 123 255 
9.34376 8.7519 -0.825651 70 50 126 255 
8.45499 7.95862 -0.842506 71 42 122 255 
7.77235 7.30049 -0.872938 69 53 129 255 
7.20277 6.75379 -0.902069 69 53 129 255 
6.68647 6.26293 -0.924131 67 61 132 255 
6.26674 5.89266 -0.937521 66 64 134 255 
5.90443 5.54404 -0.960049 64 69 136 255 
5.57308 5.22386 -0.978525 64 70 136 255 
5.29208 4.9534 -0.998092 57 85 140 255 
5.02114 4.71647 -1.00621 55 91 141 255 
4.77169 4.4773 -1.01764 54 92 141 255 
4.53947 4.25353 -1.02651 53 95 141 255 
4.33514 4.0577 -1.03846 60 80 139 255 
4.14209 3.88533 -1.04232 56 89 140 255 
3.98528 3.73549 -1.05384 57 86 140 255 
3.83817 3.5964 -1.06725 59 81 139 255 
3.66461 3.43129 -1.06984 61 78 138 255 
3.50992 3.28889 -1.06724 61 78 138 255 
3.39583 3.18076 -1.07761 59 81 139 255 
3.27584 3.06735 -1.08487 64 70 136 255 
3.16064 2.96147 -1.09276 63 72 137 255 
3.05729 2.85977 -1.09436 62 73 137 255 
2.95537 2.76433 -1.09795 66 63 133 255 
2.84803 2.66584 -1.09947 67 62 133 255 
2.77643 2.60329 -1.11512 66 63 133 255 
11.5824 10.788 4.75473 72 40 120 255 
11.5908 10.8144 4.58455 72 35 116 255 
11.6304 10.8591 4.43369 72 35 116 255 
11.7376 10.9588 4.31179 72 27 109 255 
10.205 9.51503 3.62141 72 35 116 255 
10.3819 9.68307 3.53436 72 41 121 255 
10.5138 9.80287 3.43253 71 44 122 255 
10.5891 9.86926 3.31526 72 29 111 255 
10.5317 9.8231 3.17697 70 52 128 255 
8.01017 7.46839 2.3019 70 50 126 255 
7.94272 7.39786 2.17481 64 69 136 255 
7.98929 7.43578 2.08199 52 96 141 255 
7.97028 7.434 1.98856 54 92 141 255 
8.05434 7.50694 1.89983 51 99 141 255 
8.10211 7.54104 1.80064 60 80 139 255 
8.17548 7.59578 1.71163 58 83 139 255 
8.20803 7.65308 1.62917 55 91 141 255 
9.54361 8.89189 1.76594 51 99 141 255 
11.6558 10.8373 2.00214 72 29 111 255 
14.7249 13.6712 2.3426 72 31 112 255 
14.5267 13.5445 2.15414 72 28 110 255 
14.6207 13.608 1.97602 72 38 119 255 
14.724 13.6852 1.79757 72 31 112 255 
11.7945 10.9391 1.28864 72 33 115 255 
11.7133 10.9175 1.1562 71 42 122 255 
11.7341 10.9175 1.00556 69 55 129 255 
11.7701 10.9283 0.855788 69 55 129 255 
11.7794 10.9174 0.704028 72 41 121 255 
11.7685 10.9614 0.57848 69 55 129 255 
11.7861 10.9582 0.42704 70 50 126 255 
11.7907 10.9435 0.275176 70 50 126 255 
11.7721 10.903 0.126024 71 45 123 255 
11.74 10.931 -0.00279968 70 48 126 255 
11.7364 10.9044 -0.153788 71 46 124 255 
11.7553 10.903 -0.302254 71 45 123 255 
11.7525 10.8772 -0.452894 71 44 122 255 
11.7102 10.8918 -0.580827 70 48 126 255 
10.9416 10.1588 -0.680601 68 59 132 255 
10.0692 9.33587 -0.755675 69 56 130 255 
9.36578 8.66526 -0.822883 72 38 119 255 
8.45472 7.86108 -0.837658 71 42 122 255 
7.82211 7.25741 -0.873509 70 52 128 255 
7.23969 6.70541 -0.901523 69 53 129 255 
6.73062 6.22719 -0.924934 68 57 131 255 
6.32536 5.87507 -0.94088 66 65 134 255 
5.94271 5.51175 -0.960755 63 72 137 255 
5.60866 5.19293 -0.97916 68 59 132 255 
5.30928 4.90873 -0.995636 58 83 139 255 
5.04781 4.68356 -1.00578 49 103 142 255 
4.7969 4.44593 -1.01718 53 95 141 255 
4.572 4.23163 -1.02798 54 92 141 255 
4.35344 4.02501 -1.03691 55 90 140 255 
4.17379 3.86719 -1.0443 55 91 141 255 
4.00669 3.70963 -1.05347 55 91 141 255 
3.84074 3.55481 -1.06188 59 82 139 255 
3.67698 3.40077 -1.06734 60 79 138 255 
3.53361 3.27061 -1.06832 60 79 138 255 
3.40742 3.15259 -1.07513 59 82 139 255 
3.29674 3.04917 -1.08557 60 79 138 255 
3.17733 2.9407 -1.09228 63 72 137 255 
3.06696 2.83374 -1.09158 65 68 135 255 
2.96732 2.74156 -1.09611 64 69 136 255 
2.85374 2.63851 -1.0954 67 61 132 255 
2.77756 2.57251 -1.10921 68 58 131 255 
10.1267 9.31677 4.1336 72 28 110 255 
12.1726 11.2183 4.78735 72 41 121 255 
10.1772 9.38605 3.85767 72 38 119 255 
11.7215 10.8099 4.28145 72 29 111 255 
10.261 9.45026 3.62065 63 72 137 255 
10.511 9.68362 3.55804 69 55 129 255 
15.6564 14.4191 5.08248 72 22 104 255 
10.4286 9.60075 3.2465 72 33 115 255 
12.7112 11.7109 3.81267 72 35 116 255 
12.8529 11.837 3.67263 72 22 104 255 
11.9906 11.0314 3.26457 72 28 110 255 
8.05068 7.40124 2.08612 60 80 139 255 
8.03528 7.40296 1.99341 56 88 140 255 
8.40329 7.73638 1.9709 49 104 142 255 
9.5782 8.80585 2.11664 64 70 136 255 
8.23286 7.5555 1.7139 62 73 137 255 
8.23591 7.58514 1.62543 62 76 138 255 
11.6287 10.7021 2.13957 72 41 121 255 
14.6006 13.4091 2.49378 68 57 131 255 
14.7792 13.5538 2.33797 70 48 126 255 
14.5671 13.4161 2.14789 68 57 131 255 
14.6673 13.4843 1.97109 70 51 127 255 
12.1143 11.1218 1.4706 72 40 120 255 
11.932 10.9311 1.2963 72 41 121 255 
14.5068 13.3558 1.42383 69 56 130 255 
14.5962 13.4143 1.24375 71 19 101 255 
23.8469 21.8703 1.72408 71 13 96 255 
0 0 0 68 2 86 255 
11.8385 10.8917 0.578623 72 26 108 255 
11.8487 10.8816 0.426881 72 32 113 255 
11.8709 10.8831 0.275484 72 33 115 255 
11.903 10.8893 0.126707 72 38 119 255 
11.8341 10.8838 -0.00280614 72 41 121 255 
11.8495 10.8748 -0.154393 71 45 123 255 
11.8448 10.8516 -0.302838 71 45 123 255 
11.833 10.8177 -0.453432 71 47 125 255 
11.7547 10.7994 -0.579738 71 46 124 255 
11.0148 10.1016 -0.681284 72 24 106 255 
10.1299 9.27728 -0.75595 70 51 127 255 
9.41141 8.6009 -0.82224 72 37 118 255 
8.5241 7.82862 -0.839756 71 44 122 255 
7.86502 7.20793 -0.873346 70 50 126 255 
7.29906 6.67766 -0.903797 68 57 131 255 
6.77751 6.19383 -0.926138 70 51 127 255 
6.36495 5.83951 -0.941422 62 73 137 255 
5.96104 5.4611 -0.958283 64 70 136 255 
5.65872 5.17516 -0.982336 64 70 136 255 
5.33052 4.86805 -0.993999 61 77 138 255 
5.09031 4.6652 -1.00852 50 101 142 255 
4.84377 4.43442 -1.02133 53 95 141 255 
4.60152 4.20682 -1.02879 57 86 140 255 
4.37951 3.99955 -1.03726 58 83 139 255 
4.19526 3.83952 -1.04376 54 92 141 255 
4.03734 3.69227 -1.05555 54 93 141 255 
3.85019 3.51994 -1.0585 58 83 139 255 
3.69922 3.37946 -1.06776 58 83 139 255 
3.56947 3.26336 -1.07309 59 82 139 255 
3.42454 3.12965 -1.07446 59 81 139 255 
3.31323 3.02692 -1.08487 63 72 137 255 
3.19317 2.91919 -1.09154 63 71 136 255 
3.10573 2.83443 -1.09916 63 72 137 255 
2.97054 2.71094 -1.09114 65 66 135 255 
2.86845 2.61965 -1.09486 67 62 133 255 
2.7671 2.53145 -1.09881 68 59 132 255 
10.1348 9.21002 4.11375 68 59 132 255 
10.2784 9.35667 4.01974 66 64 134 255 
10.2716 9.35717 3.87162 60 79 138 255 
12.0882 11.0116 4.39063 71 19 101 255 
10.3382 9.40471 3.62743 62 76 138 255 
10.5423 9.59347 3.54862 71 45 123 255 
10.5844 9.6286 3.41674 71 42 122 255 
10.5327 9.5779 3.26057 72 32 113 255 
10.7143 9.7503 3.19571 72 36 117 255 
12.9123 11.7461 3.66892 72 29 111 255 
12.6763 11.5195 3.43195 71 45 123 255 
8.09885 7.35435 2.08687 72 36 117 255 
10.9967 10.0073 2.7128 65 68 135 255 
8.45352 7.68732 1.97158 52 97 141 255 
9.5641 8.6852 2.1017 71 47 125 255 
9.75692 8.8445 2.01984 72 33 115 255 
8.27424 7.52714 1.62385 71 46 124 255 
14.4652 13.1495 2.64656 72 22 104 255 
14.734 13.366 2.50252 71 47 125 255 
12.1045 10.9648 1.90417 72 37 118 255 
14.836 13.4964 2.17528 71 47 125 255 
15.1822 13.7868 2.02889 72 23 105 255 
12.034 10.9128 1.4527 72 40 120 255 
14.5591 13.1745 1.5729 72 28 110 255 
14.5995 13.2767 1.42491 70 48 126 255 
23.9849 21.7728 2.03234 71 13 96 255 
14.6542 13.2749 1.05356 72 20 103 255 
51.2347 46.3298 3.02799 71 13 96 255 
51.1321 46.4664 2.48517 69 4 87 255 
37.5457 34.059 1.34513 69 5 89 255 
0 0 0 68 2 86 255 
19.6211 17.7302 0.207704 69 5 89 255 
11.8962 10.8069 -0.00280509 72 22 104 255 
11.9538 10.8361 -0.154883 72 26 108 255 
11.9779 10.8391 -0.304534 72 31 112 255 
11.9044 10.7496 -0.45363 72 31 112 255 
11.7978 10.7063 -0.578613 72 40 120 255 
11.1032 10.058 -0.682923 72 38 119 255 
10.197 9.22433 -0.756719 70 52 128 255 
9.4729 8.55101 -0.823012 72 37 118 255 
8.58084 7.78421 -0.840625 71 45 123 255 
7.92905 7.1776 -0.875549 71 47 125 255 
7.33916 6.63208 -0.903706 69 53 129 255 
6.81982 6.15613 -0.92674 70 50 126 255 
6.37488 5.77698 -0.93763 63 71 136 255 
5.99517 5.42509 -0.958401 63 72 137 255 
5.6808 5.13169 -0.980685 65 66 135 255 
5.34779 4.82397 -0.99168 62 73 137 255 
5.11224 4.6279 -1.00722 51 98 141 255 
4.87235 4.40595 -1.02164 53 94 141 255 
4.62212 4.17388 -1.02765 57 86 140 255 
4.40763 3.9759 -1.03812 60 79 138 255 
4.21801 3.81304 -1.04358 55 91 141 255 
4.05409 3.66216 -1.05403 58 84 140 255 
3.86444 3.48968 -1.05652 56 88 140 255 
3.72352 3.35998 -1.0688 61 77 138 255 
3.58218 3.23485 -1.07092 60 79 138 255 
3.47695 3.13861 -1.08483 56 88 140 255 
3.3368 3.01109 -1.08651 62 76 138 255 
3.20814 2.89694 -1.09056 62 76 138 255 
3.09073 2.78617 -1.08778 64 69 136 255 
3.01579 2.71851 -1.10161 62 76 138 255 
2.90305 2.61877 -1.10191 65 68 135 255 
2.80109 2.53115 -1.10612 68 57 131 255 
9.35938 8.40108 3.77801 62 74 137 255 
10.3414 9.29857 4.02197 60 79 138 255 
10.3367 9.30105 3.87458 56 88 140 255 
10.4547 9.4069 3.77629 68 58 131 255 
10.4756 9.41291 3.65532 66 64 134 255 
10.5533 9.48579 3.53267 71 47 125 255 
15.7142 14.12 5.04463 71 45 123 255 
10.5971 9.5183 3.26235 72 31 112 255 
10.795 9.7033 3.20196 72 40 120 255 
16.1674 14.5269 4.56842 72 38 119 255 
12.8161 11.5037 3.45062 72 26 108 255 
10.8019 9.68863 2.768 62 73 137 255 
11.1786 10.0481 2.74241 72 38 119 255 
8.54525 7.67547 1.98196 59 81 139 255 
9.75534 8.75026 2.13189 66 63 133 255 
11.7897 10.5561 2.42721 70 50 126 255 
15.8522 14.2441 3.09383 72 31 112 255 
14.2794 12.8215 2.59813 72 36 117 255 
14.8749 13.3283 2.5125 72 38 119 255 
12.1553 10.8758 1.90162 71 44 122 255 
15.1352 13.5998 2.20687 72 40 120 255 
15.0865 13.5319 2.00496 72 31 112 255 
12.1148 10.8514 1.45439 70 51 127 255 
14.6412 13.0863 1.57306 71 44 122 255 
14.3528 12.8922 1.39308 70 52 128 255 
14.432 12.9403 1.21613 66 63 133 255 
14.7793 13.2241 1.0567 70 48 126 255 
15.139 13.5218 0.889802 71 13 96 255 
51.4147 46.1504 2.48509 70 8 92 255 
37.3929 33.5044 1.33226 70 8 92 255 
27.8212 24.8848 0.638504 70 10 93 255 
14.0328 12.5249 0.147732 71 14 97 255 
19.6866 17.6647 -0.0046164 69 5 89 255 
13.738 12.3007 -0.177018 72 23 105 255 
13.6648 12.2139 -0.345511 72 40 120 255 
14.1909 12.6572 -0.537791 72 20 103 255 
11.9734 10.7324 -0.583985 70 50 126 255 
11.193 10.015 -0.684654 71 45 123 255 
10.2616 9.1689 -0.757323 69 53 129 255 
9.51401 8.48277 -0.822047 72 35 116 255 
8.64181 7.7434 -0.841928 71 46 124 255 
7.97666 7.13213 -0.875957 70 48 126 255 
7.38046 6.58759 -0.903797 69 55 129 255 
6.86861 6.1241 -0.928245 69 53 129 255 
6.40872 5.73643 -0.937413 65 66 135 255 
6.03427 5.39349 -0.959342 62 74 137 255 
5.70552 5.0908 -0.979541 64 69 136 255 
5.36915 4.78381 -0.99018 63 72 137 255 
5.14423 4.59974 -1.00794 49 103 142 255 
4.88161 4.36017 -1.01795 53 94 141 255 
4.6528 4.15004 -1.02879 54 93 141 255 
4.43341 3.95009 -1.03846 60 80 139 255 
4.24426 3.78971 -1.0443 53 95 141 255 
4.06623 3.62807 -1.05138 59 81 139 255 
3.88212 3.46264 -1.05552 60 80 139 255 
3.74407 3.33707 -1.0688 58 83 139 255 
3.60123 3.21216 -1.0707 60 80 139 255 
3.47796 3.101 -1.07919 58 84 140 255 
3.34723 2.98344 -1.08393 62 76 138 255 
3.2302 2.88108 -1.09203 63 72 137 255 
3.10704 2.76651 -1.08753 62 76 138 255 
3.00935 2.67942 -1.09323 63 72 137 255 
2.91404 2.59642 -1.10001 64 70 136 255 
2.81156 2.50945 -1.10415 68 58 131 255 
9.74613 8.64084 3.91265 72 27 109 255 
10.3278 9.17242 3.99474 66 63 133 255 
12.2124 10.8539 4.55259 72 35 116 255 
10.4863 9.31948 3.76695 63 71 136 255 
10.342 9.17883 3.589 67 62 133 255 
10.6926 9.49302 3.55973 69 56 130 255 
15.6907 13.9258 5.00956 72 40 120 255 
16.3764 14.5287 5.01397 71 19 101 255 
11.6021 10.3008 3.42255 71 44 122 255 
11.6889 10.374 3.2849 72 41 121 255 
11.7793 10.4433 3.15416 66 65 134 255 
10.842 9.60523 2.76312 72 35 116 255 
11.0348 9.79714 2.69234 68 58 131 255 
8.60472 7.63401 1.98485 66 65 134 255 
9.80072 8.68304 2.13013 60 80 139 255 
11.9764 10.5916 2.45222 72 41 121 255 
11.5753 10.2734 2.24678 61 77 138 255 
15.7286 13.9494 2.84619 72 35 116 255 
11.7437 10.3934 1.97281 71 47 125 255 
12.1816 10.7655 1.89536 70 52 128 255 
15.2287 13.5159 2.20838 72 37 118 255 
12.2277 10.8331 1.61618 71 47 125 255 
15.1256 13.3818 1.80595 70 48 126 255 
14.9686 13.2146 1.59949 71 46 124 255 
14.5472 12.9065 1.40424 71 42 122 255 
14.5492 12.8853 1.21933 70 52 128 255 
14.9739 13.2336 1.06479 72 37 118 255 
0 0 0 68 2 86 255 
0 0 0 69 4 87 255 
36.3222 32.1455 1.28706 69 4 87 255 
27.254 24.0781 0.622085 71 16 99 255 
13.9849 12.3288 0.146428 71 17 100 255 
14.1099 12.5053 -0.00329064 71 17 100 255 
13.8132 12.2162 -0.177018 72 29 111 255 
17.9802 15.8738 -0.452155 71 14 97 255 
12.0166 10.5862 -0.452923 71 17 100 255 
12.1041 10.7164 -0.587142 70 51 127 255 
11.1756 9.87663 -0.679873 71 45 123 255 
10.3349 9.12096 -0.758587 70 50 126 255 
9.58985 8.44533 -0.824106 72 37 118 255 
8.69588 7.69618 -0.842579 71 45 123 255 
7.99263 7.05864 -0.872938 69 55 129 255 
7.44689 6.56523 -0.906982 69 53 129 255 
6.90979 6.08513 -0.928747 69 53 129 255 
6.44678 5.69963 -0.937846 66 64 134 255 
6.06799 5.35702 -0.95946 62 76 138 255 
5.73218 5.05176 -0.978779 62 73 137 255 
5.3984 4.75078 -0.99018 61 78 138 255 
5.16568 4.5622 -1.00664 49 104 142 255 
4.9016 4.32425 -1.01656 56 88 140 255 
4.67817 4.12141 -1.02879 56 89 140 255 
4.45091 3.91696 -1.03691 59 81 139 255 
4.26227 3.75904 -1.04304 54 92 141 255 
4.08842 3.60305 -1.05138 57 86 140 255 
3.90035 3.43616 -1.05473 56 88 140 255 
3.74465 3.29658 -1.06317 62 74 137 255 
3.62746 3.19581 -1.07265 56 88 140 255 
3.49034 3.07381 -1.07716 57 86 140 255 
3.36255 2.96028 -1.08299 62 74 137 255 
3.24927 2.86248 -1.09252 65 66 135 255 
3.12396 2.74739 -1.08753 61 77 138 255 
3.02791 2.66281 -1.09402 65 66 135 255 
2.93208 2.5804 -1.10082 63 72 137 255 
2.82762 2.49278 -1.10443 67 62 133 255 
10.2385 8.96575 4.08814 71 42 122 255 
10.3839 9.10888 3.99474 65 66 135 255 
10.4262 9.15253 3.86572 71 47 125 255 
10.4954 9.21291 3.74984 69 55 129 255 
10.4018 9.11839 3.59025 69 56 130 255 
15.8914 13.9352 5.26192 72 38 119 255 
10.6735 9.35649 3.38933 64 70 136 255 
21.6733 18.9916 6.59994 70 10 93 255 
11.7201 10.2777 3.4387 66 63 133 255 
11.7215 10.2749 3.27626 66 65 134 255 
11.6691 10.2184 3.10779 65 66 135 255 
11.7871 10.3141 2.9878 71 45 123 255 
11.8107 10.3571 2.86608 69 55 129 255 
8.67289 7.59991 1.98978 71 44 122 255 
9.86793 8.63509 2.13318 66 64 134 255 
9.83245 8.58862 2.00241 62 76 138 255 
11.6292 10.1943 2.24506 69 53 129 255 
15.8743 13.9055 2.85705 72 29 111 255 
11.6735 10.2043 1.95046 61 78 138 255 
12.299 10.7356 1.90335 72 33 115 255 
12.2777 10.7628 1.77082 70 51 127 255 
12.303 10.7657 1.61736 72 23 105 255 
15.0986 13.1937 1.79303 69 55 129 255 
14.9359 13.0236 1.58744 69 53 129 255 
14.6554 12.8426 1.40705 71 45 123 255 
14.7039 12.8621 1.22565 72 22 104 255 
15.2572 13.3182 1.0791 70 11 94 255 
38.2302 33.3119 2.2228 70 7 90 255 
38.1615 33.4177 1.82455 69 4 87 255 
37.3128 32.6161 1.31505 69 4 87 255 
26.687 23.2872 0.605871 71 14 97 255 
13.9984 12.1889 0.145784 70 10 93 255 
17.1562 15.0183 -0.00397953 72 27 109 255 
13.8593 12.1062 -0.176653 72 20 103 255 
17.4534 15.2191 -0.436549 72 38 119 255 
15.0517 13.0969 -0.564281 72 22 104 255 
12.3028 10.7583 -0.593566 71 45 123 255 
11.3534 9.91036 -0.686976 72 40 120 255 
10.399 9.0646 -0.759192 70 52 128 255 
9.6445 8.38895 -0.824363 71 42 122 255 
8.74144 7.64136 -0.842434 72 41 121 255 
8.05757 7.02847 -0.875304 71 45 123 255 
7.45398 6.49064 -0.902979 70 48 126 255 
6.95 6.04523 -0.929149 69 56 130 255 
6.48687 5.66454 -0.938605 65 68 135 255 
6.10075 5.31969 -0.95946 64 69 136 255 
5.76382 5.01714 -0.978906 60 79 138 255 
5.43343 4.72277 -0.991271 56 88 140 255 
5.17792 4.51675 -1.00361 55 91 141 255 
4.93325 4.29864 -1.01764 58 83 139 255 
4.70337 4.09263 -1.02879 53 95 141 255 
4.47635 3.89087 -1.03726 58 83 139 255 
4.29416 3.74057 -1.04521 56 89 140 255 
4.10823 3.57596 -1.05081 57 86 140 255 
3.9295 3.41924 -1.05691 57 86 140 255 
3.7685 3.27675 -1.06421 62 76 138 255 
3.64921 3.17542 -1.0733 59 82 139 255 
3.50032 3.04466 -1.07446 58 84 140 255 
3.37918 2.93832 -1.08252 62 73 137 255 
3.26458 2.84058 -1.09179 62 76 138 255 
3.1393 2.7269 -1.08702 63 71 136 255 
3.05075 2.64988 -1.09638 65 66 135 255 
2.96674 2.57878 -1.10788 67 62 133 255 
2.85372 2.48484 -1.10865 66 64 134 255 
10.2817 8.89274 4.08354 64 70 136 255 
10.5405 9.13243 4.03336 69 53 129 255 
10.3715 8.99247 3.82492 70 48 126 255 
10.5677 9.16226 3.75554 71 45 123 255 
16.0723 13.9158 5.5179 71 16 99 255 
15.9766 13.8374 5.26192 72 32 113 255 
10.7337 9.29337 3.39026 67 62 133 255 
11.6189 10.0559 3.51931 70 8 92 255 
11.6302 10.0732 3.39411 71 16 99 255 
11.8191 10.2329 3.28593 69 53 129 255 
11.7419 10.1556 3.11054 72 36 117 255 
11.7892 10.1889 2.97243 72 40 120 255 
11.6584 10.0977 2.81403 72 40 120 255 
11.7274 10.15 2.67622 66 64 134 255 
12.0826 10.4429 2.59803 70 48 126 255 
9.89694 8.53846 2.00484 69 56 130 255 
11.6758 10.1092 2.24204 67 62 133 255 
11.6832 10.1082 2.09154 63 71 136 255 
11.7359 10.1325 1.95046 66 65 134 255 
11.9502 10.3026 1.83955 71 42 122 255 
12.5479 10.8643 1.80015 71 45 123 255 
15.4467 13.3502 2.01983 71 45 123 255 
15.1959 13.1151 1.79499 71 42 122 255 
14.9891 12.9089 1.58464 72 36 117 255 
14.7671 12.7812 1.41022 72 37 118 255 
15.8852 13.7243 1.31707 72 23 105 255 
49.2656 42.4747 3.46593 69 5 89 255 
0 0 0 68 2 86 255 
38.3628 33.1803 1.82441 69 5 89 255 
37.7657 32.6054 1.32393 69 5 89 255 
26.0115 22.4181 0.587399 70 7 90 255 
14.0813 12.11 0.145871 70 8 92 255 
17.2518 14.916 -0.0039804 72 32 113 255 
13.7713 11.8812 -0.174599 71 16 99 255 
13.8002 11.8853 -0.343343 72 23 105 255 
13.8286 11.8843 -0.515683 72 28 110 255 
12.4677 10.7682 -0.598321 72 41 121 255 
11.4201 9.84572 -0.687341 71 47 125 255 
10.4635 9.00844 -0.759851 70 52 128 255 
9.68974 8.32442 -0.823849 72 40 120 255 
8.78967 7.58888 -0.842579 71 45 123 255 
8.10734 6.98475 -0.876038 69 55 129 255 
7.49744 6.44803 -0.903433 70 48 126 255 
6.99375 6.00831 -0.930052 70 48 126 255 
6.51925 5.62269 -0.93828 65 66 135 255 
6.14381 5.29123 -0.961108 60 79 138 255 
5.80051 4.98686 -0.979922 64 69 136 255 
5.46531 4.69192 -0.991817 56 88 140 255 
5.20554 4.4849 -1.00361 59 81 139 255 
4.95205 4.26184 -1.0161 57 86 140 255 
4.71942 4.05598 -1.02684 57 86 140 255 
4.50014 3.86333 -1.03726 55 91 141 255 
4.30062 3.70004 -1.04123 56 88 140 255 
4.13009 3.55068 -1.05081 55 90 140 255 
3.96824 3.4104 -1.06169 55 90 140 255 
3.78853 3.25357 -1.06421 62 76 138 255 
3.67159 3.15551 -1.07417 56 88 140 255 
3.5108 3.01615 -1.07197 61 77 138 255 
3.39346 2.91436 -1.08134 62 73 137 255 
3.27459 2.81418 -1.08934 62 76 138 255 
3.17653 2.72523 -1.0941 62 74 137 255 
3.03619 2.60472 -1.08538 67 61 132 255 
2.96864 2.54861 -1.10272 65 66 135 255 
2.87255 2.47041 -1.11006 69 53 129 255 
10.2997 8.79838 4.06916 63 71 136 255 
10.4343 8.92893 3.97168 71 45 123 255 
12.6384 10.8228 4.63634 72 29 111 255 
12.983 11.1175 4.58953 72 38 119 255 
13.4893 11.5353 4.60671 72 27 109 255 
15.8717 13.577 5.19984 72 37 118 255 
15.9717 13.658 5.01815 72 31 112 255 
13.5824 11.6102 4.0924 72 24 106 255 
11.7786 10.076 3.41932 66 63 133 255 
11.6868 9.99359 3.23204 71 45 123 255 
12.0649 10.3062 3.17931 72 36 117 255 
12.0256 10.265 3.01609 67 61 132 255 
13.9673 11.9482 3.35357 72 28 110 255 
11.6059 9.92096 2.63456 72 40 120 255 
11.4813 9.80076 2.45576 72 29 111 255 
12.4477 10.6066 2.50832 72 32 113 255 
11.9069 10.1821 2.27437 72 40 120 255 
12.4457 10.635 2.21631 70 48 126 255 
12.155 10.3648 2.0095 72 38 119 255 
15.5063 13.2034 2.37444 69 53 129 255 
15.6699 13.4 2.2362 71 44 122 255 
15.0893 12.8804 1.96273 72 40 120 255 
15.0623 12.8394 1.76987 69 55 129 255 
16.0164 13.6233 1.68438 71 19 101 255 
14.8415 12.6871 1.40986 72 24 106 255 
15.2084 12.9774 1.25433 71 46 124 255 
16.0862 13.6977 1.12576 72 29 111 255 
15.2136 12.9314 0.875262 71 14 97 255 
54.9755 46.9622 2.6007 69 4 87 255 
37.7962 32.229 1.31805 70 7 90 255 
36.4636 31.0384 0.819116 69 4 87 255 
12.16 10.3286 0.125309 72 36 117 255 
17.7111 15.1242 -0.00406487 72 27 109 255 
22.5214 19.1905 -0.284039 71 13 96 255 
19.0553 16.2087 -0.471607 71 16 99 255 
15.2441 12.939 -0.565496 72 27 109 255 
12.2317 10.434 -0.583912 72 32 113 255 
11.4894 9.78324 -0.687887 71 42 122 255 
10.5224 8.9473 -0.760126 68 59 132 255 
9.74672 8.26997 -0.824363 72 40 120 255 
8.83607 7.53481 -0.842579 71 45 123 255 
8.15005 6.93487 -0.876038 70 51 127 255 
7.54294 6.40706 -0.904161 70 51 127 255 
7.01683 5.95369 -0.928245 70 50 126 255 
6.54606 5.57613 -0.937196 66 64 134 255 
6.17086 5.24893 -0.960284 64 69 136 255 
5.81739 4.93961 -0.977635 64 70 136 255 
5.48569 4.65125 -0.990316 58 84 140 255 
5.2322 4.45223 -1.00346 50 101 142 255 
4.9766 4.2301 -1.0158 58 83 139 255 
4.74046 4.02375 -1.02602 59 82 139 255 
4.52151 3.83373 -1.03674 59 82 139 255 
4.32924 3.67868 -1.04268 57 85 140 255 
4.14506 3.51956 -1.04911 55 91 141 255 
3.98685 3.38408 -1.06109 56 89 140 255 
3.8226 3.24228 -1.06817 62 74 137 255 
3.69758 3.13861 -1.07612 58 84 140 255 
3.55079 3.01283 -1.07852 58 84 140 255 
3.41795 2.89914 -1.08346 62 76 138 255 
3.28366 2.78713 -1.08665 62 76 138 255 
3.20574 2.71632 -1.0984 59 81 139 255 
3.04548 2.58043 -1.08302 66 64 134 255 
2.99523 2.53969 -1.10679 66 63 133 255 
2.86791 2.43596 -1.10246 67 61 132 255 
10.2517 8.64917 4.02917 68 58 131 255 
10.4992 8.87342 3.97557 67 61 132 255 
12.4934 10.5665 4.55931 72 36 117 255 
10.4773 8.861 3.68449 66 64 134 255 
10.9857 9.27825 3.7322 72 36 117 255 
13.6961 11.5712 4.46373 72 35 116 255 
16.0998 13.5974 5.03208 72 33 115 255 
11.7451 9.91566 3.52043 71 42 122 255 
11.8111 9.97892 3.41091 69 53 129 255 
11.7456 9.9198 3.23142 70 48 126 255 
12.113 10.2194 3.17538 72 41 121 255 
12.0598 10.1669 3.00897 70 48 126 255 
12.2165 10.3214 2.91795 67 61 132 255 
20.9252 17.6661 4.72534 71 13 96 255 
12.037 10.1481 2.56126 72 29 111 255 
11.869 9.98839 2.3793 72 41 121 255 
12.5573 10.6056 2.38614 72 40 120 255 
12.5273 10.5725 2.21926 68 58 131 255 
15.5362 13.0843 2.55519 72 38 119 255 
15.6106 13.1279 2.37803 72 36 117 255 
15.4974 13.0887 2.20008 72 40 120 255 
12.7326 10.7343 1.64758 72 32 113 255 
15.3328 12.9084 1.79232 72 38 119 255 
15.296 12.8497 1.60029 72 26 108 255 
14.8946 12.5752 1.40755 72 27 109 255 
15.4197 12.9951 1.26516 72 22 104 255 
15.4814 13.0196 1.07782 72 38 119 255 
15.3034 12.8468 0.875875 72 24 106 255 
0 0 0 68 2 86 255 
38.0024 32.0042 1.31836 70 11 94 255 
0 0 0 68 2 86 255 
12.1006 10.151 0.124052 72 29 111 255 
12.2301 10.3147 -0.00279235 72 33 115 255 
17.3964 14.6402 -0.218266 71 19 101 255 
18.888 15.8677 -0.465048 71 14 97 255 
15.3362 12.8561 -0.565977 71 16 99 255 
12.7724 10.7606 -0.60656 72 37 118 255 
11.5691 9.72927 -0.689071 69 53 129 255 
10.5885 8.8922 -0.76095 68 57 131 255 
9.79804 8.21065 -0.824428 71 42 122 255 
8.88595 7.48366 -0.842941 72 41 121 255 
8.18711 6.88024 -0.875467 70 52 128 255 
7.58821 6.36578 -0.904889 71 46 124 255 
7.01815 5.88113 -0.923629 70 51 127 255 
6.58319 5.53842 -0.93763 67 62 133 255 
6.19763 5.20649 -0.95946 61 77 138 255 
5.84683 4.90319 -0.977508 63 71 136 255 
5.52628 4.62768 -0.992499 55 91 141 255 
5.25109 4.41304 -1.00187 47 107 142 255 
5.00927 4.2052 -1.01718 60 79 138 255 
4.7643 3.99395 -1.02586 56 88 140 255 
4.54947 3.80971 -1.03777 59 82 139 255 
4.35399 3.65394 -1.04322 57 86 140 255 
4.16959 3.49658 -1.04987 55 90 140 255 
4.00454 3.35704 -1.06029 56 88 140 255 
3.85741 3.23133 -1.07234 60 79 138 255 
3.70181 3.10332 -1.07179 62 74 137 255 
3.57518 2.99599 -1.08032 56 89 140 255 
3.44387 2.88498 -1.08604 62 76 138 255 
3.30219 2.76818 -1.08714 63 71 136 255 
3.2038 2.68108 -1.09208 62 73 137 255 
3.08124 2.57841 -1.09009 66 63 133 255 
3.01297 2.52311 -1.10761 66 65 134 255 
2.88059 2.41647 -1.10162 68 57 131 255 
10.2627 8.55116 4.01277 67 61 132 255 
10.2843 8.58414 3.87417 61 77 138 255 
12.8227 10.7107 4.6554 72 29 111 255 
10.5115 8.77983 3.67748 70 50 126 255 
11.2632 9.39481 3.80681 69 53 129 255 
11.39 9.50373 3.69308 71 46 124 255 
13.7577 11.4754 4.27795 72 23 105 255 
11.7354 9.78473 3.49945 71 17 100 255 
11.9426 9.96507 3.43116 70 50 126 255 
11.7296 9.7836 3.21044 59 81 139 255 
20.7615 17.2989 5.41462 71 14 97 255 
12.0842 10.0613 2.9996 72 29 111 255 
21.0356 17.5524 4.99859 72 23 105 255 
11.6201 9.68881 2.61059 65 66 135 255 
12.4609 10.3753 2.63785 72 20 103 255 
11.8244 9.82756 2.35823 72 37 118 255 
12.5994 10.5093 2.38183 68 58 131 255 
12.9239 10.7721 2.27775 66 63 133 255 
15.5613 12.943 2.5462 70 52 128 255 
12.6879 10.5378 1.92293 72 35 116 255 
15.4087 12.8526 2.17625 72 37 118 255 
15.5032 12.9082 1.99581 70 48 126 255 
15.4125 12.8147 1.79241 71 44 122 255 
15.3991 12.7759 1.60285 72 40 120 255 
14.8919 12.4172 1.40006 71 13 96 255 
21.7303 18.0866 1.7738 70 10 93 255 
15.6071 12.9627 1.08101 72 37 118 255 
0 0 0 68 2 86 255 
0 0 0 68 1 84 255 
40.3162 33.5322 1.39147 69 4 87 255 
29.3521 24.3702 0.652597 70 11 94 255 
12.0425 9.97699 0.122827 72 33 115 255 
12.1241 10.0986 -0.00275396 72 23 105 255 
12.2996 10.2227 -0.153529 72 23 105 255 
12.4284 10.3116 -0.30444 72 38 119 255 
12.4628 10.3178 -0.457587 72 26 108 255 
12.9211 10.751 -0.61048 72 35 116 255 
11.6701 9.69257 -0.69153 71 47 125 255 
10.6375 8.8226 -0.760565 70 52 128 255 
9.8444 8.14719 -0.824106 71 44 122 255 
8.92097 7.42007 -0.841928 70 51 127 255 
8.21153 6.81524 -0.873591 71 45 123 255 
